ply
format ascii 1.0
element vertex 1762
property float x
property float y
property float z
end_header
-3.43554 -6.71819 1.46613 
-3.56066 -6.71521 1.51975 
-3.66851 -6.705 1.37347 
-3.90656 -6.68417 1.09343 
-4.03859 -6.67604 1.02444 
-4.15046 -6.66452 0.849077 
-4.27114 -6.66492 0.983234 
-4.38271 -6.65439 0.832572 
-4.50086 -6.65871 1.06295 
-4.60499 -6.65221 1.0064 
-4.72871 -6.65204 1.12928 
-4.84081 -6.63827 0.897816 
-4.97157 -6.63119 0.85386 
-5.07679 -6.62695 0.855375 
-5.20813 -6.6197 0.807663 
-5.30447 -6.62167 0.956445 
-5.42826 -6.62145 1.07835 
-5.53772 -6.61104 0.928567 
-5.66289 -6.60823 0.986722 
-5.78118 -6.59218 0.703853 
-5.90848 -6.58844 0.740836 
-5.99326 -6.59761 1.05909 
-6.12577 -6.59101 1.02911 
-6.24746 -6.57301 0.700931 
-6.35473 -6.58453 1.10148 
-6.45929 -6.57899 1.06968 
-6.58827 -6.57221 1.03157 
-6.69846 -6.56266 0.904395 
-6.8205 -6.56216 1.01736 
-6.91959 -6.56145 1.10154 
-7.04998 -6.555 1.07333 
-7.15051 -6.55353 1.13979 
-7.27916 -6.54733 1.11615 
-7.37519 -6.5484 1.2419 
-7.50314 -6.54314 1.24112 
-7.60245 -6.54255 1.32868 
-7.74018 -6.52957 1.14335 
-7.83145 -6.53457 1.36345 
-7.9706 -6.5232 1.22031 
-8.06065 -6.52649 1.39585 
1.82105 -6.44827 -9.71035 
0.632094 -6.56639 -5.54748 
0.52105 -6.57857 -5.13004 
0.386667 -6.58396 -4.85854 
0.2776 -6.58209 -4.7939 
0.148281 -6.60476 -4.09556 
0.0399519 -6.60231 -4.04654 
-0.201426 -6.59449 -3.99575 
-0.338333 -6.58839 -4.0087 
-0.442747 -6.58789 -3.91467 
-0.578021 -6.5959 -3.57675 
-0.687672 -6.59166 -3.57094 
-0.815769 -6.58921 -3.50142 
-1.49341 -6.72481 0.578829 
-1.59835 -6.73121 0.845808 
-1.71697 -6.74696 1.36049 
-1.82491 -6.73579 1.19152 
-1.9478 -6.72517 1.05146 
-2.05533 -6.71986 1.02863 
-2.17985 -6.72633 1.31728 
-2.28235 -6.72323 1.34435 
-2.41298 -6.71616 1.30113 
-2.51329 -6.71283 1.32024 
-2.64069 -6.71362 1.47015 
-2.74178 -6.70816 1.43675 
-2.9731 -6.69822 1.42464 
-3.10356 -6.69247 1.41402 
-3.20828 -6.68473 1.32761 
-3.33321 -6.68012 1.33978 
-3.43717 -6.67481 1.31318 
-3.56381 -6.67299 1.39716 
-3.66853 -6.66747 1.36604 
-3.91091 -6.64374 1.02055 
-4.03676 -6.64008 1.05764 
-4.14755 -6.62814 0.8722 
-4.26986 -6.6278 0.98868 
-4.37789 -6.6197 0.89677 
-4.49811 -6.62235 1.08581 
-4.60669 -6.61329 0.970318 
-4.72532 -6.61654 1.17267 
-4.84178 -6.59797 0.827419 
-4.96629 -6.59943 0.991147 
-5.07679 -6.58668 0.785469 
-5.19695 -6.58971 0.984048 
-5.30973 -6.57983 0.852194 
-5.43651 -6.57449 0.848449 
-5.53411 -6.57423 0.941803 
-5.77162 -6.56011 0.831548 
-5.90705 -6.55172 0.760279 
-5.99697 -6.5566 0.974143 
-6.12899 -6.54921 0.924603 
-6.24272 -6.53684 0.731412 
-6.35903 -6.54246 0.991047 
-6.47364 -6.53001 0.796863 
-6.69925 -6.52478 0.896949 
-6.8218 -6.5235 0.990386 
-6.92124 -6.52219 1.0593 
-7.04074 -6.52245 1.18811 
-7.15222 -6.51401 1.09114 
-7.26712 -6.51695 1.28226 
-7.36865 -6.51434 1.32101 
-7.49383 -6.51157 1.37971 
-7.60171 -6.50379 1.29562 
-7.72677 -6.50138 1.3635 
-7.82747 -6.49895 1.40568 
-7.95985 -6.49099 1.34215 
-8.05866 -6.48953 1.40678 
2.35649 -6.38804 -10.7444 
1.83215 -6.38326 -10.3326 
0.525552 -6.5447 -5.0068 
0.279662 -6.55534 -4.49412 
0.150178 -6.56991 -4.00161 
-0.0895955 -6.5584 -4.04415 
-0.199535 -6.55127 -4.10972 
-0.333656 -6.54958 -4.01571 
-0.44325 -6.56201 -3.5965 
-0.578111 -6.55158 -3.71848 
-0.686824 -6.56106 -3.37308 
-0.812874 -6.55847 -3.30976 
-1.49182 -6.69205 0.691413 
-1.5937 -6.69627 0.899242 
-1.71854 -6.69967 1.11033 
-1.82209 -6.69936 1.20761 
-1.94908 -6.69415 1.20715 
-2.0528 -6.68993 1.20755 
-2.1757 -6.69471 1.45094 
-2.27996 -6.68377 1.28523 
-2.41174 -6.67663 1.24172 
-2.51474 -6.67337 1.2655 
-2.63825 -6.67636 1.46484 
-2.74246 -6.66874 1.38166 
-2.86848 -6.66716 1.47039 
-2.97098 -6.65862 1.36242 
-3.10366 -6.6509 1.30568 
-3.20619 -6.64209 1.19107 
-3.3287 -6.64618 1.41676 
-3.43998 -6.63087 1.15002 
-3.56062 -6.63651 1.41235 
-3.66701 -6.62834 1.31779 
-3.78434 -6.63641 1.6371 
-3.90787 -6.60598 1.00742 
-4.03321 -6.60225 1.04219 
-4.14235 -6.59234 0.907134 
-4.26692 -6.59281 1.04524 
-4.3772 -6.57955 0.828388 
-4.50326 -6.57916 0.94663 
-4.60812 -6.57293 0.89856 
-4.72804 -6.57531 1.07946 
-4.83308 -6.5685 1.0173 
-4.96186 -6.56317 1.01589 
-5.07831 -6.54773 0.751109 
-5.20135 -6.54683 0.85373 
-5.30734 -6.54149 0.828956 
-5.43222 -6.53831 0.876825 
-5.54047 -6.5316 0.820277 
-5.77669 -6.51676 0.692264 
-5.91293 -6.50653 0.576854 
-5.99299 -6.51961 0.982784 
-6.11989 -6.51754 1.06045 
-6.2348 -6.5039 0.838603 
-6.35456 -6.50658 1.0268 
-6.46626 -6.49594 0.876458 
-6.70008 -6.48602 0.867983 
-6.81426 -6.48957 1.07227 
-6.91567 -6.48729 1.1186 
-7.04742 -6.48043 1.08254 
-7.15133 -6.47534 1.06173 
-7.26724 -6.47868 1.26262 
-7.37318 -6.47271 1.22223 
-7.49457 -6.47289 1.35002 
-7.60391 -6.46403 1.2415 
-7.72767 -6.46343 1.35259 
-7.82309 -6.46303 1.43957 
-8.06011 -6.44991 1.35523 
1.94219 -6.35681 -10.096 
0.527127 -6.50581 -5.00607 
0.285825 -6.53545 -4.03406 
0.152006 -6.52794 -4.08418 
0.0431824 -6.53664 -3.76034 
-0.200273 -6.51517 -4.04377 
-0.331697 -6.51844 -3.83098 
-0.437269 -6.50289 -4.10742 
-0.574914 -6.51541 -3.6606 
-0.685441 -6.51935 -3.45251 
-0.814368 -6.51323 -3.47334 
-1.49001 -6.66282 0.888996 
-1.5908 -6.66744 1.10403 
-1.71463 -6.66999 1.29163 
-1.81993 -6.66324 1.23158 
-1.94701 -6.65987 1.27675 
-2.0482 -6.65869 1.34969 
-2.17667 -6.65212 1.31748 
-2.28148 -6.64267 1.19048 
-2.40863 -6.64223 1.3079 
-2.51027 -6.64216 1.40852 
-2.6355 -6.64102 1.50689 
-2.74009 -6.63447 1.45102 
-2.86814 -6.62914 1.44897 
-2.97041 -6.62207 1.3781 
-3.09692 -6.62164 1.49499 
-3.20197 -6.61033 1.32251 
-3.32554 -6.60985 1.43526 
-3.43399 -6.60047 1.3139 
-3.56435 -6.5945 1.29838 
-3.66445 -6.5948 1.40658 
-3.79286 -6.58652 1.33248 
-3.89654 -6.57746 1.21383 
-4.03744 -6.56388 1.02179 
-4.14328 -6.55354 0.87397 
-4.26377 -6.55744 1.09165 
-4.37328 -6.54626 0.926887 
-4.49915 -6.54167 0.940776 
-4.60462 -6.53561 0.897999 
-4.72756 -6.53685 1.05266 
-4.83771 -6.52353 0.836013 
-4.959 -6.52708 1.0458 
-5.06399 -6.52151 1.01452 
-5.19331 -6.51434 0.968527 
-5.30172 -6.50598 0.872203 
-5.41824 -6.5136 1.17754 
-5.53999 -6.49422 0.823254 
-5.77088 -6.48316 0.784046 
-5.90676 -6.47246 0.657865 
-5.99256 -6.48034 0.93866 
-6.12809 -6.47314 0.898126 
-6.23122 -6.46979 0.919719 
-6.35468 -6.46715 0.979511 
-6.45681 -6.46175 0.949783 
-6.69813 -6.44808 0.856868 
-6.81572 -6.44995 1.02178 
-6.91805 -6.44693 1.0509 
-7.04724 -6.44068 1.02742 
-7.14509 -6.4406 1.12449 
-7.26512 -6.44168 1.27214 
-7.36283 -6.44182 1.37446 
-7.49568 -6.43305 1.29267 
-7.60026 -6.42913 1.30183 
-7.7216 -6.428 1.39665 
-7.81973 -6.42689 1.46864 
-7.96189 -6.41342 1.28077 
-8.05172 -6.41646 1.4464 
2.11029 -6.28981 -10.9112 
1.82811 -6.31386 -10.042 
0.528122 -6.4642 -5.0713 
0.39132 -6.47145 -4.75743 
0.285247 -6.51175 -3.667 
0.153785 -6.48099 -4.28682 
0.0465799 -6.47615 -4.29775 
-0.199624 -6.48278 -3.8895 
-0.32958 -6.4668 -4.14998 
-0.436158 -6.46933 -3.9814 
-0.572308 -6.47319 -3.75099 
-0.813802 -6.48657 -3.18265 
-1.35592 -6.64097 1.13125 
-1.58573 -6.63581 1.23539 
-1.71719 -6.62307 1.05578 
-1.81693 -6.62629 1.23443 
-1.94339 -6.6282 1.40753 
-2.04819 -6.61993 1.31054 
-2.17601 -6.61354 1.28257 
-2.27034 -6.62252 1.59627 
-2.41074 -6.6063 1.34086 
-2.51066 -6.60114 1.31489 
-2.63239 -6.60558 1.5452 
-2.73415 -6.60318 1.58858 
-2.86582 -6.59412 1.49923 
-2.96489 -6.59097 1.52161 
-3.09548 -6.58671 1.54834 
-3.19802 -6.57834 1.44666 
-3.32603 -6.57199 1.41987 
-3.42966 -6.56756 1.41534 
-3.56017 -6.56263 1.42583 
-3.6608 -6.55966 1.45405 
-3.78614 -6.55454 1.45466 
-3.89782 -6.53738 1.14735 
-4.02656 -6.53476 1.21244 
-4.1422 -6.51548 0.857393 
-4.25935 -6.52306 1.16001 
-4.36955 -6.51051 0.963933 
-4.49304 -6.50951 1.06346 
-4.59835 -6.50195 0.984332 
-4.72723 -6.49962 1.05658 
-4.83138 -6.49039 0.935677 
-4.96085 -6.48573 0.951472 
-5.06213 -6.48653 1.07267 
-5.18988 -6.47895 1.0156 
-5.30173 -6.46798 0.859951 
-5.42399 -6.46898 1.00688 
-5.53074 -6.46078 0.913609 
-5.66291 -6.45267 0.848097 
-5.78148 -6.43486 0.532047 
-5.90728 -6.43346 0.624055 
-5.99016 -6.44417 0.968902 
-6.12261 -6.43774 0.944658 
-6.23618 -6.4264 0.781724 
-6.35429 -6.42716 0.918765 
-6.45756 -6.42353 0.933776 
-6.57884 -6.42406 1.06846 
-6.68579 -6.41786 1.02439 
-6.80933 -6.41672 1.12048 
-6.91474 -6.41064 1.07766 
-7.03855 -6.40821 1.14276 
-7.14516 -6.40281 1.11768 
-7.27261 -6.39828 1.13517 
-7.37187 -6.39733 1.21167 
-7.48832 -6.39957 1.38316 
-7.59884 -6.39154 1.29813 
-7.72168 -6.38894 1.35792 
-7.8214 -6.38728 1.41739 
-7.94515 -6.38503 1.48694 
-8.05525 -6.37615 1.38036 
0.530185 -6.43265 -4.8925 
0.395687 -6.44588 -4.43807 
0.288819 -6.42848 -4.75361 
0.154528 -6.4357 -4.4451 
-0.195441 -6.43738 -4.05647 
-0.329292 -6.43182 -4.05825 
-0.434964 -6.44005 -3.75361 
-0.567741 -6.43438 -3.75916 
-0.81306 -6.43922 -3.39781 
-1.35497 -6.60374 1.12927 
-1.48353 -6.58596 0.82634 
-1.58191 -6.60375 1.35545 
-1.71308 -6.59663 1.31328 
-1.8123 -6.6 1.49378 
-1.9431 -6.59021 1.38664 
-2.04262 -6.59159 1.51924 
-2.17213 -6.57933 1.35091 
-2.27103 -6.5782 1.42185 
-2.40478 -6.57174 1.39859 
-2.50747 -6.5679 1.40773 
-2.6348 -6.56245 1.40232 
-2.73636 -6.56007 1.44583 
-2.86349 -6.55809 1.52441 
-2.96589 -6.5498 1.42528 
-3.09223 -6.55112 1.5831 
-3.196 -6.54389 1.51114 
-3.32443 -6.53523 1.42925 
-3.42642 -6.53205 1.45363 
-3.55952 -6.52196 1.34158 
-3.66416 -6.51692 1.3236 
-3.78472 -6.51995 1.51719 
-3.8936 -6.50571 1.28033 
-4.02789 -6.49277 1.10038 
-4.14225 -6.47554 0.796622 
-4.26285 -6.47871 0.993732 
-4.37534 -6.46356 0.738581 
-4.49272 -6.47017 1.01574 
-4.6016 -6.45937 0.862477 
-4.72235 -6.46369 1.08739 
-4.84076 -6.44183 0.675559 
-4.95763 -6.45044 1.0008 
-5.06141 -6.44578 0.9912 
-5.18857 -6.44226 1.03272 
-5.29478 -6.43431 0.945656 
-5.42471 -6.42978 0.965491 
-5.5341 -6.41862 0.803809 
-5.6488 -6.42676 1.1158 
-5.76989 -6.40619 0.737498 
-5.89439 -6.40463 0.82387 
-5.9929 -6.40373 0.90029 
-6.12903 -6.3945 0.812239 
-6.22664 -6.39398 0.897125 
-6.35076 -6.39143 0.959023 
-6.45928 -6.38441 0.897009 
-6.57875 -6.38501 1.03087 
-6.69594 -6.37108 0.809974 
-6.80797 -6.37819 1.09428 
-6.91564 -6.37105 1.02846 
-7.03998 -6.36908 1.10484 
-7.14234 -6.36622 1.13749 
-7.2625 -6.36587 1.24905 
-7.37121 -6.35858 1.18072 
-7.48456 -6.36398 1.42495 
-7.59505 -6.35439 1.30254 
-7.718 -6.35301 1.39195 
-7.8194 -6.34983 1.41592 
-7.94294 -6.34836 1.50354 
-8.04835 -6.34254 1.46763 
0.533614 -6.40725 -4.56988 
0.398484 -6.40943 -4.38389 
0.296392 -6.41633 -4.11709 
0.1574 -6.40785 -4.18373 
0.0480543 -6.41369 -3.93525 
-0.195807 -6.41619 -3.63409 
-0.326771 -6.40281 -3.8266 
-0.434101 -6.40371 -3.69877 
-0.566319 -6.40004 -3.65652 
-1.1252 -6.56125 0.774778 
-1.35305 -6.56587 1.11125 
-1.48197 -6.55524 0.982956 
-1.58237 -6.55927 1.17911 
-1.71313 -6.55478 1.2004 
-1.81065 -6.56239 1.48009 
-1.94172 -6.55043 1.32183 
-2.04247 -6.5479 1.36085 
-2.16921 -6.54267 1.36021 
-2.26928 -6.54208 1.44504 
-2.39915 -6.54048 1.53508 
-2.5023 -6.53644 1.5399 
-2.62816 -6.53619 1.65839 
-2.72899 -6.53195 1.65636 
-2.85692 -6.52838 1.69708 
-2.96098 -6.51691 1.52402 
-3.09373 -6.50799 1.44077 
-3.19633 -6.50522 1.4757 
-3.32252 -6.49439 1.33983 
-3.42543 -6.4937 1.42514 
-3.54862 -6.49532 1.58625 
-3.65713 -6.48881 1.53687 
-3.78456 -6.48018 1.45548 
-3.89456 -6.46684 1.24345 
-4.02757 -6.45502 1.0906 
-4.13944 -6.43856 0.8054 
-4.2593 -6.44403 1.05568 
-4.37056 -6.42949 0.81591 
-4.49082 -6.43389 1.04092 
-4.60007 -6.42044 0.82542 
-4.72723 -6.42052 0.953405 
-4.83426 -6.41001 0.806466 
-4.95821 -6.41266 0.993016 
-5.06626 -6.40325 0.873682 
-5.18731 -6.40516 1.03966 
-5.29715 -6.39393 0.878194 
-5.42146 -6.3943 1.01032 
-5.53359 -6.37953 0.765882 
-5.65357 -6.38428 0.999027 
-5.7716 -6.36671 0.693304 
-5.89608 -6.36542 0.785641 
-5.99491 -6.36291 0.823113 
-6.12735 -6.35614 0.791458 
-6.22882 -6.35146 0.779502 
-6.34964 -6.35406 0.961673 
-6.45201 -6.35085 0.986027 
-6.57687 -6.34921 1.07042 
-6.68948 -6.33834 0.920461 
-6.80167 -6.34473 1.18553 
-6.9155 -6.33257 1.00559 
-7.0382 -6.33165 1.10528 
-7.14219 -6.32805 1.12164 
-7.25806 -6.33038 1.29269 
-7.36906 -6.32123 1.1827 
-7.48712 -6.32394 1.36496 
-7.58921 -6.3206 1.38599 
-7.71256 -6.31809 1.44782 
-7.81475 -6.31474 1.46861 
-7.94667 -6.30663 1.40434 
-8.04488 -6.30559 1.47668 
2.20194 -6.20155 -10.1907 
0.645918 -6.32254 -5.77494 
0.534624 -6.36323 -4.69412 
0.399706 -6.35213 -4.82672 
0.292381 -6.36334 -4.45353 
0.15848 -6.37354 -4.07843 
0.0483764 -6.383 -3.74456 
-0.191554 -6.36298 -3.98698 
-0.324755 -6.36141 -3.89352 
-0.430611 -6.36154 -3.78647 
-0.565383 -6.36242 -3.63321 
-1.12262 -6.52227 0.731738 
-1.35291 -6.52709 1.07329 
-1.47766 -6.52876 1.2358 
-1.579 -6.52519 1.25009 
-1.70666 -6.52482 1.36697 
-1.81117 -6.51918 1.33482 
-1.94008 -6.509 1.21859 
-2.03843 -6.51744 1.51677 
-2.17083 -6.50106 1.25585 
-2.26609 -6.50989 1.56038 
-2.39908 -6.49925 1.43711 
-2.50256 -6.4962 1.46594 
-2.62618 -6.49806 1.63197 
-2.73012 -6.49049 1.55344 
-2.85658 -6.48668 1.58692 
-2.95934 -6.47875 1.49862 
-3.09262 -6.46822 1.37813 
-3.19292 -6.46826 1.4779 
-3.31955 -6.46478 1.51928 
-3.41854 -6.46255 1.56348 
-3.5496 -6.45553 1.52482 
-3.65901 -6.44613 1.40788 
-3.78389 -6.43828 1.34324 
-3.89136 -6.43149 1.28675 
-4.02506 -6.41758 1.08616 
-4.12949 -6.41013 1.01101 
-4.26447 -6.39876 0.872418 
-4.3613 -6.40016 1.00119 
-4.49531 -6.38949 0.878249 
-4.5992 -6.38432 0.85695 
-4.82589 -6.38087 0.997724 
-4.95539 -6.3756 0.999325 
-5.06399 -6.36479 0.848071 
-5.18655 -6.36708 1.02345 
-5.30144 -6.35062 0.743416 
-5.41504 -6.35912 1.05844 
-5.52965 -6.34286 0.782963 
-5.77158 -6.32765 0.657917 
-5.89196 -6.32953 0.821478 
-6.00373 -6.31817 0.660196 
-6.12458 -6.31922 0.804231 
-6.23174 -6.31387 0.782119 
-6.35355 -6.3118 0.852635 
-6.45528 -6.31073 0.927313 
-6.57224 -6.31381 1.1163 
-6.68707 -6.30192 0.945367 
-6.80549 -6.30349 1.09948 
-6.91149 -6.29819 1.07752 
-7.03667 -6.29465 1.11617 
-7.14361 -6.28735 1.04731 
-7.25848 -6.29225 1.27772 
-7.36244 -6.28728 1.26149 
-7.48345 -6.28719 1.37865 
-7.59229 -6.27976 1.30827 
-7.71398 -6.27866 1.40212 
-7.82021 -6.2726 1.36217 
-7.93918 -6.27303 1.48971 
-8.0489 -6.26471 1.39915 
2.09598 -6.15445 -10.2434 
1.84172 -6.14022 -10.3328 
0.534903 -6.3199 -4.79949 
0.401527 -6.33138 -4.39699 
0.294535 -6.34286 -4.02052 
0.160821 -6.33296 -4.1247 
0.0510418 -6.33972 -3.85723 
-0.188758 -6.31278 -4.2618 
-0.324855 -6.33298 -3.65007 
-0.430379 -6.33023 -3.61228 
-0.563281 -6.3141 -3.86491 
-1.34942 -6.49118 1.1009 
-1.47687 -6.48344 1.04178 
-1.57947 -6.48656 1.21604 
-1.70222 -6.49116 1.44509 
-1.80991 -6.48435 1.38896 
-1.93236 -6.48671 1.56443 
-2.03782 -6.47958 1.49863 
-2.16875 -6.4709 1.4208 
-2.26562 -6.47001 1.49431 
-2.39558 -6.46302 1.4556 
-2.49649 -6.46595 1.62381 
-2.62523 -6.45834 1.5692 
-2.72664 -6.45636 1.62138 
-2.9573 -6.44493 1.576 
-3.08651 -6.4419 1.63046 
-3.19095 -6.43282 1.51753 
-3.31767 -6.42845 1.53785 
-3.42103 -6.42257 1.49955 
-3.54581 -6.42115 1.58776 
-3.6551 -6.41032 1.43793 
-3.89114 -6.39186 1.23119 
-4.02281 -6.38148 1.11398 
-4.12921 -6.3718 0.988543 
-4.2618 -6.35981 0.833945 
-4.36366 -6.36225 0.991582 
-4.49116 -6.35419 0.925095 
-4.5928 -6.35393 1.01837 
-4.72108 -6.34837 1.01217 
-4.83322 -6.33235 0.742152 
-4.9555 -6.33506 0.926001 
-5.06159 -6.32769 0.854997 
-5.18128 -6.32947 1.01451 
-5.29853 -6.31573 0.803353 
-5.41872 -6.31507 0.905594 
-5.52731 -6.3095 0.879705 
-5.65012 -6.30925 0.994126 
-5.77294 -6.28924 0.639757 
-5.88418 -6.29718 0.937157 
-6.00186 -6.28039 0.654163 
-6.1195 -6.28447 0.86625 
-6.2366 -6.26905 0.615229 
-6.34477 -6.28168 1.0206 
-6.44869 -6.27646 0.998777 
-6.56938 -6.27781 1.14899 
-6.6834 -6.26586 0.977324 
-6.80727 -6.26401 1.05477 
-6.91109 -6.25977 1.05593 
-7.03243 -6.25948 1.16798 
-7.14172 -6.25002 1.05078 
-7.26013 -6.25228 1.22045 
-7.37069 -6.24346 1.11951 
-7.4831 -6.24901 1.36141 
-7.58435 -6.24718 1.41725 
-7.71226 -6.24165 1.41149 
-7.82003 -6.2339 1.33329 
-7.94477 -6.23135 1.39518 
-8.04103 -6.23227 1.51125 
2.20467 -6.12046 -10.1949 
1.94707 -6.13423 -9.62136 
1.69566 -6.10129 -10.1527 
0.537916 -6.28567 -4.69164 
0.401648 -6.28662 -4.53698 
0.301756 -6.30066 -4.10971 
0.157432 -6.30634 -3.83614 
0.0530166 -6.29801 -3.93079 
-0.18661 -6.28637 -3.9721 
-0.323859 -6.28647 -3.83669 
-0.560136 -6.28024 -3.75379 
-1.11825 -6.45891 0.992533 
-1.34872 -6.45507 1.12595 
-1.47388 -6.44821 1.08614 
-1.5748 -6.46198 1.50821 
-1.69933 -6.46103 1.60684 
-1.80511 -6.45722 1.61991 
-2.03565 -6.44074 1.45598 
-2.1642 -6.44086 1.58389 
-2.26407 -6.4341 1.52175 
-2.39441 -6.42841 1.51443 
-2.49356 -6.42665 1.56951 
-2.62019 -6.43005 1.77249 
-2.72449 -6.41901 1.61409 
-2.95649 -6.40644 1.54387 
-3.08157 -6.4077 1.69507 
-3.19004 -6.39306 1.4559 
-3.31768 -6.38742 1.44731 
-3.4247 -6.37727 1.31238 
-3.54482 -6.3801 1.49576 
-3.65171 -6.37179 1.40425 
-3.89673 -6.34429 0.995224 
-4.0226 -6.34328 1.0938 
-4.13158 -6.33074 0.904595 
-4.25632 -6.32886 0.98172 
-4.36318 -6.32141 0.910379 
-4.49058 -6.31597 0.906155 
-4.60405 -6.3 0.640741 
-4.82747 -6.30186 0.901803 
-4.95801 -6.29303 0.820916 
-5.05384 -6.29314 0.916775 
-5.18586 -6.28733 0.908688 
-5.28781 -6.28515 0.95649 
-5.40912 -6.28855 1.15455 
-5.51664 -6.27786 1.00773 
-5.77078 -6.25093 0.621049 
-5.88911 -6.25376 0.802914 
-5.99428 -6.24748 0.757527 
-6.12171 -6.24342 0.785986 
-6.22976 -6.23731 0.747414 
-6.34936 -6.23785 0.876583 
-6.45349 -6.23324 0.869257 
-6.57148 -6.23686 1.06943 
-6.6941 -6.21803 0.745477 
-6.80178 -6.22824 1.09081 
-6.9064 -6.22425 1.09875 
-7.03372 -6.22081 1.14182 
-7.14183 -6.21102 1.01677 
-7.25877 -6.21487 1.22137 
-7.36169 -6.21127 1.23691 
-7.48685 -6.20729 1.26512 
-7.58189 -6.20969 1.41409 
-7.71092 -6.20419 1.41042 
-7.81755 -6.1977 1.36165 
-7.94237 -6.19542 1.42939 
-8.03593 -6.19745 1.56839 
2.09766 -6.08339 -10.0113 
1.84065 -6.07258 -10.016 
1.70445 -6.05672 -10.2555 
0.537515 -6.2333 -5.00579 
0.401692 -6.2441 -4.62263 
0.305236 -6.26272 -4.09465 
0.162086 -6.24677 -4.32897 
0.0556929 -6.25782 -3.96837 
-0.186434 -6.24727 -3.9813 
-0.319323 -6.24535 -3.89792 
-0.428607 -6.24231 -3.86342 
-0.559818 -6.24665 -3.63552 
-1.11828 -6.42628 1.10003 
-1.24648 -6.40101 0.633457 
-1.34466 -6.42404 1.26624 
-1.47213 -6.42325 1.37099 
-1.57414 -6.41566 1.29201 
-1.69855 -6.42225 1.5662 
-1.80528 -6.41713 1.54967 
-1.93176 -6.40555 1.40125 
-2.02997 -6.41721 1.76849 
-2.16174 -6.40121 1.52207 
-2.26186 -6.40041 1.6001 
-2.39254 -6.38851 1.44836 
-2.48844 -6.39609 1.71804 
-2.61735 -6.39427 1.79999 
-2.7229 -6.38251 1.62722 
-2.8485 -6.3835 1.77177 
-2.95156 -6.37427 1.65564 
-3.08219 -6.36669 1.60482 
-3.18574 -6.35956 1.53828 
-3.31246 -6.35389 1.52835 
-3.41687 -6.35039 1.54752 
-3.54463 -6.34135 1.45968 
-3.65198 -6.33415 1.39535 
-3.77544 -6.33584 1.55398 
-3.8847 -6.32183 1.33237 
-4.01799 -6.31059 1.19869 
-4.1311 -6.29138 0.859031 
-4.25584 -6.29128 0.977396 
-4.36081 -6.28395 0.907543 
-4.48658 -6.28204 0.984615 
-4.58832 -6.27974 1.02928 
-4.83273 -6.25485 0.683951 
-4.95637 -6.25496 0.806116 
-5.06164 -6.24735 0.730184 
-5.18776 -6.24621 0.825636 
-5.29909 -6.23465 0.663117 
-5.41374 -6.24378 0.987461 
-5.52526 -6.23147 0.80764 
-5.76656 -6.21606 0.680905 
-5.89037 -6.21378 0.747432 
-6.00104 -6.20216 0.582985 
-6.12193 -6.20461 0.757328 
-6.23294 -6.19523 0.645592 
-6.34575 -6.20162 0.904237 
-6.46795 -6.18245 0.574473 
-6.80311 -6.18831 1.03587 
-6.91213 -6.17996 0.946384 
-7.03243 -6.18146 1.09795 
-7.13058 -6.18066 1.17414 
-7.25786 -6.17735 1.22004 
-7.3658 -6.16949 1.14102 
-7.48493 -6.17007 1.26987 
-7.59568 -6.16139 1.17425 
-7.69929 -6.17469 1.58552 
-7.81006 -6.16404 1.44397 
-7.93554 -6.16121 1.49926 
-8.0433 -6.15262 1.403 
2.22583 -6.02357 -10.5828 
2.0987 -6.03941 -10.0938 
1.71492 -6.00326 -10.5643 
0.65108 -6.18399 -5.35367 
0.540994 -6.20988 -4.64783 
0.404447 -6.20592 -4.60862 
0.301314 -6.22817 -3.9938 
0.164154 -6.20822 -4.32497 
0.0611174 -6.21441 -4.08269 
-0.0778586 -6.22577 -3.6859 
-0.183643 -6.21454 -3.84483 
-0.319425 -6.21795 -3.63548 
-0.429952 -6.2192 -3.50061 
-0.55738 -6.21064 -3.57678 
-1.11546 -6.38459 0.99325 
-1.24387 -6.37686 0.937226 
-1.34289 -6.3868 1.26272 
-1.46875 -6.37807 1.18102 
-1.57234 -6.38347 1.40569 
-1.69821 -6.38354 1.52833 
-1.80225 -6.38325 1.62145 
-2.02889 -6.37703 1.69476 
-2.1583 -6.36856 1.62254 
-2.26155 -6.36039 1.53232 
-2.38663 -6.36456 1.749 
-2.48898 -6.3531 1.58159 
-2.61962 -6.35079 1.65347 
-2.72229 -6.34437 1.60306 
-2.9541 -6.32918 1.47353 
-3.07807 -6.33382 1.70015 
-3.18371 -6.32159 1.51797 
-3.30817 -6.32322 1.67541 
-3.41792 -6.30935 1.45908 
-3.53605 -6.31529 1.71038 
-3.64583 -6.30525 1.58315 
-3.77112 -6.29696 1.51115 
-3.89132 -6.27429 1.10071 
-4.01166 -6.27802 1.30294 
-4.12644 -6.2593 0.979167 
-4.25188 -6.25611 1.02561 
-4.36007 -6.2459 0.892717 
-4.48061 -6.249 1.08062 
-4.59424 -6.23294 0.817215 
-4.72364 -6.22685 0.800502 
-4.82396 -6.22638 0.885919 
-4.95985 -6.21076 0.654365 
-5.06044 -6.21081 0.752098 
-5.18417 -6.21145 0.886077 
-5.30067 -6.19494 0.615053 
-5.40891 -6.20863 1.03683 
-5.5224 -6.1955 0.841314 
-5.771 -6.17089 0.509582 
-5.89059 -6.17453 0.708905 
-6.00654 -6.15875 0.454334 
-6.12155 -6.16487 0.707054 
-6.21817 -6.16889 0.893357 
-6.34659 -6.1627 0.873313 
-6.45693 -6.1528 0.749765 
-6.67576 -6.15176 0.93631 
-6.80806 -6.14512 0.9096 
-6.90903 -6.14382 0.976714 
-7.02137 -6.152 1.27462 
-7.14218 -6.13365 0.965099 
-7.2616 -6.13472 1.10486 
-7.37169 -6.12591 1.00639 
-7.47453 -6.14015 1.43596 
-7.59437 -6.12295 1.15219 
-7.70627 -6.13114 1.45006 
-7.81 -6.12518 1.41165 
-7.9346 -6.12309 1.48325 
-8.0389 -6.11771 1.45883 
1.84024 -6.00511 -9.70499 
0.546429 -6.18582 -4.31133 
0.407171 -6.16542 -4.64845 
0.299613 -6.19488 -3.86763 
0.168224 -6.17595 -4.17821 
0.0586468 -6.18256 -3.92138 
-0.0736118 -6.17443 -3.98248 
-0.182833 -6.17459 -3.87467 
-0.317082 -6.17737 -3.68274 
-0.42649 -6.17171 -3.70862 
-1.1078 -6.36022 1.28223 
-1.24134 -6.34432 1.04343 
-1.34202 -6.34671 1.19443 
-1.46676 -6.34145 1.19251 
-1.57208 -6.34646 1.40835 
-1.69897 -6.33987 1.37765 
-1.79869 -6.34821 1.66506 
-1.92716 -6.33707 1.5311 
-2.02912 -6.33717 1.63073 
-2.15749 -6.3299 1.58593 
-2.25974 -6.32615 1.59703 
-2.38702 -6.32288 1.64338 
-2.48522 -6.32678 1.82688 
-2.61973 -6.31328 1.64443 
-2.71653 -6.31556 1.78949 
-2.84379 -6.30919 1.76417 
-2.95047 -6.29831 1.6157 
-3.08091 -6.29095 1.57075 
-3.18082 -6.28618 1.55615 
-3.31015 -6.27782 1.48737 
-3.41472 -6.27601 1.54541 
-3.53679 -6.27171 1.56296 
-3.64933 -6.25979 1.39595 
-3.76784 -6.26498 1.62882 
-3.87862 -6.25113 1.41574 
-4.00884 -6.24331 1.36004 
-4.11993 -6.22685 1.08698 
-4.25281 -6.2167 0.980236 
-4.35832 -6.20751 0.869364 
-4.48006 -6.21041 1.05262 
-4.58728 -6.20119 0.942806 
-4.71219 -6.20282 1.09965 
-4.82611 -6.18455 0.787726 
-4.95181 -6.18245 0.859671 
-5.06282 -6.16922 0.661069 
-5.18522 -6.17337 0.873676 
-5.29746 -6.16126 0.701899 
-5.41561 -6.16452 0.890068 
-5.51747 -6.1621 0.931718 
-5.76063 -6.13999 0.655075 
-5.88299 -6.14312 0.844151 
-5.99326 -6.13147 0.681279 
-6.12067 -6.12731 0.707422 
-6.2212 -6.12615 0.776865 
-6.34995 -6.12068 0.773923 
-6.4566 -6.1151 0.747568 
-6.80251 -6.11069 0.976924 
-6.91115 -6.1032 0.908305 
-7.02576 -6.10913 1.15472 
-7.11921 -6.11269 1.32612 
-7.25298 -6.10306 1.23236 
-7.37069 -6.08864 1.01276 
-7.47669 -6.09927 1.35922 
-7.58701 -6.08998 1.25073 
-7.71065 -6.08903 1.34741 
-7.8162 -6.0828 1.30491 
-7.94038 -6.08017 1.36313 
-8.03033 -6.08529 1.56718 
1.84189 -5.96523 -9.69469 
1.7205 -5.92018 -10.6096 
0.654782 -6.12694 -4.87332 
0.411585 -6.14594 -4.20862 
0.300808 -6.15825 -3.82204 
0.169692 -6.14307 -4.04494 
0.0588295 -6.14851 -3.81547 
-0.0716036 -6.13212 -4.06645 
-0.179646 -6.13214 -3.96357 
-0.313382 -6.13589 -3.75095 
-0.423996 -6.13726 -3.61479 
-1.10613 -6.32176 1.25051 
-1.23754 -6.31492 1.21873 
-1.33813 -6.32405 1.52312 
-1.46724 -6.30526 1.21601 
-1.56898 -6.31235 1.47451 
-1.69508 -6.31017 1.54451 
-1.79852 -6.30397 1.50077 
-1.92659 -6.29506 1.41856 
-2.02985 -6.2946 1.50611 
-2.15686 -6.29167 1.55957 
-2.26039 -6.28576 1.52273 
-2.38605 -6.28242 1.56573 
-2.489 -6.27637 1.52514 
-2.61709 -6.27672 1.65485 
-2.71554 -6.27643 1.74163 
-2.94641 -6.2607 1.60113 
-3.07679 -6.25608 1.61939 
-3.18227 -6.24402 1.44376 
-3.30575 -6.24712 1.63192 
-3.41108 -6.24067 1.58453 
-3.53801 -6.22993 1.45943 
-3.64569 -6.22648 1.48281 
-3.87805 -6.21341 1.40461 
-4.00753 -6.20599 1.35812 
-4.12433 -6.18399 0.965861 
-4.2458 -6.1854 1.11367 
-4.35683 -6.17007 0.868429 
-4.48216 -6.1691 0.96531 
-4.58824 -6.16059 0.871641 
-4.72076 -6.15357 0.836932 
-4.82552 -6.14399 0.717555 
-4.95673 -6.1374 0.691607 
-5.05845 -6.13473 0.727099 
-5.18692 -6.13067 0.756528 
-5.29824 -6.11805 0.573658 
-5.41549 -6.12663 0.881433 
-5.52158 -6.11911 0.810233 
-5.76051 -6.10098 0.622824 
-5.89033 -6.09532 0.616713 
-5.99897 -6.08819 0.557129 
-6.1211 -6.08686 0.642712 
-6.22108 -6.08844 0.774059 
-6.34482 -6.08648 0.846902 
-6.44658 -6.08286 0.86091 
-6.67868 -6.07551 0.913768 
-6.80124 -6.07325 0.978604 
-6.90885 -6.06673 0.931879 
-7.02471 -6.0719 1.16035 
-7.1278 -6.06731 1.15345 
-7.2535 -6.06392 1.19549 
-7.36664 -6.05266 1.04568 
-7.47263 -6.06479 1.424 
-7.58336 -6.0545 1.29408 
-7.69663 -6.05977 1.5225 
-7.81744 -6.04383 1.27296 
-7.9324 -6.047 1.45476 
-8.02198 -6.05311 1.68 
1.85715 -5.89573 -10.3698 
1.70494 -5.91275 -9.84018 
1.5918 -5.91573 -9.66601 
0.40992 -6.11901 -3.93813 
0.30382 -6.11814 -3.85799 
0.169638 -6.11961 -3.69819 
0.0609227 -6.10777 -3.8644 
-0.0717759 -6.10039 -3.90684 
-0.178318 -6.08989 -4.04482 
-0.3119 -6.10442 -3.58914 
-0.419146 -6.08402 -3.95097 
-1.23581 -6.27539 1.16368 
-1.33647 -6.27706 1.29656 
-1.46349 -6.27139 1.28782 
-1.56771 -6.27177 1.39471 
-1.69367 -6.2695 1.46212 
-1.79505 -6.27193 1.61279 
-1.91879 -6.26741 1.62712 
-2.02515 -6.25846 1.52416 
-2.1522 -6.26318 1.75134 
-2.25717 -6.24972 1.54465 
-2.38307 -6.24965 1.66194 
-2.48712 -6.24123 1.56896 
-2.61296 -6.24366 1.74296 
-2.71229 -6.23795 1.70714 
-2.94114 -6.23158 1.77861 
-3.07603 -6.2169 1.57277 
-3.17974 -6.21324 1.58744 
-3.30668 -6.20529 1.52681 
-3.41491 -6.19239 1.3361 
-3.53711 -6.1952 1.51531 
-3.64251 -6.18804 1.45236 
-3.88245 -6.16859 1.23733 
-4.01076 -6.1643 1.26113 
-4.11769 -6.15211 1.08535 
-4.25108 -6.14069 0.952002 
-4.35124 -6.13742 0.972516 
-4.48284 -6.12727 0.866355 
-4.58498 -6.12381 0.88429 
-4.71921 -6.11254 0.755267 
-4.82289 -6.10723 0.732667 
-4.95372 -6.10118 0.719003 
-5.05884 -6.09678 0.71821 
-5.17763 -6.09989 0.901307 
-5.29226 -6.08386 0.645597 
-5.4172 -6.08608 0.814032 
-5.51662 -6.08267 0.830628 
-5.76509 -6.05917 0.531933 
-5.88809 -6.05955 0.656955 
-5.98898 -6.05759 0.707822 
-6.12173 -6.04797 0.614742 
-6.21995 -6.05146 0.787079 
-6.33535 -6.05528 0.98297 
-6.45009 -6.03985 0.741026 
-6.67668 -6.03532 0.852519 
-6.80386 -6.03264 0.912019 
-6.89767 -6.03644 1.08706 
-7.02694 -6.03214 1.11172 
-7.14186 -6.0159 0.851608 
-7.25476 -6.02585 1.18448 
-7.3637 -6.01657 1.07673 
-7.48535 -6.01725 1.20723 
-7.57639 -6.02114 1.38175 
-7.70537 -6.01541 1.37373 
-7.80603 -6.01328 1.42057 
-7.93016 -6.01081 1.48201 
-8.0306 -6.00864 1.52781 
2.11918 -5.86021 -10.5005 
1.96459 -5.8824 -9.85567 
1.85684 -5.85828 -10.2984 
1.70967 -5.8737 -9.81314 
0.65815 -6.04844 -4.88952 
0.55018 -6.05954 -4.53813 
0.412759 -6.05465 -4.51966 
0.305829 -6.04977 -4.52948 
0.173003 -6.06895 -3.97252 
0.0626403 -6.07375 -3.76095 
-0.070682 -6.06829 -3.75897 
-0.178939 -6.05402 -3.97933 
-0.307495 -6.05279 -3.88648 
-0.416793 -6.04297 -4.00536 
-1.10494 -6.24855 1.27456 
-1.23648 -6.22668 0.904739 
-1.33528 -6.23384 1.15899 
-1.46208 -6.23487 1.30104 
-1.56636 -6.23138 1.32014 
-1.6894 -6.23798 1.58453 
-1.79248 -6.2379 1.67938 
-2.02085 -6.23363 1.79742 
-2.1529 -6.21549 1.51241 
-2.25154 -6.21503 1.59465 
-2.38166 -6.21263 1.66269 
-2.48566 -6.20419 1.56997 
-2.61324 -6.20175 1.63476 
-2.71482 -6.1937 1.54855 
-2.94211 -6.19075 1.69556 
-3.07496 -6.17982 1.57383 
-3.17807 -6.17571 1.57801 
-3.30073 -6.17472 1.67083 
-3.40862 -6.16339 1.51666 
-3.53612 -6.15552 1.45903 
-3.63454 -6.15984 1.64883 
-3.76128 -6.15664 1.69556 
-3.87145 -6.14326 1.49742 
-4.01124 -6.12095 1.12579 
-4.11335 -6.11783 1.15123 
-4.24953 -6.10148 0.910483 
-4.3478 -6.10058 0.982561 
-4.47075 -6.10366 1.16748 
-4.58988 -6.08008 0.747831 
-4.82185 -6.06954 0.728185 
-4.9465 -6.06931 0.840108 
-5.05611 -6.06079 0.750866 
-5.18305 -6.05349 0.705747 
-5.28995 -6.0471 0.661989 
-5.41339 -6.05059 0.856817 
-5.51382 -6.04596 0.846811 
-5.75167 -6.03074 0.727262 
-5.88626 -6.02216 0.660235 
-5.98777 -6.01902 0.684794 
-6.11632 -6.0133 0.676701 
-6.22731 -6.00517 0.597851 
-6.33929 -6.01436 0.910353 
-6.46184 -5.99206 0.522724 
-6.80742 -5.99122 0.828785 
-6.9012 -5.99517 1.00616 
-7.02658 -5.99227 1.05882 
-7.13941 -5.97954 0.877849 
-7.24463 -5.99449 1.31407 
-7.35572 -5.98405 1.18321 
-7.47078 -5.98828 1.38675 
-7.58218 -5.97847 1.2704 
-7.69201 -5.98675 1.56057 
-7.80358 -5.97594 1.42181 
-7.93574 -5.96736 1.35272 
-8.03387 -5.96687 1.43384 
1.84849 -5.84655 -9.64492 
1.46738 -5.79218 -10.5071 
0.41498 -6.00948 -4.66269 
0.308432 -6.03576 -3.975 
0.175907 -6.01582 -4.29789 
0.0672961 -6.04482 -3.5476 
-0.177336 -6.01778 -3.92483 
-0.308 -6.01814 -3.79511 
-1.00565 -6.18881 0.676297 
-1.23133 -6.20796 1.31547 
-1.33387 -6.1971 1.16792 
-1.46235 -6.19471 1.23437 
-1.5655 -6.20209 1.49589 
-1.69016 -6.19892 1.54117 
-1.79185 -6.20528 1.77841 
-1.9187 -6.19131 1.5841 
-2.02132 -6.18747 1.59379 
-2.15104 -6.17965 1.53973 
-2.25218 -6.17331 1.49225 
-2.37693 -6.18149 1.79184 
-2.47975 -6.17753 1.79912 
-2.60877 -6.16754 1.69602 
-2.71133 -6.16236 1.67575 
-2.94188 -6.15143 1.64613 
-3.07198 -6.14489 1.6213 
-3.17663 -6.13559 1.51067 
-3.30318 -6.12933 1.48864 
-3.40968 -6.12282 1.44234 
-3.53211 -6.12511 1.60807 
-3.64044 -6.11078 1.38841 
-3.87331 -6.09778 1.31476 
-4.00295 -6.09131 1.29098 
-4.11648 -6.07214 0.967851 
-4.23653 -6.08083 1.27458 
-4.34207 -6.07068 1.14586 
-4.47474 -6.05798 0.985517 
-4.57867 -6.05613 1.04104 
-4.71408 -6.0438 0.891602 
-4.82389 -6.02858 0.6533 
-4.94833 -6.02923 0.784316 
-5.05577 -6.01924 0.660872 
-5.1766 -6.02226 0.841402 
-5.28168 -6.01555 0.789524 
-5.41037 -6.01361 0.866375 
-5.52636 -5.99509 0.559959 
-5.64475 -6.00088 0.800331 
-5.75364 -5.99125 0.686518 
-5.88447 -5.98517 0.672531 
-5.9999 -5.97043 0.450575 
-6.11025 -5.98016 0.77163 
-6.21668 -5.97298 0.710317 
-6.34568 -5.96909 0.743728 
-6.45377 -5.96194 0.684895 
-6.67314 -5.9621 0.893627 
-6.80513 -5.95323 0.818438 
-6.90844 -5.94947 0.830823 
-7.03321 -5.94856 0.927293 
-7.13599 -5.94389 0.91881 
-7.26428 -5.93963 0.943315 
-7.3559 -5.94462 1.14098 
-7.47074 -5.95074 1.38542 
-7.56869 -5.9498 1.45607 
-7.70368 -5.93847 1.32875 
-7.80255 -5.93782 1.40657 
-7.93294 -5.931 1.37605 
-8.01785 -5.94029 1.66347 
1.85294 -5.79803 -9.82993 
1.73741 -5.75382 -10.7057 
0.661381 -5.96895 -4.92687 
0.554773 -5.99546 -4.23881 
0.415342 -6.00036 -4.00062 
0.310429 -5.97676 -4.42806 
0.175575 -5.99152 -3.97504 
0.0695602 -5.97777 -4.18239 
-0.17529 -5.98396 -3.81786 
-0.304224 -5.96773 -4.05902 
-1.00472 -6.14905 0.621452 
-1.10218 -6.17676 1.32793 
-1.23122 -6.16951 1.28646 
-1.33084 -6.17654 1.53518 
-1.46004 -6.16193 1.33025 
-1.56384 -6.1702 1.61043 
-1.6836 -6.17102 1.73978 
-1.79281 -6.1586 1.5651 
-1.91424 -6.16286 1.77243 
-2.0214 -6.14803 1.54218 
-2.1477 -6.14979 1.69846 
-2.24845 -6.14349 1.65179 
-2.37681 -6.13919 1.67545 
-2.47622 -6.13863 1.75533 
-2.60439 -6.13291 1.74693 
-2.70844 -6.12814 1.73756 
-2.93673 -6.12154 1.8028 
-3.06876 -6.11075 1.68553 
-3.17269 -6.10389 1.62943 
-3.30122 -6.09607 1.57493 
-3.40658 -6.08728 1.47718 
-3.53309 -6.08444 1.53166 
-3.6352 -6.08019 1.53184 
-3.87497 -6.0562 1.22124 
-4.00011 -6.05562 1.32458 
-4.10874 -6.04163 1.11439 
-4.24608 -6.02997 0.982617 
-4.35039 -6.02177 0.897182 
-4.473 -6.02333 1.04581 
-4.58526 -6.007 0.786934 
-4.82469 -5.99155 0.665823 
-4.93984 -5.99867 0.931312 
-5.05962 -5.97519 0.5204 
-5.1862 -5.97306 0.590641 
-5.29682 -5.96056 0.415596 
-5.41255 -5.97048 0.743734 
-5.51652 -5.96568 0.733641 
-5.75827 -5.94708 0.544843 
-5.88378 -5.94744 0.669462 
-6.00169 -5.92875 0.363467 
-6.10946 -5.94153 0.747914 
-6.22071 -5.9311 0.619349 
-6.34622 -5.92914 0.692518 
-6.45098 -5.92541 0.706988 
-6.66841 -5.92683 0.940966 
-6.80091 -5.91848 0.878293 
-6.89604 -5.92129 1.0295 
-7.01792 -5.92102 1.13678 
-7.14783 -5.8952 0.683366 
-7.25277 -5.90906 1.0893 
-7.34932 -5.9109 1.22009 
-7.47429 -5.90928 1.30033 
-7.5548 -5.92172 1.652 
-7.69991 -5.90313 1.37348 
-7.80778 -5.89517 1.29685 
-7.93366 -5.89233 1.35101 
-8.01241 -5.90528 1.7123 
0.417684 -5.95477 -4.15458 
0.312023 -5.95864 -3.97188 
0.178107 -5.95326 -3.96703 
0.0714795 -5.95226 -3.89101 
-0.0616794 -5.94133 -4.0095 
-0.172016 -5.93707 -4.00198 
-0.303206 -5.949 -3.61764 
-0.414239 -5.95542 -3.37352 
-1.00313 -6.11418 0.674944 
-1.22915 -6.13838 1.41792 
-1.33097 -6.13098 1.34843 
-1.45782 -6.12778 1.39467 
-1.56197 -6.12589 1.44911 
-1.68263 -6.1335 1.72851 
-1.78916 -6.12773 1.69941 
-1.91331 -6.12439 1.74021 
-2.01564 -6.11911 1.71804 
-2.14556 -6.11186 1.67795 
-2.24807 -6.10647 1.65343 
-2.37706 -6.09614 1.54444 
-2.47409 -6.1008 1.73685 
-2.60436 -6.09895 1.81631 
-2.70711 -6.09109 1.7376 
-2.93625 -6.08329 1.77701 
-3.06169 -6.08001 1.82039 
-3.17035 -6.06661 1.62487 
-3.29385 -6.0673 1.75405 
-3.40928 -6.04463 1.36009 
-3.52978 -6.04808 1.54751 
-3.63615 -6.03821 1.42787 
-3.87149 -6.02167 1.27996 
-3.99995 -6.01879 1.335 
-4.11267 -5.99306 0.870868 
-4.23756 -5.99936 1.12536 
-4.34714 -5.9863 0.938281 
-4.46977 -5.98687 1.06403 
-4.58292 -5.96986 0.792941 
-4.70598 -5.97203 0.954589 
-4.82033 -5.95619 0.710512 
-4.95156 -5.94565 0.59905 
-5.05215 -5.94533 0.685013 
-5.18406 -5.93746 0.633002 
-5.28896 -5.92762 0.512669 
-5.40805 -5.93536 0.793792 
-5.52098 -5.92155 0.593029 
-5.75781 -5.90902 0.53533 
-5.89019 -5.90133 0.487886 
-6.00378 -5.88794 0.297095 
-6.1142 -5.89865 0.635921 
-6.23321 -5.87931 0.318665 
-6.33848 -5.89648 0.795394 
-6.45739 -5.87966 0.533863 
-6.67112 -5.8873 0.900375 
-6.79706 -5.88294 0.920403 
-6.90066 -5.8779 0.905111 
-7.03091 -5.87132 0.880153 
-7.12256 -5.87683 1.08675 
-7.26057 -5.86593 0.973595 
-7.34965 -5.87115 1.17141 
-7.48065 -5.86546 1.16705 
-7.56234 -5.877 1.49743 
-7.69223 -5.87069 1.47826 
-7.7994 -5.86244 1.39532 
-7.93027 -5.85605 1.37526 
-8.01444 -5.86555 1.66314 
1.71854 -5.70175 -10.0442 
1.61166 -5.68786 -10.2509 
0.663807 -5.90382 -4.64729 
0.418395 -5.8993 -4.52156 
0.314713 -5.90927 -4.20788 
0.17927 -5.90737 -4.12534 
0.075281 -5.90689 -4.04058 
-0.0610585 -5.90407 -3.97761 
-0.171777 -5.90282 -3.90345 
-0.3023 -5.90276 -3.78519 
-1.0995 -6.09779 1.22295 
-1.22718 -6.09786 1.34161 
-1.32943 -6.0975 1.42753 
-1.45516 -6.09778 1.54893 
-1.55848 -6.09504 1.58374 
-1.68126 -6.09237 1.63787 
-1.78549 -6.0918 1.72101 
-1.91264 -6.08461 1.68007 
-2.0135 -6.08625 1.80856 
-2.14482 -6.07103 1.59534 
-2.2459 -6.07201 1.70962 
-2.37396 -6.06604 1.69626 
-2.47327 -6.06649 1.79723 
-2.60207 -6.06212 1.81962 
-2.70324 -6.05656 1.79059 
-2.93409 -6.04651 1.7822 
-3.06343 -6.04271 1.81754 
-3.1705 -6.0289 1.613 
-3.29444 -6.0269 1.6831 
-3.40209 -6.01486 1.51786 
-3.52563 -6.0145 1.62351 
-3.63229 -6.00525 1.5185 
-3.87004 -5.98459 1.28389 
-3.99823 -5.97856 1.26929 
-4.10492 -5.96736 1.12165 
-4.23799 -5.9589 1.05845 
-4.35456 -5.93642 0.672493 
-4.47123 -5.94574 0.984126 
-4.57623 -5.93832 0.917815 
-4.70814 -5.93362 0.935935 
-4.82168 -5.91243 0.575449 
-4.93819 -5.92126 0.876342 
-5.0553 -5.90305 0.584537 
-5.18266 -5.89996 0.633854 
-5.29037 -5.88776 0.465173 
-5.40503 -5.90164 0.875049 
-5.5134 -5.89047 0.729642 
-5.7554 -5.87162 0.538633 
-5.88598 -5.86547 0.523891 
-5.99624 -5.85643 0.426897 
-6.12109 -5.85417 0.492168 
-6.23155 -5.84199 0.326586 
-6.33331 -5.86302 0.881517 
-6.44574 -5.85105 0.722365 
-6.67819 -5.84184 0.7342 
-6.80201 -5.84036 0.815746 
-6.89859 -5.8423 0.947122 
-7.02478 -5.83927 0.996861 
-7.13196 -5.83053 0.903608 
-7.24542 -5.83773 1.16606 
-7.35194 -5.83085 1.11313 
-7.46175 -5.84026 1.42063 
-7.56086 -5.8398 1.50193 
-7.68786 -5.83566 1.52789 
-7.79426 -5.82793 1.45617 
-7.92488 -5.82147 1.4349 
-8.01095 -5.82989 1.69891 
0.554356 -5.85217 -4.82519 
0.316334 -5.89459 -3.68432 
0.179673 -5.88255 -3.82192 
0.0767892 -5.85403 -4.34945 
-0.0627104 -5.87859 -3.6873 
-0.169752 -5.86838 -3.81194 
-0.299183 -5.85889 -3.90079 
-0.997324 -6.05228 0.948321 
-1.22564 -6.05805 1.28227 
-1.32635 -6.06384 1.50033 
-1.4528 -6.05543 1.43249 
-1.55518 -6.06309 1.69278 
-1.67971 -6.05542 1.6393 
-1.78587 -6.04817 1.57832 
-2.01295 -6.04532 1.72351 
-2.14119 -6.03833 1.68847 
-2.24433 -6.02869 1.57248 
-2.37182 -6.0337 1.79821 
-2.47354 -6.02682 1.74112 
-2.59984 -6.02688 1.8578 
-2.70114 -6.0209 1.81999 
-2.93669 -6.00159 1.61455 
-3.06118 -6.00625 1.82975 
-3.16875 -5.98964 1.56607 
-3.29169 -5.99021 1.69082 
-3.40051 -5.97843 1.5337 
-3.51896 -5.98241 1.72856 
-3.63259 -5.96876 1.53496 
-3.87135 -5.94571 1.25106 
-4.00154 -5.93348 1.10346 
-4.1021 -5.93232 1.17007 
-4.2278 -5.93363 1.31358 
-4.34199 -5.9117 0.940127 
-4.47462 -5.90372 0.887436 
-4.5742 -5.89954 0.887427 
-4.70839 -5.89146 0.834038 
-4.81989 -5.87535 0.585028 
-4.93782 -5.88277 0.854608 
-5.05596 -5.86549 0.585975 
-5.18298 -5.85975 0.577104 
-5.28607 -5.85367 0.538986 
-5.40999 -5.85675 0.719371 
-5.51388 -5.84979 0.662641 
-5.64252 -5.84443 0.663598 
-5.75939 -5.8291 0.436475 
-5.88482 -5.82774 0.521431 
-5.99077 -5.82171 0.486943 
-6.10949 -5.82536 0.675099 
-6.22135 -5.81348 0.518748 
-6.32817 -5.82795 0.931744 
-6.44358 -5.81284 0.707998 
-6.81307 -5.79102 0.570772 
-6.91173 -5.7913 0.667092 
-7.04317 -5.78369 0.621612 
-7.1127 -5.80872 1.23066 
-7.25787 -5.78886 0.930642 
-7.34582 -5.79798 1.20986 
-7.47114 -5.79418 1.24194 
-7.57041 -5.79346 1.31702 
-7.67999 -5.80335 1.63296 
-7.79501 -5.78916 1.429 
-7.91143 -5.79254 1.6092 
-8.01068 -5.79098 1.66614 
1.98777 -5.61244 -10.4668 
1.86894 -5.6199 -10.1979 
0.804515 -5.80175 -5.29956 
0.667325 -5.80808 -5.03832 
0.558914 -5.81462 -4.79852 
0.422482 -5.802 -4.94799 
0.31893 -5.83192 -4.20688 
0.183132 -5.83066 -4.11099 
0.0773379 -5.83007 -4.02769 
-0.0588514 -5.8287 -3.93391 
-0.170471 -5.83493 -3.69797 
-0.299299 -5.83316 -3.61939 
-0.99643 -6.01088 0.858042 
-1.2226 -6.02804 1.43456 
-1.32611 -6.01786 1.30809 
-1.44986 -6.02371 1.54705 
-1.55289 -6.02544 1.67814 
-1.67853 -6.02174 1.71201 
-1.78271 -6.01947 1.75758 
-2.01229 -6.00543 1.66217 
-2.13566 -6.0128 1.93359 
-2.23918 -6.0014 1.78098 
-2.36968 -5.99762 1.81767 
-2.47384 -5.98778 1.69941 
-2.59855 -5.98653 1.78574 
-2.69897 -5.98183 1.77518 
-2.93288 -5.96826 1.69402 
-3.06162 -5.96327 1.7029 
-3.167 -5.95174 1.54928 
-3.28878 -5.9542 1.71311 
-3.40182 -5.93518 1.40431 
-3.51951 -5.94498 1.72318 
-3.62903 -5.93074 1.51472 
-3.75148 -5.9319 1.65102 
-3.86333 -5.91689 1.42791 
-3.99237 -5.90998 1.39571 
-4.1012 -5.89625 1.19741 
-4.23302 -5.88761 1.13026 
-4.34035 -5.87487 0.95206 
-4.4686 -5.87339 1.03668 
-4.57762 -5.85907 0.825969 
-4.70286 -5.85787 0.913895 
-4.81099 -5.84595 0.754239 
-4.94095 -5.83943 0.731332 
-5.04771 -5.83246 0.677499 
-5.17787 -5.82554 0.646243 
-5.29245 -5.81122 0.440522 
-5.41315 -5.81306 0.589967 
-5.50686 -5.8184 0.790828 
-5.6336 -5.81645 0.863982 
-5.75371 -5.79386 0.484335 
-5.88095 -5.79237 0.567905 
-5.99474 -5.77864 0.374091 
-6.10242 -5.79425 0.810048 
-6.22107 -5.77448 0.490065 
-6.3339 -5.78268 0.770294 
-6.44916 -5.76823 0.562488 
-6.56309 -5.77618 0.838173 
-6.67909 -5.76164 0.628982 
-6.80234 -5.76109 0.729303 
-6.91045 -5.75201 0.631172 
-7.03546 -5.75183 0.741101 
-7.11839 -5.76445 1.08976 
-7.24669 -5.76008 1.112 
-7.34415 -5.76016 1.2024 
-7.46893 -5.75697 1.24699 
-7.55852 -5.76447 1.49103 
-7.7049 -5.74471 1.19643 
-7.78913 -5.75507 1.49759 
-7.91952 -5.7484 1.47185 
-8.01519 -5.74856 1.56246 
0.672237 -5.77702 -4.8715 
0.564246 -5.78932 -4.50985 
0.4282 -5.77112 -4.7783 
0.317353 -5.81629 -3.70769 
0.185485 -5.80428 -3.84684 
0.0791928 -5.79395 -3.97282 
-0.165815 -5.79257 -3.78151 
-0.991608 -5.99537 1.32167 
-1.2219 -5.99298 1.47818 
-1.321 -5.99066 1.51784 
-1.44737 -5.99246 1.67068 
-1.55137 -5.98349 1.57178 
-1.67424 -5.98789 1.77734 
-1.78047 -5.97969 1.697 
-2.00914 -5.97204 1.73907 
-2.13883 -5.96294 1.66071 
-2.23592 -5.96739 1.84398 
-2.37074 -5.95497 1.69891 
-2.46904 -5.95092 1.70057 
-2.59847 -5.94962 1.78959 
-2.69732 -5.95029 1.89335 
-3.0593 -5.92702 1.72014 
-3.16089 -5.92115 1.68579 
-3.2916 -5.90945 1.55248 
-3.39573 -5.9047 1.54441 
-3.52199 -5.90035 1.56509 
-3.62507 -5.89674 1.58059 
-3.86488 -5.87363 1.30077 
-3.98922 -5.87364 1.4134 
-4.10294 -5.85301 1.0727 
-4.23078 -5.8532 1.19226 
-4.3383 -5.83883 0.980592 
-4.4628 -5.83819 1.07949 
-4.57335 -5.8271 0.941066 
-4.69911 -5.82505 1.01069 
-4.81411 -5.80244 0.62872 
-4.94474 -5.79847 0.661626 
-5.04851 -5.79233 0.623327 
-5.17289 -5.79256 0.740833 
-5.28404 -5.7801 0.573633 
-5.41235 -5.77646 0.611396 
-5.50581 -5.77971 0.765769 
-5.75036 -5.75806 0.521593 
-5.87371 -5.75976 0.66987 
-5.99157 -5.74288 0.41356 
-6.10062 -5.75465 0.765345 
-6.22466 -5.73204 0.39162 
-6.33549 -5.74329 0.733801 
-6.44645 -5.73286 0.609872 
-6.66696 -5.73416 0.837477 
-6.79817 -5.72554 0.770876 
-6.89431 -5.72815 0.914136 
-7.0278 -5.71882 0.834363 
-7.128 -5.7183 0.914 
-7.23865 -5.72799 1.22254 
-7.35312 -5.71368 1.01847 
-7.46825 -5.71775 1.21032 
-7.55774 -5.72641 1.47753 
-7.6893 -5.71855 1.42771 
-7.78215 -5.72147 1.57454 
-7.92293 -5.70757 1.40334 
-8.02321 -5.70373 1.41145 
0.564918 -5.75152 -4.48758 
0.431205 -5.75873 -4.2136 
0.318776 -5.7643 -3.99397 
0.182696 -5.78141 -3.50659 
0.0807438 -5.75425 -3.99499 
-0.052452 -5.75789 -3.7978 
-0.164161 -5.7545 -3.76991 
-0.294456 -5.75078 -3.73243 
-1.21876 -5.95167 1.38582 
-1.31977 -5.9495 1.43028 
-1.44687 -5.95065 1.56898 
-1.5502 -5.94897 1.62594 
-1.67109 -5.95261 1.81223 
-1.77723 -5.94768 1.80227 
-2.13282 -5.93404 1.83045 
-2.23647 -5.92641 1.76085 
-2.36848 -5.91605 1.6582 
-2.46569 -5.91712 1.7683 
-2.59736 -5.9121 1.77951 
-2.69683 -5.90993 1.82255 
-3.05627 -5.89015 1.72341 
-3.16659 -5.87149 1.42414 
-3.2894 -5.87597 1.63012 
-3.39762 -5.8648 1.48894 
-3.5173 -5.86694 1.64219 
-3.62656 -5.85317 1.44643 
-3.74683 -5.85949 1.68955 
-3.86215 -5.83802 1.3347 
-3.98855 -5.83451 1.37347 
-4.09698 -5.82036 1.16896 
-4.22448 -5.81827 1.23884 
-4.33602 -5.80289 1.01076 
-4.45798 -5.8063 1.19337 
-4.5722 -5.78776 0.900169 
-4.69607 -5.78916 1.04145 
-4.80737 -5.77116 0.757241 
-4.94263 -5.76004 0.641507 
-5.05092 -5.74849 0.492322 
-5.17722 -5.74733 0.581089 
-5.2839 -5.73956 0.511171 
-5.41318 -5.7365 0.562279 
-5.52523 -5.72136 0.33967 
-5.7578 -5.71205 0.350251 
-5.87921 -5.71451 0.512004 
-5.99381 -5.69957 0.296278 
-6.12193 -5.69429 0.298841 
-6.22197 -5.69524 0.409086 
-6.34215 -5.69827 0.582015 
-6.45049 -5.68946 0.491327 
-6.69076 -5.67216 0.338194 
-6.79735 -5.68783 0.768911 
-6.89596 -5.68753 0.851332 
-7.0149 -5.69051 1.02216 
-7.12626 -5.67952 0.887644 
-7.23806 -5.68949 1.2014 
-7.33478 -5.69142 1.32974 
-7.45684 -5.69029 1.41549 
-7.56231 -5.68359 1.36741 
-7.68038 -5.68611 1.5277 
-7.77984 -5.68533 1.60058 
-7.9165 -5.67369 1.47519 
-8.0029 -5.6827 1.74553 
0.676962 -5.6789 -5.30309 
0.566325 -5.71759 -4.38399 
0.432583 -5.70792 -4.46964 
0.32153 -5.71215 -4.28101 
0.189942 -5.70877 -4.23516 
0.0833863 -5.70804 -4.1555 
-0.0487785 -5.71247 -3.94373 
-0.162165 -5.71299 -3.83143 
-0.989215 -5.92117 1.32184 
-1.21562 -5.92191 1.53976 
-1.32151 -5.90669 1.31163 
-1.44497 -5.91363 1.56896 
-1.55035 -5.91722 1.73941 
-1.66959 -5.9121 1.73726 
-1.77686 -5.90597 1.70319 
-2.00634 -5.89654 1.70815 
-2.13201 -5.8926 1.73686 
-2.2371 -5.88781 1.72925 
-2.36412 -5.8829 1.73861 
-2.4653 -5.8804 1.77596 
-2.59694 -5.87301 1.73693 
-2.69454 -5.87467 1.85936 
-3.05709 -5.85237 1.71056 
-3.15924 -5.84703 1.6886 
-3.28869 -5.83701 1.59193 
-3.39212 -5.83313 1.60214 
-3.51797 -5.82622 1.56808 
-3.624 -5.82253 1.5847 
-3.85668 -5.80494 1.41971 
-3.98688 -5.79861 1.40187 
-4.09193 -5.78566 1.2212 
-4.22248 -5.78281 1.2775 
-4.33967 -5.75859 0.868549 
-4.46477 -5.75881 0.985127 
-4.70199 -5.74082 0.815733 
-4.80357 -5.73555 0.794806 
-4.93321 -5.73326 0.862271 
-5.05018 -5.70818 0.435102 
-5.17134 -5.71602 0.709806 
-5.28096 -5.7029 0.529644 
-5.40541 -5.70366 0.657025 
-5.51319 -5.69475 0.564469 
-5.63691 -5.69581 0.697887 
-5.75351 -5.67746 0.412996 
-5.87855 -5.67599 0.493687 
-5.98289 -5.67204 0.503337 
-6.10686 -5.6709 0.590266 
-6.21637 -5.66197 0.498756 
-6.33577 -5.66503 0.670539 
-6.44756 -5.65271 0.509482 
-6.67955 -5.64476 0.548567 
-6.81125 -5.63542 0.468404 
-6.89818 -5.6464 0.779098 
-7.03736 -5.63246 0.608062 
-7.10748 -5.65735 1.19894 
-7.24233 -5.64627 1.08479 
-7.35228 -5.63708 0.988398 
-7.45997 -5.64889 1.3354 
-7.55822 -5.64861 1.41748 
-7.67138 -5.65491 1.65271 
-7.78049 -5.64471 1.53401 
-7.91954 -5.63222 1.39356 
-7.99589 -5.64903 1.81884 
0.679542 -5.66006 -4.87827 
0.566471 -5.67711 -4.41859 
0.433273 -5.66457 -4.56469 
0.321168 -5.67066 -4.33672 
0.191501 -5.68388 -3.94323 
0.0860896 -5.6635 -4.279 
-0.0471271 -5.6722 -3.97731 
-0.161766 -5.6863 -3.57867 
-0.984651 -5.88158 1.2665 
-1.21445 -5.88597 1.56316 
-1.31979 -5.86691 1.25512 
-1.44263 -5.88168 1.67548 
-1.54621 -5.8758 1.64368 
-1.66829 -5.88059 1.85317 
-1.77511 -5.87686 1.86948 
-2.13138 -5.85365 1.69721 
-2.23421 -5.85438 1.80407 
-2.36259 -5.85282 1.88531 
-2.46408 -5.84552 1.82166 
-2.59299 -5.83682 1.75309 
-2.6934 -5.84009 1.91113 
-3.05406 -5.81894 1.78621 
-3.15982 -5.80348 1.55466 
-3.28176 -5.80879 1.77501 
-3.38892 -5.79808 1.64458 
-3.51598 -5.79045 1.59684 
-3.6256 -5.77825 1.43731 
-3.85493 -5.76138 1.28582 
-3.99074 -5.75343 1.23933 
-4.09413 -5.74551 1.16436 
-4.22417 -5.7394 1.15122 
-4.33442 -5.72641 0.975688 
-4.46398 -5.72372 1.0343 
-4.56942 -5.70997 0.838399 
-4.69843 -5.70486 0.845541 
-4.80802 -5.68961 0.62183 
-4.93238 -5.69297 0.803225 
-5.046 -5.67553 0.536873 
-5.16778 -5.67596 0.654415 
-5.28331 -5.66092 0.4404 
-5.40738 -5.66247 0.583418 
-5.51506 -5.65405 0.50194 
-5.7445 -5.64687 0.554872 
-5.86376 -5.65295 0.789169 
-5.98864 -5.62827 0.380261 
-6.11373 -5.62471 0.416714 
-6.21981 -5.61828 0.375785 
-6.3362 -5.62619 0.646226 
-6.44008 -5.62074 0.623824 
-6.67477 -5.60973 0.600958 
-6.79797 -5.6092 0.699602 
-6.89911 -5.6066 0.734903 
-7.01759 -5.60913 0.893872 
-7.11508 -5.61207 1.04278 
-7.23238 -5.61733 1.25811 
-7.32804 -5.61888 1.37597 
-7.45783 -5.61255 1.35842 
-7.55461 -5.61225 1.43822 
-7.68186 -5.60776 1.45702 
-7.78353 -5.60452 1.47949 
-7.91877 -5.59481 1.3954 
-7.99656 -5.60902 1.76433 
0.568764 -5.65607 -4.04776 
0.436389 -5.63065 -4.46308 
0.327267 -5.63864 -4.19929 
0.193374 -5.64095 -4.03279 
0.0904424 -5.6398 -3.96594 
-0.159858 -5.64322 -3.6733 
-0.983787 -5.8385 1.14214 
-1.21505 -5.84079 1.39448 
-1.3171 -5.83989 1.46581 
-1.44214 -5.83988 1.57607 
-1.54376 -5.83714 1.60871 
-1.66777 -5.84353 1.85208 
-1.77446 -5.8348 1.76376 
-2.00238 -5.82548 1.77022 
-2.13043 -5.8215 1.8 
-2.23232 -5.81196 1.69053 
-2.3594 -5.81332 1.83127 
-2.46354 -5.80214 1.68936 
-2.58479 -5.81446 2.05455 
-2.69064 -5.7968 1.77851 
-3.05239 -5.78018 1.75069 
-3.15545 -5.77097 1.64904 
-3.28404 -5.7638 1.61272 
-3.39108 -5.75275 1.47625 
-3.50638 -5.76346 1.80257 
-3.6219 -5.74529 1.52432 
-3.85551 -5.7274 1.3566 
-3.98319 -5.72201 1.35675 
-4.09628 -5.70375 1.07462 
-4.21574 -5.71165 1.34566 
-4.33036 -5.69216 1.0392 
-4.46196 -5.68409 0.986781 
-4.56928 -5.67123 0.812636 
-4.69346 -5.67471 0.995295 
-4.80604 -5.65287 0.63776 
-4.93223 -5.65341 0.760832 
-5.04096 -5.64129 0.603436 
-5.1614 -5.64569 0.802192 
-5.27382 -5.63244 0.624388 
-5.39547 -5.63557 0.797758 
-5.50651 -5.62242 0.620688 
-5.75104 -5.60215 0.413077 
-5.87577 -5.60057 0.490499 
-5.98385 -5.59245 0.416142 
-6.1064 -5.59296 0.535498 
-6.21047 -5.5891 0.546897 
-6.34026 -5.58233 0.520161 
-6.42752 -5.59289 0.81856 
-6.52686 -5.61586 1.38766 
-6.80464 -5.56467 0.561978 
-6.8844 -5.57929 0.938848 
