ply
format ascii 1.0
element vertex 1751
property float x
property float y
property float z
end_header
-0.252549 -0.407403 2.2259 
-0.35059 -0.45728 2.80755 
-0.483213 -0.439028 2.6853 
-0.584289 -0.446232 2.81606 
-0.713874 -0.447371 2.89783 
-0.810652 -0.465345 3.14049 
-0.941464 -0.453644 3.08676 
-1.04125 -0.456017 3.1656 
-1.1668 -0.459148 3.26635 
-1.26748 -0.448783 3.21059 
-1.38632 -0.476296 3.5663 
-1.49481 -0.460248 3.45449 
-1.61318 -0.466015 3.57934 
-1.71724 -0.465699 3.63198 
-1.8397 -0.459022 3.62707 
-1.93927 -0.462718 3.71985 
-2.06814 -0.452976 3.68589 
-2.16782 -0.443459 3.63861 
-2.29781 -0.431402 3.58071 
-2.40035 -0.426675 3.58577 
-2.52717 -0.416281 3.54381 
-2.6312 -0.398647 3.41279 
-2.75818 -0.395121 3.44376 
-2.85917 -0.380292 3.34085 
-2.99126 -0.358349 3.17924 
-3.09338 -0.349413 3.13946 
-3.21993 -0.333755 3.04153 
-3.32812 -0.317286 2.92513 
-3.45986 -0.285546 2.65943 
-3.56184 -0.280396 2.65973 
-3.69392 -0.263332 2.5499 
-3.80558 -0.229994 2.25644 
-3.93473 -0.216614 2.18409 
-4.03708 -0.207811 2.14585 
-4.172 -0.18907 2.01977 
-4.28578 -0.150019 1.66686 
-4.41231 -0.14942 1.72868 
-4.51182 -0.155808 1.85005 
-4.63813 -0.146671 1.8212 
-4.75093 -0.119074 1.58927 
-4.88287 -0.1006 1.46442 
-4.98578 -0.0983997 1.49654 
-5.11445 -0.0937694 1.51677 
-5.21631 -0.0904438 1.53639 
-5.34146 -0.0908704 1.60838 
-5.44342 -0.091816 1.67337 
-5.57516 -0.0734389 1.54945 
-5.67767 -0.0676112 1.5429 
-5.81036 -0.0561178 1.49253 
-5.91052 -0.0561182 1.54653 
-6.03374 -0.0602023 1.65629 
-6.14277 -0.0430919 1.53359 
-6.25627 -0.0656995 1.83461 
-6.36724 -0.0442897 1.66735 
-6.49733 -0.0367977 1.65803 
-6.59876 -0.0346277 1.68973 
-6.72625 -0.0287701 1.69636 
-6.8282 -0.0233796 1.69417 
-6.95005 -0.0321395 1.85282 
-7.04674 -0.0364292 1.95049 
-7.17189 -0.0379792 2.03446 
-7.27135 -0.0363815 2.07118 
-7.40122 -0.0305354 2.07924 
-7.49886 -0.0307042 2.13372 
-7.62564 -0.0250645 2.14231 
-7.72237 -0.0297523 2.24425 
1.05788 -0.138499 -0.926019 
0.579797 -0.279334 0.818788 
0.449968 -0.290658 1.0081 
0.34102 -0.314761 1.32127 
0.216009 -0.324798 1.4944 
0.106803 -0.364884 1.97665 
-0.0175403 -0.330221 1.67698 
-0.123968 -0.376375 2.2219 
-0.24601 -0.386511 2.39451 
-0.34868 -0.407117 2.66739 
-0.480759 -0.412043 2.79033 
-0.580761 -0.410788 2.83072 
-0.713107 -0.410088 2.89434 
-0.809405 -0.437284 3.23347 
-0.939094 -0.42419 3.16467 
-1.03785 -0.422866 3.20368 
-1.16493 -0.420257 3.24433 
-1.26462 -0.423934 3.3367 
-1.3856 -0.432161 3.48861 
-1.49321 -0.425953 3.48077 
-1.612 -0.427393 3.55976 
-1.71758 -0.423385 3.57409 
-1.83823 -0.427354 3.68082 
-1.93852 -0.422978 3.68842 
-2.06826 -0.409492 3.61554 
-2.16117 -0.414829 3.72186 
-2.29382 -0.407389 3.71446 
-2.39742 -0.388255 3.56784 
-2.62671 -0.367555 3.4722 
-2.75739 -0.34549 3.30916 
-2.86239 -0.329937 3.20116 
-2.98502 -0.341965 3.39419 
-3.09053 -0.309368 3.10629 
-3.21091 -0.323461 3.31996 
-3.33636 -0.247427 2.58361 
-3.45459 -0.257047 2.74884 
-3.55921 -0.251757 2.74914 
-3.69851 -0.214226 2.42725 
-3.80096 -0.195985 2.28949 
-3.93129 -0.187024 2.26481 
-4.03326 -0.181023 2.25619 
-4.17207 -0.151346 2.01707 
-4.28108 -0.117643 1.71938 
-4.40563 -0.124381 1.85757 
-4.5008 -0.1398 2.07173 
-4.6441 -0.0944324 1.66917 
-4.74618 -0.0899294 1.67646 
-4.87629 -0.0805092 1.64683 
-4.98671 -0.0525052 1.41016 
-5.11051 -0.0627755 1.58531 
-5.211 -0.060329 1.61348 
-5.3341 -0.0646433 1.72531 
-5.43938 -0.0523052 1.65149 
-5.57667 -0.0287494 1.47631 
-5.6783 -0.028658 1.53001 
-5.80353 -0.0278067 1.58838 
-5.90674 -0.0221947 1.58457 
-6.02475 -0.0337325 1.77004 
-6.1413 -0.00792903 1.55995 
-6.25449 -0.026702 1.81933 
-6.36175 -0.0139787 1.74253 
-6.49019 -0.0104839 1.77471 
-6.59362 -0.00368639 1.7585 
-6.72058 -0.00153045 1.80404 
-6.82331 0.00439213 1.79672 
-6.95125 0.0105509 1.80047 
-7.03606 -0.0131228 2.09642 
-7.17154 -0.000380695 2.03464 
-7.26038 -0.0149582 2.23659 
-7.403 0.014138 2.00575 
-7.5035 0.0149726 2.05104 
-7.62967 0.0197308 2.06867 
-7.71981 0.00533221 2.26945 
0.575379 -0.229306 0.689941 
0.451144 -0.267284 1.15649 
0.342492 -0.277901 1.32647 
0.220314 -0.302792 1.65407 
0.111104 -0.299338 1.67613 
-0.0169255 -0.297772 1.72815 
-0.120469 -0.344855 2.27958 
-0.250146 -0.347031 2.37192 
-0.35166 -0.364544 2.61076 
-0.47905 -0.383377 2.87736 
-0.575347 -0.37665 2.85805 
-0.710416 -0.382929 2.99653 
-0.808172 -0.382062 3.03974 
-0.937742 -0.396983 3.26632 
-1.03617 -0.393933 3.28691 
-1.16338 -0.385558 3.2668 
-1.2657 -0.385287 3.31875 
-1.38161 -0.410801 3.64964 
-1.49178 -0.38706 3.45853 
-1.71602 -0.386434 3.57208 
-1.83821 -0.385348 3.6261 
-1.93605 -0.392401 3.75284 
-2.06316 -0.379599 3.68607 
-2.16205 -0.363693 3.57149 
-2.29477 -0.362728 3.63244 
-2.39454 -0.34826 3.53349 
-2.62119 -0.341816 3.58709 
-2.75311 -0.327421 3.50614 
-2.85754 -0.30317 3.30661 
-2.98556 -0.294538 3.28429 
-3.08915 -0.279093 3.1771 
-3.21509 -0.259094 3.03391 
-3.32584 -0.238082 2.87191 
-3.45583 -0.218595 2.7363 
-3.5622 -0.194651 2.54105 
-3.7014 -0.160022 2.25084 
-3.78952 -0.176674 2.47355 
-3.93067 -0.149332 2.26116 
-4.03576 -0.12812 2.09402 
-4.16808 -0.118241 2.06092 
-4.27236 -0.103921 1.96596 
-4.40592 -0.0804286 1.79008 
-4.51065 -0.0731372 1.76944 
-4.63613 -0.0764235 1.87138 
-4.74353 -0.0586454 1.74168 
-4.87225 -0.0445214 1.66192 
-4.97989 -0.0322167 1.59002 
-5.11547 -0.0107598 1.43668 
-5.2101 -0.0207099 1.59231 
-5.33493 -0.0179217 1.62992 
-5.44007 -0.0101486 1.60444 
-5.57274 0.00394779 1.52711 
-5.6742 0.0041166 1.5798 
-5.80648 0.0176537 1.50815 
-5.90102 0.00810516 1.65952 
-6.02511 0.00781165 1.72923 
-6.13234 0.0180282 1.67915 
-6.36129 0.0244213 1.7347 
-6.49092 0.0333469 1.71026 
-6.59247 0.0326018 1.77264 
-6.71642 0.0354941 1.80874 
-6.82545 0.050366 1.71057 
-6.95243 0.0530781 1.7502 
-7.04529 0.0431001 1.90522 
-7.16505 0.031713 2.08955 
-7.26623 0.034573 2.11377 
-7.39246 0.037888 2.14665 
-7.49832 0.0483581 2.09319 
-7.61626 0.0387161 2.25816 
-7.71693 0.0394929 2.30408 
2.93289 0.648661 -9.39033 
0.815708 -0.137172 -0.0107646 
0.578027 -0.207093 0.850254 
0.453612 -0.212941 0.978077 
0.340241 -0.280719 1.75026 
0.219935 -0.264255 1.64163 
0.109667 -0.316249 2.24645 
-0.0173129 -0.281682 1.95132 
-0.122039 -0.302843 2.22944 
-0.245023 -0.315796 2.43114 
-0.348354 -0.318941 2.51935 
-0.476682 -0.331685 2.72172 
-0.574557 -0.367147 3.14637 
-0.708823 -0.338593 2.91829 
-0.803853 -0.361824 3.21299 
-0.934661 -0.343163 3.08695 
-1.03442 -0.353839 3.25235 
-1.1606 -0.364233 3.42893 
-1.26449 -0.347199 3.3056 
-1.38093 -0.366718 3.57279 
-1.48524 -0.359677 3.55461 
-1.71442 -0.347847 3.55291 
-1.83541 -0.355383 3.69672 
-1.93316 -0.357297 3.76909 
-2.06219 -0.344153 3.70006 
-2.16199 -0.334281 3.64975 
-2.28934 -0.334476 3.71991 
-2.39213 -0.318363 3.60567 
-2.61805 -0.308053 3.61823 
-2.75771 -0.272293 3.31742 
-2.85703 -0.261178 3.25382 
-2.98391 -0.256796 3.27568 
-3.08817 -0.241179 3.16745 
-3.21095 -0.238054 3.20032 
-3.32633 -0.194544 2.80513 
-3.4539 -0.176125 2.67996 
-3.55705 -0.172421 2.69626 
-3.69308 -0.143077 2.46089 
-3.7887 -0.137847 2.45714 
-3.92865 -0.115514 2.2975 
-4.02972 -0.100692 2.19593 
-4.15629 -0.100242 2.25895 
-4.26828 -0.0693439 1.9944 
-4.39811 -0.0599393 1.96513 
-4.50117 -0.0516698 1.93345 
-4.63945 -0.0205743 1.68091 
-4.73812 -0.0234879 1.76433 
-4.8695 -0.00536779 1.64437 
-4.98265 0.0169505 1.47056 
-5.10868 0.0180139 1.52687 
-5.21207 0.0271779 1.48599 
-5.33292 0.014824 1.68045 
-5.43578 0.0237167 1.64214 
-5.57328 0.046673 1.47468 
-5.67007 0.0451504 1.54251 
-5.80169 0.051984 1.54124 
-5.89866 0.047021 1.6453 
-6.0279 0.0503576 1.67949 
-6.12705 0.050709 1.72892 
-6.3616 0.0662252 1.69162 
-6.48183 0.0568627 1.85437 
-6.59025 0.0691396 1.78352 
-6.72036 0.0822332 1.71572 
-6.82967 0.0993266 1.59477 
-6.93972 0.0706206 1.95525 
-7.0399 0.0719306 1.99518 
-7.16596 0.0713826 2.06851 
-7.26435 0.0721199 2.11351 
-7.39282 0.0789354 2.11079 
-7.50289 0.0968527 1.98161 
-7.61756 0.0811056 2.20848 
-7.72022 0.0852158 2.22036 
1.56997 0.132607 -2.83976 
0.454123 -0.209615 1.3358 
0.347248 -0.180009 1.08291 
0.22533 -0.238395 1.7589 
0.111608 -0.254347 1.98644 
-0.0127926 -0.24748 1.98086 
-0.117202 -0.283506 2.41354 
-0.249105 -0.25961 2.23375 
-0.342021 -0.283325 2.53148 
-0.475164 -0.326413 3.0534 
-0.575485 -0.324682 3.08876 
-0.706342 -0.281866 2.71043 
-0.80518 -0.317761 3.13879 
-0.932908 -0.30343 3.05691 
-1.03182 -0.315109 3.23189 
-1.1591 -0.307329 3.21834 
-1.26307 -0.307162 3.27203 
-1.38034 -0.321924 3.48907 
-1.48771 -0.319395 3.51988 
-1.60053 -0.337791 3.77259 
-1.7128 -0.310113 3.5428 
-1.8304 -0.316111 3.66832 
-1.9326 -0.315706 3.71859 
-2.05955 -0.313398 3.76217 
-2.15635 -0.304422 3.71988 
-2.29191 -0.282245 3.5601 
-2.39011 -0.277077 3.55841 
-2.62193 -0.259604 3.49924 
-2.74993 -0.244895 3.4136 
-2.85702 -0.219822 3.20833 
-2.98087 -0.226714 3.34657 
-3.08938 -0.194359 3.06584 
-3.20604 -0.210757 3.29975 
-3.32358 -0.165963 2.89365 
-3.55979 -0.120663 2.54561 
-3.69029 -0.101822 2.41807 
-3.79446 -0.0866975 2.31539 
-3.92143 -0.0889035 2.40628 
-4.02729 -0.063959 2.20171 
-4.16401 -0.0461355 2.08816 
-4.26756 -0.0290807 1.96495 
-4.49133 -0.0368787 2.16609 
-4.63272 0.00465325 1.80688 
-4.74025 0.0214627 1.68837 
-4.86522 0.032375 1.64091 
-4.97735 0.0491099 1.52563 
-5.10338 0.054588 1.53563 
-5.20589 0.0533173 1.6037 
-5.43572 0.0592771 1.66412 
-5.56077 0.0687665 1.63162 
-5.67063 0.0865681 1.50398 
-5.80102 0.0890647 1.54753 
-5.90212 0.0920617 1.5702 
-6.02985 0.0940751 1.61739 
-6.12747 0.0934754 1.67585 
-6.3598 0.101264 1.71853 
-6.48738 0.106682 1.73002 
-6.58541 0.102156 1.82981 
-6.72213 0.126067 1.6526 
-6.81824 0.117852 1.79 
-6.94096 0.115292 1.88243 
-7.04517 0.121065 1.87772 
-7.16027 0.10408 2.1171 
-7.25311 0.091862 2.29466 
-7.3937 0.120859 2.0663 
-7.49371 0.122022 2.10762 
-7.61726 0.121724 2.17685 
-7.71608 0.117313 2.27589 
2.93627 0.71597 -9.24627 
0.583447 -0.127836 0.804398 
0.457831 -0.165707 1.2662 
0.349364 -0.15435 1.20541 
0.223094 -0.190012 1.64453 
0.113002 -0.217211 1.98678 
-0.00701704 -0.199809 1.86908 
-0.114898 -0.241591 2.36229 
-0.243683 -0.246298 2.47988 
-0.342336 -0.250844 2.57978 
-0.473238 -0.244573 2.58398 
-0.570909 -0.29966 3.21059 
-0.703908 -0.26133 2.88149 
-0.802663 -0.289138 3.22412 
-0.930293 -0.279139 3.18772 
-1.03071 -0.280878 3.25929 
-1.15759 -0.282009 3.3386 
-1.25698 -0.284321 3.41561 
-1.37854 -0.285542 3.49304 
-1.489 -0.278392 3.47724 
-1.71148 -0.272529 3.5345 
-1.82684 -0.292404 3.80325 
-1.93232 -0.272069 3.64727 
-2.05627 -0.274867 3.74244 
-2.15587 -0.263354 3.67536 
-2.29039 -0.251415 3.62244 
-2.38762 -0.249897 3.65839 
-2.62098 -0.217811 3.44792 
-2.74757 -0.208048 3.41349 
-2.85635 -0.178591 3.16411 
-2.97561 -0.202665 3.47878 
-3.09142 -0.149498 2.9858 
-3.20748 -0.159723 3.1543 
-3.31611 -0.145212 3.06078 
-3.5528 -0.101387 2.72966 
-3.68157 -0.0861241 2.63903 
-3.78531 -0.0636814 2.46017 
-3.9244 -0.0416029 2.30394 
-4.02611 -0.0290201 2.22686 
-4.15482 -0.0328298 2.3352 
-4.25969 -0.00734124 2.12516 
-4.39567 0.0149792 1.96476 
-4.49016 -0.00334825 2.20634 
-4.62548 0.0244898 1.98802 
-4.73882 0.0555079 1.72482 
-4.86455 0.0734988 1.60414 
-4.98273 0.100576 1.38463 
-5.10002 0.084875 1.61097 
-5.2048 0.0914109 1.59865 
-5.33665 0.105112 1.52599 
-5.43361 0.0963391 1.66923 
-5.56227 0.105736 1.63979 
-5.66077 0.104986 1.70014 
-5.80148 0.130854 1.50529 
-5.90502 0.13747 1.49148 
-6.03219 0.140208 1.53074 
-6.12272 0.122019 1.7688 
-6.35593 0.135773 1.7497 
-6.48752 0.145029 1.72333 
-6.59034 0.153708 1.68763 
-6.71249 0.148531 1.80682 
-6.8155 0.154987 1.79442 
-6.93816 0.148632 1.92618 
-7.03533 0.146146 2.00398 
-7.16464 0.152736 2.00423 
-7.25495 0.1365 2.22185 
-7.38679 0.149144 2.16028 
-7.49859 0.170904 1.9929 
-7.61941 0.166344 2.10498 
-7.70833 0.147709 2.3469 
3.30582 0.764992 -9.52941 
0.460895 -0.116267 1.1399 
0.227519 -0.167736 1.79884 
0.114813 -0.18389 2.0266 
-0.00612656 -0.178581 2.03557 
-0.113759 -0.184879 2.15816 
-0.243759 -0.203187 2.4175 
-0.342298 -0.214927 2.59187 
-0.472781 -0.23489 2.86869 
-0.566968 -0.247589 3.05072 
-0.704468 -0.239883 3.04359 
-0.796758 -0.262393 3.32664 
-0.930239 -0.24686 3.236 
-1.02915 -0.238684 3.2035 
-1.15497 -0.251922 3.40796 
-1.25233 -0.262817 3.57294 
-1.37677 -0.248892 3.49423 
-1.48499 -0.247347 3.53564 
-1.70975 -0.235321 3.52997 
-1.82779 -0.244846 3.69172 
-1.93165 -0.227709 3.5687 
-2.05626 -0.238509 3.7472 
-2.15165 -0.231186 3.72174 
-2.28741 -0.216053 3.63651 
-2.38381 -0.220628 3.7353 
-2.61757 -0.181445 3.45208 
-2.74834 -0.166678 3.36803 
-2.84864 -0.159161 3.34316 
-2.97814 -0.146528 3.28062 
-3.08174 -0.136052 3.22676 
-3.20455 -0.130629 3.23564 
-3.31583 -0.101369 2.99053 
-3.5463 -0.0796495 2.8872 
-3.6837 -0.0371249 2.51804 
-3.7818 -0.0386445 2.586 
-3.91464 -0.0231331 2.49533 
-4.02532 0.00543461 2.25711 
-4.15402 0.00809147 2.29791 
-4.25386 0.017672 2.25138 
-4.38651 0.0312158 2.18108 
-4.49183 0.0467472 2.07559 
-4.62462 0.0677765 1.92753 
-4.73496 0.0853275 1.8037 
-4.86435 0.104055 1.67777 
-4.97464 0.121043 1.55978 
-5.09724 0.125386 1.57983 
-5.19938 0.119008 1.7005 
-5.42431 0.116659 1.8446 
-5.55677 0.13609 1.71301 
-5.66306 0.152729 1.59653 
-5.79153 0.152958 1.66251 
-5.89937 0.172473 1.51695 
-6.0329 0.182454 1.48422 
-6.11786 0.156037 1.80418 
-6.35338 0.175848 1.72351 
-6.48654 0.186909 1.67936 
-6.58017 0.1789 1.8125 
-6.71312 0.189214 1.77602 
-6.81983 0.204411 1.67479 
-6.93758 0.189899 1.88842 
-7.03635 0.188505 1.95552 
-7.15881 0.182363 2.08461 
-7.26064 0.187151 2.08904 
-7.39079 0.1967 2.05904 
-7.49233 0.200201 2.07672 
-7.62127 0.208097 2.06328 
-7.70968 0.190515 2.29325 
1.42708 0.167275 -1.92115 
1.06956 0.131391 -1.36017 
0.462953 -0.0733634 1.08272 
0.350678 -0.0941443 1.35751 
0.2278 -0.106216 1.54766 
0.118666 -0.147489 2.03317 
-0.0118449 -0.165862 2.29268 
-0.114759 -0.156198 2.24702 
-0.241535 -0.159147 2.34472 
-0.336904 -0.179376 2.60486 
-0.471529 -0.216296 3.05879 
-0.569548 -0.205763 3.00156 
-0.70013 -0.20846 3.09867 
-0.798325 -0.209006 3.15635 
-0.93061 -0.208398 3.22013 
-1.02761 -0.207511 3.26232 
-1.15396 -0.21017 3.35684 
-1.25271 -0.213717 3.44592 
-1.37576 -0.207292 3.44454 
-1.48482 -0.205793 3.4868 
-1.70616 -0.209712 3.64473 
-1.82632 -0.214745 3.76058 
-1.92802 -0.201185 3.67396 
-2.05296 -0.210515 3.83689 
-2.15397 -0.18921 3.66963 
-2.28744 -0.178952 3.63407 
-2.38678 -0.158719 3.47703 
-2.61465 -0.143508 3.44021 
-2.74518 -0.14014 3.47452 
-2.84384 -0.130561 3.42755 
-2.9774 -0.103824 3.22127 
-3.08066 -0.0928282 3.16207 
-3.20316 -0.0935495 3.23452 
-3.31691 -0.0542906 2.88795 
-3.43656 -0.0598003 3.00852 
-3.5487 -0.0280455 2.73888 
-3.68617 0.00574579 2.46156 
-3.77859 -0.0125548 2.70028 
-3.9091 0.000956989 2.62947 
-4.01908 0.0286277 2.40102 
-4.1503 0.0396506 2.35639 
-4.25393 0.0585457 2.21554 
-4.38483 0.0692511 2.17404 
-4.49439 0.0912562 2.00409 
-4.62549 0.115325 1.82419 
-4.72697 0.114505 1.88655 
-4.85745 0.132619 1.76805 
-4.97734 0.167279 1.47242 
-5.09472 0.159578 1.61455 
-5.20096 0.163751 1.6277 
-5.32798 0.169631 1.63418 
-5.42778 0.16515 1.73362 
-5.56034 0.183412 1.6147 
-5.66658 0.191004 1.59242 
-5.79318 0.197343 1.59393 
-5.89058 0.202853 1.58854 
-6.02477 0.209381 1.59214 
-6.12207 0.20695 1.66903 
-6.24685 0.197607 1.83214 
-6.34802 0.205553 1.80351 
-6.48132 0.219079 1.73411 
-6.57952 0.216785 1.81006 
-6.70703 0.221591 1.82799 
-6.80977 0.223829 1.85937 
-6.93747 0.229942 1.86386 
-7.027 0.213696 2.07984 
-7.16252 0.230816 1.97439 
-7.24898 0.208018 2.25668 
-7.38705 0.230556 2.09641 
-7.49579 0.247012 1.98361 
-7.62353 0.250506 2.0153 
-7.72057 0.245259 2.12127 
1.17152 0.117871 -0.879336 
0.46341 -0.0457633 1.18485 
0.352524 -0.0477303 1.26373 
0.230945 -0.0919673 1.78492 
0.120056 -0.117381 2.10602 
-0.0117775 -0.0816904 1.807 
-0.108577 -0.0966476 2.01265 
-0.238685 -0.133544 2.46254 
-0.335119 -0.148515 2.66815 
-0.467919 -0.162322 2.88097 
-0.563531 -0.181848 3.1332 
-0.698634 -0.17805 3.16539 
-0.795978 -0.177347 3.20958 
-0.928744 -0.170527 3.20932 
-1.0248 -0.171685 3.27206 
-1.15216 -0.168336 3.3048 
-1.2498 -0.178614 3.46261 
-1.37246 -0.181042 3.55255 
-1.48112 -0.171953 3.51611 
-1.7025 -0.184111 3.7588 
-1.82441 -0.181294 3.79419 
-1.92527 -0.169562 3.72634 
-2.05184 -0.169654 3.79424 
-2.15219 -0.150487 3.64932 
-2.28304 -0.146769 3.68013 
-2.38424 -0.133183 3.59332 
-2.61347 -0.111684 3.4925 
-2.74184 -0.101706 3.45735 
-2.8426 -0.0931134 3.42191 
-2.9777 -0.061298 3.16472 
-3.07996 -0.0557169 3.16118 
-3.19741 -0.069202 3.36266 
-3.3122 -0.0304048 3.0226 
-3.43634 -0.0174426 2.95439 
-3.55064 0.0147594 2.68221 
-3.67473 0.0152954 2.74236 
-3.78437 0.0491415 2.45073 
-3.9168 0.0642146 2.36512 
-4.01751 0.0691525 2.36742 
-4.14052 0.0563036 2.56531 
-4.24993 0.0843308 2.33368 
-4.38407 0.110181 2.13764 
-4.49242 0.131086 1.97903 
-4.62582 0.14947 1.85974 
-4.73001 0.158291 1.82379 
-4.85789 0.1769 1.69925 
-4.97363 0.210061 1.41795 
-5.09515 0.200731 1.57871 
-5.19318 0.189148 1.75031 
-5.31999 0.19537 1.75321 
-5.4217 0.193627 1.82511 
-5.5478 0.200686 1.81898 
-5.6638 0.230875 1.56854 
-5.79281 0.241128 1.53096 
-5.89146 0.246165 1.53119 
-6.02271 0.242994 1.63351 
-6.11848 0.240811 1.70682 
-6.24316 0.234946 1.83351 
-6.34787 0.24418 1.7936 
-6.4758 0.251775 1.78293 
-6.58161 0.261929 1.73411 
-6.71236 0.267962 1.74109 
-6.81491 0.275272 1.71992 
-6.93882 0.272863 1.81051 
-7.03093 0.259685 1.99553 
-7.15322 0.254557 2.11337 
-7.25715 0.263938 2.07155 
-7.39128 0.277774 1.99971 
-7.49861 0.292137 1.90822 
-7.61653 0.281316 2.08258 
-7.71844 0.283709 2.11191 
1.89397 0.173472 -1.44016 
1.81543 0.295795 -2.65819 
1.42782 0.23165 -1.79364 
0.46452 -0.0126986 1.22973 
0.232103 -0.0434943 1.66932 
0.120967 -0.0717577 2.01892 
-0.0056799 -0.0361585 1.71915 
-0.107861 -0.0811964 2.23676 
-0.238417 -0.0807364 2.30087 
-0.33265 -0.109278 2.64444 
-0.467939 -0.121827 2.84501 
-0.56412 -0.132807 3.00879 
-0.700899 -0.136331 3.11723 
-0.792488 -0.152158 3.3285 
-0.925876 -0.142962 3.30418 
-1.02287 -0.141532 3.34063 
-1.14945 -0.14542 3.44745 
-1.24948 -0.138483 3.4288 
-1.37121 -0.14069 3.51576 
-1.47735 -0.152063 3.68888 
-1.59889 -0.136515 3.59292 
-1.70246 -0.136579 3.64824 
-1.82287 -0.13874 3.73405 
-1.92283 -0.13789 3.77805 
-2.05106 -0.129555 3.75991 
-2.1474 -0.132159 3.83759 
-2.28071 -0.114651 3.72769 
-2.37778 -0.110811 3.73939 
-2.61094 -0.0817999 3.56376 
-2.74559 -0.0575208 3.38484 
-2.84392 -0.047044 3.32888 
-2.9727 -0.0402012 3.32643 
-3.0773 -0.0195928 3.16945 
-3.2013 -0.012391 3.16078 
-3.31338 0.00903797 2.9993 
-3.43506 0.0207968 2.94249 
-3.54662 0.0518293 2.68185 
-3.67405 0.0544457 2.72222 
-3.78077 0.0819155 2.49571 
-3.90578 0.0769219 2.61319 
-4.01694 0.111959 2.3111 
-4.14625 0.10179 2.48414 
-4.24864 0.127124 2.27735 
-4.37471 0.124121 2.3749 
-4.49015 0.170699 1.95623 
-4.62346 0.189254 1.8356 
-4.73466 0.211158 1.66879 
-4.85933 0.223573 1.60683 
-4.96899 0.236027 1.53653 
-5.09222 0.238366 1.57758 
-5.19467 0.235106 1.66531 
-5.32385 0.245118 1.6305 
-5.42256 0.241005 1.72504 
-5.55431 0.254366 1.6571 
-5.65764 0.268093 1.57036 
-5.79022 0.272348 1.59664 
-5.8999 0.288843 1.48476 
-6.02402 0.290323 1.53516 
-6.11959 0.277074 1.72215 
-6.24587 0.282874 1.72921 
-6.3447 0.280487 1.80606 
-6.48149 0.300148 1.67593 
-6.58282 0.302983 1.70034 
-6.70808 0.297686 1.82115 
-6.81796 0.320634 1.64293 
-6.93991 0.314463 1.77101 
-7.03733 0.308738 1.88152 
-7.1567 0.301421 2.02006 
-7.24854 0.285732 2.23024 
-7.38371 0.302803 2.12595 
-7.49536 0.325091 1.95548 
-7.60448 0.301584 2.25535 
-7.7151 0.318537 2.1393 
1.91413 0.288275 -2.23663 
1.18122 0.226032 -1.21266 
0.465776 0.029378 1.18178 
0.356209 0.0264233 1.26973 
0.230533 -0.0299095 1.914 
0.119962 -0.0510171 2.1888 
-0.00346744 -0.0422077 2.16333 
-0.107009 -0.0461972 2.25875 
-0.235269 -0.0519542 2.38533 
-0.336087 -0.0719237 2.64334 
-0.466092 -0.0932906 2.93105 
-0.561682 -0.0997323 3.04748 
-0.694349 -0.105473 3.17623 
-0.793108 -0.107253 3.24649 
-0.924432 -0.0942914 3.18259 
-1.01939 -0.113372 3.42841 
-1.1466 -0.118804 3.55114 
-1.25019 -0.0926196 3.33694 
-1.36836 -0.111759 3.5956 
-1.47817 -0.103521 3.56887 
-1.70082 -0.100152 3.65155 
-1.81859 -0.10714 3.7853 
-1.9212 -0.0998004 3.76402 
-2.0474 -0.0962225 3.79378 
-2.14778 -0.0849752 3.73121 
-2.2774 -0.0745428 3.69241 
-2.3799 -0.0606718 3.60404 
-2.61102 -0.0360934 3.47353 
-2.73959 -0.0277507 3.45565 
-2.84672 -0.000438821 3.23176 
-2.97237 0.00391212 3.25332 
-3.07248 0.00924557 3.25133 
-3.19766 0.0231477 3.1746 
-3.31505 0.0624883 2.83266 
-3.43782 0.0724712 2.7949 
-3.54152 0.0810997 2.761 
-3.67494 0.100761 2.62951 
-3.77632 0.116278 2.52368 
-3.90921 0.127116 2.48248 
-4.01306 0.135602 2.45013 
-4.14148 0.136984 2.50365 
-4.24536 0.155212 2.37131 
-4.37935 0.179339 2.19431 
-4.49128 0.214045 1.89707 
-4.61907 0.223348 1.86896 
-4.72536 0.236852 1.7864 
-4.85168 0.240524 1.81533 
-4.96833 0.277151 1.50087 
-5.0929 0.284681 1.48928 
-5.19287 0.273962 1.65205 
-5.31666 0.268602 1.77237 
-5.41735 0.269676 1.81447 
-5.55106 0.286781 1.70942 
-5.65247 0.296869 1.65937 
-5.78656 0.304104 1.65585 
-5.89423 0.323679 1.51172 
-6.01785 0.319112 1.62384 
-6.11404 0.311644 1.75127 
-6.34141 0.314744 1.83945 
-6.47346 0.324918 1.8047 
-6.57748 0.332253 1.78431 
-6.71152 0.343614 1.73844 
-6.81873 0.361861 1.60771 
-6.93244 0.343593 1.85529 
-7.02254 0.323351 2.11067 
-7.15272 0.333713 2.07304 
-7.25282 0.33582 2.10427 
-7.39143 0.358747 1.94208 
-7.48488 0.346841 2.11368 
-7.60958 0.348615 2.16132 
-7.72491 0.37388 1.96285 
1.68396 0.367861 -2.53646 
1.58111 0.394917 -2.7593 
1.42925 0.29848 -1.69314 
0.467037 0.0481955 1.3721 
0.358521 0.0308317 1.60669 
0.23751 0.0357249 1.62016 
0.122945 -0.00331253 2.07966 
-0.00124598 -0.0103499 2.21686 
-0.104356 -0.0179463 2.34871 
-0.23292 -0.0239723 2.47787 
-0.332935 -0.0197481 2.48718 
-0.463132 -0.0489497 2.8543 
-0.559835 -0.0596782 3.01485 
-0.695215 -0.0528322 3.01592 
-0.789117 -0.0790276 3.33324 
-0.92056 -0.0485203 3.09018 
-1.02144 -0.0554371 3.21394 
-1.14676 -0.0515763 3.24028 
-1.24758 -0.0548112 3.32635 
-1.36683 -0.0734337 3.57954 
-1.47307 -0.0767579 3.66938 
-1.70034 -0.0557704 3.57409 
-1.81707 -0.0719912 3.80141 
-1.92009 -0.0592247 3.72494 
-2.0451 -0.0663775 3.86383 
-2.14076 -0.0631076 3.88066 
-2.27936 -0.0272705 3.58687 
-2.37874 -0.0237722 3.60332 
-2.60542 -0.0123278 3.60541 
-2.74022 0.0126378 3.42086 
-2.84049 0.0234683 3.36278 
-2.96854 0.0355635 3.30636 
-3.0718 0.0504755 3.2081 
-3.19447 0.0499419 3.27808 
-3.306 0.0733958 3.09676 
-3.43064 0.0844481 3.04924 
-3.53927 0.109351 2.85158 
-3.67241 0.138358 2.62482 
-3.77281 0.136807 2.69351 
-3.91076 0.167127 2.45586 
-4.00771 0.165078 2.52782 
-4.14076 0.183702 2.40727 
-4.24372 0.191803 2.37856 
-4.37646 0.217282 2.1877 
-4.48743 0.250607 1.90511 
-4.61821 0.259489 1.88305 
-4.72385 0.27784 1.75087 
-4.85515 0.284775 1.74902 
-4.96621 0.312578 1.52298 
-5.09442 0.322596 1.48796 
-5.19425 0.315009 1.61815 
-5.41821 0.315104 1.73507 
-5.54934 0.324907 1.70381 
-5.65052 0.333481 1.66934 
-5.78624 0.343956 1.63362 
-5.89469 0.366039 1.46475 
-6.02399 0.368664 1.50598 
-6.11145 0.354344 1.69858 
-6.34377 0.357218 1.79153 
-6.47626 0.374104 1.68852 
-6.58492 0.390427 1.57873 
-6.71119 0.386445 1.68599 
-6.80242 0.372944 1.87221 
-6.928 0.374497 1.92248 
-7.02488 0.370229 2.01721 
-7.15554 0.379694 1.9892 
-7.24674 0.367461 2.16245 
-7.38857 0.393926 1.96635 
-7.49211 0.402197 1.93629 
-7.60805 0.38743 2.14851 
-7.71735 0.400773 2.06958 
0.596625 0.0991927 1.16586 
0.470098 0.126045 0.95831 
0.360528 0.0797884 1.4874 
0.236153 0.0505106 1.85111 
0.124777 0.0216758 2.2035 
-0.00101645 0.0464191 2.01709 
-0.100605 0.0343077 2.19277 
-0.225262 0.00490934 2.55789 
-0.330321 -0.00361052 2.69983 
-0.462823 -0.0160518 2.89614 
-0.559017 -0.0180718 2.96716 
-0.69112 -0.0428207 3.28879 
-0.789814 -0.0361126 3.27211 
-0.91906 -0.00297513 3.00193 
-1.01904 -0.0361773 3.39295 
-1.14485 -0.0325989 3.42241 
-1.24465 -0.0366167 3.51572 
-1.36535 -0.0347236 3.5597 
-1.46861 -0.0334583 3.60095 
-1.69586 -0.0355065 3.74102 
-1.81521 -0.0318738 3.76657 
-1.9183 -0.0230186 3.73033 
-2.04296 -0.0284629 3.85125 
-2.14118 -0.0196431 3.81282 
-2.27727 0.00428595 3.64017 
-2.37073 -0.00135164 3.7467 
-2.60509 0.0244036 3.607 
-2.73793 0.0410005 3.50744 
-2.83948 0.0639133 3.32705 
-2.96895 0.0783441 3.24781 
-3.06814 0.0801358 3.2816 
-3.19531 0.0999615 3.14614 
-3.30885 0.120653 2.9947 
-3.42693 0.121384 3.04923 
-3.53979 0.155485 2.76067 
-3.66986 0.173055 2.64976 
-3.77205 0.179508 2.63758 
-3.90765 0.20287 2.4705 
-4.00214 0.194704 2.6034 
-4.13088 0.199299 2.62413 
-4.23932 0.230293 2.36496 
-4.37166 0.243886 2.2958 
-4.4797 0.270616 2.07991 
-4.61974 0.307263 1.77968 
-4.7149 0.291484 1.99059 
-4.8496 0.315403 1.81737 
-4.96601 0.352517 1.49997 
-5.09135 0.359087 1.49879 
-5.19096 0.348941 1.6546 
-5.41459 0.345828 1.80384 
-5.54801 0.364873 1.67968 
-5.64905 0.366447 1.71671 
-5.787 0.390912 1.53966 
-5.88923 0.396586 1.53551 
-6.00742 0.376864 1.79879 
-6.1128 0.393397 1.68552 
-6.34085 0.398484 1.7535 
-6.47532 0.412981 1.6763 
-6.5762 0.412671 1.73249 
-6.69794 0.40661 1.85832 
-6.81378 0.435902 1.62043 
-6.92743 0.412437 1.91953 
-7.02445 0.409598 1.9995 
-7.15202 0.413612 2.02565 
-7.25468 0.419896 2.01552 
-7.38052 0.421667 2.06364 
-7.48878 0.436173 1.97261 
-7.59703 0.410069 2.29582 
-7.712 0.433324 2.11908 
2.94423 1.01994 -9.03758 
1.91873 0.391409 -2.11399 
1.57934 0.436191 -2.39192 
1.43297 0.359495 -1.53592 
0.840874 0.270514 -0.322149 
0.607254 0.205557 0.460201 
0.472827 0.16092 0.984187 
0.362204 0.135329 1.30213 
0.239522 0.0936844 1.78958 
0.129822 0.0742614 2.04436 
0.0025351 0.0990181 1.85926 
-0.0993302 0.0715071 2.19217 
-0.228253 0.0642253 2.33361 
-0.326828 0.0239696 2.79436 
-0.46157 0.0175434 2.93016 
-0.556846 0.00851202 3.0718 
-0.789935 0.00521578 3.22723 
-0.916266 0.0162522 3.18113 
-1.01697 0.00760627 3.3217 
-1.14332 0.0146128 3.31658 
-1.24271 0.0127923 3.38709 
-1.36486 0.0111231 3.46798 
-1.46865 0.00497963 3.58475 
-1.69537 0.0089068 3.66348 
-1.81616 0.00819387 3.73395 
-1.91568 0.00863599 3.78154 
-2.04153 0.00883458 3.8454 
-2.13868 0.0116313 3.86783 
-2.2751 0.0407511 3.64322 
-2.36986 0.0335898 3.76563 
-2.60729 0.0719979 3.49949 
-2.73917 0.0903342 3.38214 
-2.83614 0.0989802 3.34502 
-2.96408 0.10041 3.39748 
-3.0692 0.120507 3.24822 
-3.19209 0.126663 3.25001 
-3.30067 0.145825 3.11206 
-3.42783 0.169224 2.94079 
-3.53348 0.176857 2.91854 
-3.66566 0.208427 2.66682 
-3.77011 0.225011 2.55294 
-3.90522 0.233276 2.53969 
-4.00476 0.245791 2.46461 
-4.13708 0.256906 2.42094 
-4.24117 0.271803 2.32402 
-4.37731 0.29319 2.17793 
-4.48349 0.322729 1.93325 
-4.61496 0.338004 1.84685 
-4.7255 0.36119 1.66906 
-4.85144 0.368482 1.66092 
-4.96044 0.39078 1.49135 
-5.08589 0.385445 1.61135 
-5.18473 0.376991 1.74911 
-5.41786 0.392911 1.70947 
-5.53723 0.387826 1.82375 
-5.64829 0.404315 1.71434 
-5.78285 0.421561 1.60956 
-5.88078 0.424208 1.63398 
-6.01393 0.434503 1.59913 
-6.10724 0.41623 1.83386 
-6.32693 0.406035 2.05275 
-6.47646 0.450856 1.67547 
-6.57528 0.452327 1.71234 
-6.69218 0.435902 1.94068 
-6.80384 0.458156 1.77298 
-6.92416 0.448208 1.93726 
-7.02205 0.444296 2.0284 
-7.14552 0.443221 2.10412 
-7.24344 0.438356 2.20497 
-7.38136 0.463724 2.01941 
-7.48259 0.465216 2.05736 
-7.60718 0.466828 2.10637 
-7.70409 0.461568 2.21072 
3.07124 1.10656 -9.57027 
1.43151 0.39708 -1.528 
1.18962 0.367495 -1.10216 
0.597692 0.186042 1.04504 
0.47488 0.185368 1.11592 
0.367585 0.168617 1.34161 
0.239418 0.116356 1.93801 
0.131445 0.107261 2.0865 
0.00424963 0.141097 1.81001 
-0.0986447 0.114746 2.13071 
-0.229301 0.0971016 2.37768 
-0.325959 0.090901 2.49095 
-0.458869 0.0441321 3.03422 
-0.558127 0.0483448 3.04334 
-0.686836 0.042408 3.17068 
-0.785978 0.0423907 3.22261 
-0.914723 0.0538309 3.1739 
-1.01657 0.053824 3.22714 
-1.1403 0.0442029 3.38923 
-1.24003 0.0376106 3.50811 
-1.36121 0.0330996 3.6171 
-1.4685 0.0414094 3.58892 
-1.69261 0.0393984 3.72635 
-1.81347 0.0485723 3.69651 
-1.91461 0.0494739 3.7402 
-2.04053 0.0443907 3.85749 
-2.13453 0.0375243 3.97618 
-2.27167 0.0723705 3.69471 
-2.36777 0.0761973 3.70614 
-2.60101 0.0944958 3.64258 
-2.73358 0.119234 3.46115 
-2.83225 0.128744 3.41635 
-2.96526 0.150076 3.26968 
-3.06725 0.163102 3.19099 
-3.18853 0.157171 3.31448 
-3.30014 0.183897 3.10197 
-3.42172 0.197465 3.02803 
-3.53085 0.213397 2.92362 
-3.66662 0.247806 2.64589 
-3.76201 0.24283 2.74618 
-3.90213 0.267157 2.57291 
-4.00445 0.285193 2.44362 
-4.13329 0.291175 2.45036 
-4.24168 0.318019 2.23499 
-4.48401 0.359837 1.93791 
-4.61495 0.381978 1.782 
-4.71823 0.38029 1.85312 
-4.85217 0.409651 1.62561 
-4.95483 0.414298 1.63221 
-5.08711 0.433181 1.51003 
-5.1794 0.405252 1.84136 
-5.41408 0.421495 1.79952 
-5.54118 0.433937 1.73992 
-5.64241 0.435958 1.77241 
-5.7835 0.462695 1.57526 
-5.89888 0.501153 1.24586 
-6.00527 0.460022 1.7184 
-6.1062 0.452448 1.84799 
-6.23115 0.456146 1.87591 
-6.34035 0.472451 1.76781 
-6.46739 0.478414 1.77388 
-6.57295 0.488846 1.7234 
-6.70703 0.503512 1.64494 
-6.80552 0.500344 1.72862 
-6.91717 0.481423 1.97886 
-7.02762 0.494619 1.90294 
-7.14707 0.485051 2.06247 
-7.24257 0.478499 2.17889 
-7.37198 0.486371 2.16687 
-7.48033 0.502153 2.06365 
-7.60309 0.500345 2.14628 
-7.70144 0.498128 2.22027 
2.81314 1.13828 -9.34529 
1.58475 0.527586 -2.53906 
1.43657 0.469904 -1.87941 
1.19007 0.406412 -1.10993 
0.842266 0.303094 0.114564 
0.600778 0.243325 0.843925 
0.474579 0.20688 1.27772 
0.361446 0.161408 1.79589 
0.238887 0.16814 1.7917 
0.132531 0.13815 2.14999 
0.00811187 0.154887 2.04572 
-0.0973651 0.12055 2.44747 
-0.226816 0.139378 2.3247 
-0.325075 0.122546 2.54589 
-0.457822 0.0764219 3.08091 
-0.555708 0.0742555 3.15378 
-0.687255 0.0812131 3.15203 
-0.783751 0.0804263 3.21025 
-0.912914 0.086642 3.21475 
-1.01253 0.0900926 3.2318 
-1.13747 0.0754781 3.44452 
-1.23944 0.0854097 3.39733 
-1.35993 0.0656759 3.65946 
-1.4656 0.0679864 3.69118 
-1.69061 0.0764146 3.72332 
-1.81334 0.0872519 3.67783 
-1.91656 0.10638 3.53841 
-2.0386 0.0803858 3.86461 
-2.13537 0.0887458 3.83061 
-2.26916 0.105576 3.73035 
-2.36957 0.123812 3.59849 
-2.60041 0.141464 3.54054 
-2.73403 0.157226 3.451 
-2.82755 0.158762 3.48426 
-2.96365 0.19088 3.23078 
-3.06565 0.197363 3.2185 
-3.18909 0.201269 3.24342 
-3.29795 0.219135 3.11973 
-3.42249 0.233883 3.0357 
-3.52829 0.247036 2.95803 
-3.65791 0.263375 2.86059 
-3.76617 0.287553 2.67282 
-3.89601 0.295761 2.65765 
-4.00183 0.318795 2.48016 
-4.13594 0.340509 2.33079 
-4.48082 0.394834 1.96196 
-4.60552 0.394255 2.03288 
-4.71726 0.42081 1.82293 
-4.84445 0.431669 1.77962 
-4.9607 0.467718 1.47611 
-5.08396 0.460856 1.60978 
-5.17777 0.442534 1.84385 
-5.40993 0.455296 1.83612 
-5.53979 0.471532 1.7399 
-5.64048 0.476498 1.7423 
-5.7804 0.493977 1.63878 
-5.87545 0.494587 1.68226 
-6.00464 0.498134 1.71389 
-6.10345 0.487588 1.87204 
-6.33351 0.5013 1.85369 
-6.46353 0.51091 1.82451 
-6.56708 0.520003 1.78673 
-6.69785 0.527939 1.77487 
-6.80351 0.539009 1.71823 
-6.90925 0.506199 2.10497 
-7.01213 0.508762 2.13284 
-7.1523 0.537928 1.91141 
-7.25014 0.532415 2.01824 
-7.37644 0.535124 2.05688 
-7.47124 0.527336 2.18511 
-7.60121 0.537096 2.15444 
-7.70431 0.544859 2.1299 
1.32795 0.469864 -1.43598 
1.08637 0.442699 -1.03707 
0.84322 0.34593 0.0634779 
0.716424 0.319375 0.396689 
0.601177 0.281549 0.83739 
0.474027 0.268542 1.0344 
0.365684 0.238019 1.398 
0.245326 0.205585 1.78709 
0.134834 0.201007 1.89059 
0.00758737 0.178985 2.17844 
-0.0944592 0.178261 2.23875 
-0.222858 0.145553 2.63481 
-0.326669 0.153692 2.60681 
-0.454471 0.133053 2.88105 
-0.552931 0.116674 3.09715 
-0.685334 0.12057 3.12675 
-0.78099 0.109281 3.29014 
-0.908601 0.117815 3.27056 
-1.00947 0.119787 3.30315 
-1.13609 0.11523 3.41488 
-1.23908 0.120605 3.41431 
-1.35876 0.107268 3.61085 
-1.46392 0.111979 3.61809 
-1.67635 0.0349828 4.50389 
-1.80971 0.123516 3.68178 
-1.91937 0.169778 3.27299 
-2.03755 0.121382 3.8218 
-2.13541 0.132241 3.76337 
-2.26865 0.143088 3.72347 
-2.36641 0.145219 3.75287 
-2.60015 0.180934 3.51487 
-2.73117 0.190391 3.48782 
-2.82923 0.201754 3.42443 
-2.96042 0.22071 3.30182 
-3.06171 0.223249 3.32897 
-3.18607 0.234327 3.28215 
-3.29648 0.265748 3.02322 
-3.41851 0.268584 3.05818 
-3.52864 0.285142 2.94877 
-3.6558 0.299993 2.86543 
-3.76501 0.33098 2.61024 
-3.902 0.3532 2.4578 
-3.99646 0.349583 2.54341 
-4.13191 0.373297 2.37514 
-4.37262 0.417379 2.05657 
-4.4735 0.415885 2.12416 
-4.61114 0.457551 1.77625 
-4.71727 0.467254 1.73381 
-4.84592 0.478977 1.68277 
-4.9563 0.497841 1.55029 
-5.07332 0.47962 1.79475 
-5.17321 0.475149 1.89182 
-5.40519 0.494631 1.81648 
-5.53126 0.491968 1.90899 
-5.64087 0.515026 1.73389 
-5.77838 0.536633 1.58794 
-5.87642 0.53543 1.65116 
-6.0063 0.539279 1.68008 
-6.10167 0.529434 1.82894 
-6.33365 0.541201 1.83135 
-6.47056 0.560496 1.70839 
-6.55699 0.546995 1.88943 
-6.68977 0.550813 1.92021 
-6.79705 0.568466 1.79835 
-6.91013 0.54513 2.09233 
-7.02556 0.575701 1.84463 
-7.14024 0.556964 2.09316 
-7.24517 0.565661 2.06028 
-7.37006 0.566285 2.11914 
-7.4782 0.578796 2.04953 
-7.60677 0.583305 2.07118 
-7.69 0.559414 2.35523 
3.06596 1.18157 -9.09424 
2.81467 1.21367 -9.28633 
1.44245 0.535766 -1.7726 
1.33459 0.54385 -1.79786 
1.20055 0.529308 -1.58246 
0.60563 0.335742 0.668554 
0.47486 0.284943 1.24619 
0.373263 0.289059 1.25755 
0.24638 0.258686 1.62818 
0.133367 0.205978 2.2158 
0.0112984 0.225082 2.08735 
-0.0933734 0.212951 2.26339 
-0.223575 0.203161 2.42917 
-0.32325 0.191157 2.60136 
-0.453586 0.173249 2.8487 
-0.550515 0.153887 3.09333 
-0.681208 0.147827 3.22195 
-0.778554 0.140057 3.35044 
-0.909764 0.151444 3.30423 
-1.00973 0.150331 3.36727 
-1.13536 0.149456 3.44125 
-1.23761 0.164798 3.34032 
-1.35564 0.132991 3.72083 
-1.46558 0.152473 3.58233 
-1.68617 0.145868 3.76313 
-2.03548 0.162418 3.77835 
-2.13081 0.165928 3.79261 
-2.26792 0.182153 3.70094 
-2.36872 0.195684 3.61746 
-2.59245 0.195871 3.73177 
-2.72415 0.219177 3.56621 
-2.83124 0.24804 3.3321 
-2.95474 0.242402 3.45284 
-3.06561 0.283268 3.10022 
-3.19002 0.291471 3.0825 
-3.29392 0.294671 3.10435 
-3.4213 0.312555 2.991 
-3.52611 0.321458 2.95607 
-3.65532 0.335208 2.88518 
-3.76055 0.364641 2.64439 
-3.89492 0.379068 2.56938 
-3.9973 0.399486 2.41762 
-4.1265 0.398165 2.49802 
-4.23416 0.4214 2.32072 
-4.37293 0.456227 2.04323 
-4.47967 0.476704 1.89314 
-4.60978 0.491278 1.81446 
-4.70965 0.488802 1.89123 
-4.84581 0.519154 1.65731 
-4.95244 0.534294 1.56075 
-5.07299 0.521724 1.74962 
-5.17656 0.523895 1.78166 
-5.29721 0.513891 1.94483 
-5.40427 0.52927 1.8461 
-5.54036 0.551841 1.69027 
-5.64122 0.550742 1.75375 
-5.77598 0.574253 1.58781 
-5.87651 0.576197 1.62057 
-6.00492 0.578273 1.66652 
-6.10522 0.580791 1.69341 
-6.22075 0.561162 1.95057 
-6.32354 0.560434 2.01135 
-6.46653 0.598011 1.70849 
-6.56289 0.590833 1.83068 
-6.6916 0.595117 1.85464 
-6.79924 0.611894 1.7422 
-6.91888 0.602482 1.89896 
-7.01505 0.594588 2.02826 
-7.13342 0.58519 2.18422 
-7.23688 0.590041 2.18936 
-7.37003 0.603248 2.12607 
-7.47827 0.618501 2.02927 
-7.59594 0.608189 2.19405 
-7.69378 0.60589 2.26807 
1.44623 0.593029 -1.96353 
0.609796 0.349375 0.906743 
0.372035 0.333773 1.18585 
0.243925 0.286775 1.72236 
0.140477 0.29154 1.72821 
0.0106774 0.255227 2.15871 
-0.0916629 0.237479 2.38924 
-0.22048 0.241844 2.41224 
-0.32009 0.207406 2.80836 
-0.451512 0.202183 2.92865 
-0.548293 0.185498 3.14571 
-0.680527 0.20633 3.00573 
-0.777853 0.185428 3.26525 
-0.909252 0.209395 3.09348 
-1.00736 0.193866 3.29966 
-1.13425 0.1951 3.35302 
-1.23209 0.182939 3.52538 
-1.35442 0.179846 3.61968 
-1.4652 0.191161 3.56384 
-1.68608 0.190761 3.68226 
-1.8061 0.188376 3.7683 
-1.91354 0.228074 3.42674 
-2.03436 0.200704 3.7632 
-2.13139 0.203547 3.78504 
-2.26394 0.217108 3.71802 
-2.36614 0.235849 3.58345 
-2.5937 0.246167 3.59813 
-2.73006 0.279747 3.33279 
-2.82893 0.284802 3.33345 
-2.95332 0.281827 3.4277 
-3.06605 0.318763 3.11653 
-3.18177 0.306724 3.29699 
-3.29286 0.342422 2.99736 
-3.41631 0.34181 3.06748 
-3.52355 0.357757 2.96351 
-3.65702 0.384312 2.76698 
-3.75492 0.39082 2.75262 
-3.88776 0.404081 2.68879 
-4.00518 0.447419 2.31601 
-4.13087 0.450569 2.34967 
-4.22913 0.452637 2.37993 
-4.37906 0.518385 1.79975 
-4.46893 0.490286 2.12756 
-4.60696 0.526852 1.83322 
-4.72327 0.562515 1.53667 
-4.84273 0.555495 1.66889 
-4.95054 0.567509 1.60459 
-5.07275 0.558055 1.76261 
-5.17728 0.562228 1.77508 
-5.39977 0.559314 1.91969 
-5.53367 0.578211 1.80007 
-5.63859 0.594222 1.69428 
-5.76843 0.596283 1.74104 
-5.86907 0.599829 1.75778 
-5.99579 0.605309 1.76871 
-6.09689 0.603053 1.84378 
-6.32722 0.610859 1.88522 
-6.4541 0.615437 1.90528 
-6.54738 0.601296 2.09524 
-6.68429 0.625976 1.91932 
-6.79591 0.646346 1.77342 
-6.91515 0.636668 1.9322 
-7.01048 0.627926 2.0692 
-7.13529 0.627463 2.13866 
-7.23068 0.619164 2.27126 
-7.37096 0.646238 2.07316 
-7.4729 0.648557 2.1029 
-7.59612 0.64706 2.18191 
-7.69418 0.646728 2.23617 
2.81379 1.26881 -9.02488 
1.69231 0.635761 -2.13331 
1.45186 0.645871 -2.1101 
1.19546 0.555726 -1.07876 
1.09265 0.572501 -1.19301 
0.848438 0.473916 -0.0837356 
0.615875 0.423826 0.535898 
0.479778 0.33758 1.46636 
0.372334 0.355025 1.34784 
0.250451 0.33917 1.56891 
0.138348 0.295432 2.06304 
0.0135373 0.302424 2.05776 
-0.0899991 0.276236 2.37243 
-0.218099 0.253521 2.66515 
-0.317707 0.252482 2.72697 
-0.449661 0.216037 3.15865 
-0.543728 0.217051 3.19713 
-0.679407 0.235272 3.0855 
-0.778103 0.215299 3.33571 
-0.908209 0.241924 3.13737 
-0.999424 0.204796 3.55484 
-1.13283 0.24742 3.19863 
-1.23159 0.220293 3.52025 
-1.35142 0.208424 3.70058 
-1.459 0.21694 3.67124 
-1.68302 0.218988 3.76662 
-1.80757 0.244434 3.57719 
-2.0313 0.22236 3.91306 
-2.13095 0.241973 3.76895 
-2.26373 0.257685 3.68089 
-2.36089 0.259706 3.71097 
-2.59184 0.286104 3.56709 
-2.72141 0.291669 3.5786 
-2.82367 0.310703 3.44163 
-2.95362 0.320432 3.4118 
-3.06088 0.345387 3.21835 
-3.18062 0.3474 3.26022 
-3.29238 0.383571 2.95722 
-3.4176 0.3902 2.95587 
-3.51131 0.354056 3.36491 
-3.64604 0.40407 2.93573 
-3.7573 0.434019 2.69454 
-3.89454 0.463241 2.47405 
-3.99806 0.476129 2.39906 
-4.12836 0.486526 2.36278 
-4.22774 0.489892 2.38064 
-4.37198 0.53565 1.99882 
-4.47735 0.557471 1.83569 
-4.60539 0.56149 1.86188 
-4.70879 0.56813 1.84916 
-4.84241 0.594947 1.65081 
-4.9513 0.610542 1.55161 
-5.06928 0.591983 1.79784 
-5.17569 0.601517 1.75783 
-5.29975 0.600838 1.82884 
-5.4015 0.599915 1.89074 
-5.5345 0.622338 1.73592 
-5.63845 0.628588 1.72741 
-5.76854 0.633234 1.74843 
-5.86863 0.644045 1.69243 
-5.99669 0.645008 1.74915 
-6.09167 0.633334 1.91482 
-6.21517 0.628753 2.0245 
-6.32387 0.644121 1.9275 
-6.44784 0.642135 2.01155 
-6.55375 0.659566 1.89252 
-6.68103 0.661346 1.94071 
-6.78074 0.660938 1.99645 
-6.90721 0.664092 2.03054 
-7.00966 0.667353 2.0511 
-7.13449 0.667267 2.11665 
-7.23864 0.674438 2.09909 
-7.36183 0.672098 2.1863 
-7.46955 0.685003 2.11338 
-7.58945 0.678476 2.24067 
-7.69031 0.680192 2.27585 
3.08486 1.36334 -9.70069 
1.20301 0.608618 -1.22897 
0.613658 0.436543 0.785445 
0.485904 0.398771 1.22682 
0.373565 0.384572 1.42588 
0.247878 0.328244 2.0507 
0.139807 0.327807 2.11074 
0.015481 0.360697 1.8478 
-0.0875272 0.329817 2.20793 
-0.217407 0.297187 2.59932 
-0.313924 0.28899 2.73057 
-0.450396 0.282635 2.86413 
-0.542742 0.257149 3.16514 
-0.676887 0.266529 3.14105 
-0.774686 0.247511 3.38058 
-1.00007 0.256974 3.40272 
-1.13094 0.279006 3.25114 
-1.23066 0.260071 3.49086 
-1.35188 0.262044 3.53377 
-1.4535 0.245656 3.74914 
-1.67971 0.256938 3.75366 
-2.02878 0.261612 3.8873 
-2.12887 0.279157 3.76449 
-2.261 0.288764 3.73714 
-2.36094 0.299083 3.68611 
-2.59028 0.321796 3.57863 
-2.72157 0.340768 3.45774 
-2.82789 0.367136 3.25042 
-2.95272 0.362311 3.36284 
-3.05787 0.377857 3.26254 
-3.17907 0.382437 3.27957 
-3.2901 0.409486 3.06791 
-3.41077 0.414246 3.08289 
-3.50347 0.377818 3.49301 
-3.64206 0.426808 3.0774 
-3.75813 0.474472 2.66335 
-3.89054 0.490452 2.57282 
-3.99552 0.516782 2.36521 
-4.12281 0.510722 2.49121 
-4.23513 0.558981 2.06932 
-4.36841 0.571702 2.01166 
-4.47203 0.585454 1.92843 
-4.60503 0.600901 1.84353 
-4.70971 0.610328 1.80385 
-4.8397 0.623866 1.73638 
-4.94772 0.648725 1.54497 
-5.06774 0.633332 1.76007 
-5.17439 0.643174 1.7173 
-5.2963 0.63646 1.84707 
-5.40207 0.646495 1.80193 
-5.53298 0.660062 1.73468 
-5.63464 0.664716 1.74093 
-5.76647 0.677646 1.68048 
-5.86679 0.681328 1.69571 
-5.98799 0.668631 1.88465 
-6.09224 0.677222 1.8531 
-6.21765 0.673205 1.9579 
-6.31773 0.671473 2.02687 
-6.45524 0.697805 1.83608 
-6.54346 0.67609 2.09767 
-6.68325 0.705025 1.88218 
-6.78263 0.7043 1.94079 
-6.89793 0.686873 2.17375 
-6.99955 0.687704 2.21805 
-7.11969 0.679599 2.36081 
-7.22174 0.682523 2.38452 
-7.3561 0.699292 2.28724 
-7.46599 0.716251 2.17541 
-7.59398 0.72627 2.14199 
-7.69996 0.739311 2.06712 
2.70533 1.32908 -8.76225 
0.959304 0.612272 -0.76107 
0.852082 0.567886 -0.266022 
0.618098 0.499548 0.53161 
0.254927 0.399099 1.71399 
0.142414 0.371664 2.04379 
0.0190313 0.419228 1.6358 
-0.0866569 0.352121 2.35532 
-0.216951 0.346318 2.47986 
-0.312052 0.322457 2.76531 
-0.446358 0.311527 2.94274 
-0.54403 0.286412 3.24195 
-0.67373 0.290068 3.27245 
-0.770327 0.274587 3.47561 
-0.903699 0.292903 3.3627 
-1.00068 0.295983 3.38209 
-1.12807 0.301583 3.39215 
-1.22655 0.292217 3.53568 
-1.34772 0.281175 3.70751 
-1.45888 0.304244 3.53607 
-1.57611 0.30314 3.60737 
-1.67861 0.296847 3.72252 
-1.80544 0.318027 3.57788 
-1.90324 0.311053 3.69737 
-2.02981 0.30899 3.783 
-2.12437 0.312635 3.79556 
-2.26144 0.334236 3.65203 
-2.35955 0.333016 3.71466 
-2.58528 0.348005 3.68235 
-2.72173 0.382142 3.41424 
-2.82387 0.397518 3.31444 
-2.95024 0.395521 3.39933 
-3.05499 0.410052 3.30926 
-3.17701 0.418008 3.29326 
-3.28796 0.436161 3.17047 
-3.37991 0.353903 4.03331 
-3.50716 0.427649 3.36782 
-3.64469 0.474399 2.97525 
-3.75953 0.511385 2.66777 
-3.87875 0.50399 2.80254 
-3.98964 0.54709 2.43242 
-4.12631 0.567533 2.30021 
-4.23184 0.585762 2.17388 
-4.36816 0.616052 1.94388 
-4.47463 0.628495 1.87541 
-4.59992 0.633016 1.89518 
-4.70934 0.656422 1.71956 
-4.83587 0.665219 1.69759 
-4.95095 0.694667 1.46499 
-5.06714 0.670223 1.76724 
-5.16976 0.67306 1.79203 
-5.29229 0.667481 1.91053 
-5.39094 0.665169 1.98433 
-5.52807 0.690737 1.80158 
-5.63698 0.714155 1.62559 
-5.75883 0.702989 1.79915 
-5.86592 0.716388 1.72155 
-5.98798 0.706912 1.87848 
-6.08417 0.700102 1.99562 
-6.21504 0.708414 1.98074 
-6.29909 0.678221 2.32346 
-6.45994 0.747582 1.71878 
-6.5511 0.731653 1.92376 
-6.67679 0.733939 1.96596 
-6.78465 0.750413 1.85829 
-6.9018 0.732178 2.09955 
-7.00647 0.74133 2.06284 
-7.12982 0.738666 2.15293 
-7.22708 0.735059 2.23891 
-7.37097 0.766197 2.00447 
-7.46103 0.750119 2.21038 
-7.59296 0.764691 2.13402 
-7.69206 0.765584 2.17634 
3.10337 1.46609 -9.91954 
1.45084 0.719954 -1.70075 
1.10128 0.701719 -1.3413 
0.852776 0.557696 0.209234 
0.722568 0.523048 0.618387 
0.612409 0.491988 0.981808 
0.487876 0.490879 1.05667 
0.376561 0.445791 1.55931 
0.252134 0.429324 1.78588 
0.145797 0.41408 1.9911 
0.018879 0.404635 2.14957 
-0.083759 0.386342 2.38302 
-0.213228 0.401186 2.30281 
-0.312826 0.351104 2.84882 
-0.44376 0.355961 2.86807 
-0.541987 0.332314 3.15217 
-0.672102 0.335237 3.19011 
-0.769534 0.333233 3.25995 
-0.902209 0.348198 3.18021 
-0.998408 0.346125 3.25011 
-1.12653 0.331972 3.45578 
-1.22594 0.335965 3.46739 
-1.3441 0.305057 3.83353 
-1.45456 0.331274 3.63121 
-1.57609 0.346768 3.54054 
-1.67866 0.333179 3.72753 
-1.7991 0.339487 3.72709 
-1.89901 0.333861 3.83403 
-2.02748 0.340714 3.83234 
-2.12319 0.351205 3.77786 
-2.2565 0.358954 3.7698 
-2.35643 0.372778 3.68456 
-2.58735 0.395772 3.57603 
-2.72479 0.42253 3.38226 
-2.81689 0.415473 3.49936 
-2.95049 0.442214 3.30379 
-3.05809 0.46382 3.1456 
-3.17652 0.463548 3.20919 
-3.28787 0.477733 3.12626 
-3.38618 0.415457 3.79226 
-3.51132 0.483534 3.18385 
-3.6451 0.520897 2.88341 
-3.75112 0.532976 2.81857 
-3.88688 0.568824 2.53413 
-3.99553 0.600671 2.27529 
-4.12761 0.610378 2.24729 
-4.23179 0.62808 2.12595 
-4.36694 0.651935 1.95972 
-4.4716 0.662924 1.90497 
-4.60331 0.691118 1.6941 
-4.70973 0.69628 1.69784 
-4.83195 0.699692 1.72701 
-4.94306 0.719611 1.58733 
-5.06168 0.701418 1.82817 
-5.16361 0.700323 1.89145 
-5.29405 0.716795 1.7958 
-5.39228 0.709445 1.919 
-5.52666 0.725902 1.82553 
-5.63048 0.740763 1.73209 
-5.75907 0.746906 1.73758 
-5.87072 0.771455 1.55244 
-5.98687 0.744568 1.87797 
-6.08558 0.744712 1.92738 
-6.30993 0.739416 2.09526 
-6.45614 0.780911 1.76042 
-6.55259 0.775181 1.86673 
-6.67936 0.780841 1.87609 
-6.78229 0.785726 1.88082 
-6.89826 0.765875 2.13677 
-6.99686 0.761976 2.22609 
-7.11636 0.755664 2.35005 
-7.23041 0.779868 2.16958 
-7.35332 0.776487 2.26633 
-7.46839 0.806304 2.0309 
-7.59692 0.812537 2.03552 
-7.68434 0.793292 2.2708 
2.97813 1.47113 -9.50284 
1.20791 0.724624 -1.24454 
0.855866 0.613936 0.0259833 
0.622309 0.573704 0.541866 
0.491874 0.531562 1.02379 
0.383352 0.49433 1.44612 
0.252743 0.477484 1.67896 
0.145338 0.441429 2.08914 
0.023181 0.457418 1.99422 
-0.0819029 0.425501 2.36246 
-0.211005 0.410534 2.57604 
-0.310428 0.377559 2.95182 
-0.443357 0.373744 3.05752 
-0.536894 0.378451 3.05909 
-0.670537 0.357711 3.33189 
-0.768679 0.36332 3.32694 
-0.89893 0.374989 3.27875 
-0.996353 0.380514 3.27427 
-1.1252 0.373322 3.41118 
-1.22415 0.36597 3.53433 
-1.34453 0.357972 3.67485 
-1.45224 0.37088 3.60292 
-1.67575 0.366885 3.75689 
-1.79932 0.379389 3.69708 
-1.89894 0.379924 3.7429 
-2.02212 0.370747 3.89649 
-2.12016 0.384645 3.80986 
-2.25213 0.393705 3.78831 
-2.35877 0.424663 3.53804 
-2.58834 0.44882 3.41782 
-2.71873 0.458218 3.39214 
-2.82 0.46582 3.3692 
-2.94694 0.474648 3.34738 
-3.05533 0.504077 3.11307 
-3.17704 0.506869 3.14802 
-3.287 0.528167 2.99463 
-3.39298 0.480872 3.51497 
-3.51263 0.533899 3.05396 
-3.64393 0.561559 2.84885 
-3.7527 0.591007 2.61457 
-3.8875 0.605553 2.54046 
-3.9867 0.617995 2.4688 
-4.12515 0.647191 2.25224 
-4.23305 0.674708 2.03654 
-4.37351 0.72027 1.65976 
-4.4688 0.701081 1.89774 
-4.5974 0.713117 1.8452 
-4.71896 0.751828 1.52622 
-4.83255 0.745854 1.64342 
-4.94022 0.749598 1.66183 
-5.06352 0.744631 1.7741 
-5.16338 0.739593 1.87503 
-5.38822 0.740529 1.98129 
-5.5225 0.76147 1.84396 
-5.62941 0.773578 1.77959 
-5.74717 0.76452 1.92934 
-5.85486 0.778926 1.84273 
-5.98194 0.775647 1.94034 
-6.07355 0.759173 2.14974 
-6.31075 0.783226 2.03464 
-6.44063 0.794765 1.9877 
-6.54943 0.810094 1.89258 
-6.66131 0.785593 2.19151 
-6.77069 0.803489 2.0714 
-6.90697 0.823757 1.94176 
-6.99522 0.800392 2.21735 
-7.12441 0.813824 2.15142 
-7.21759 0.799975 2.3358 
-7.36122 0.832204 2.09209 
-7.46148 0.833613 2.12976 
-7.5854 0.834392 2.18581 
-7.67718 0.819713 2.37767 
3.08322 1.47854 -9.22922 
0.621852 0.612822 0.528259 
0.491675 0.541913 1.29113 
0.385621 0.553956 1.22707 
0.256668 0.503001 1.79337 
0.14923 0.504518 1.8334 
0.021354 0.468407 2.2534 
-0.0812917 0.451276 2.47412 
-0.21166 0.451278 2.54076 
-0.306365 0.432742 2.77122 
-0.441412 0.428401 2.88292 
-0.53672 0.390974 3.29922 
-0.667648 0.387302 3.40225 
-0.765202 0.394919 3.37736 
-0.898726 0.42306 3.1693 
-0.995173 0.397512 3.46954 
-1.12279 0.401484 3.49583 
-1.22616 0.419173 3.375 
-1.34403 0.404302 3.58136 
-1.45007 0.405453 3.62432 
-1.67303 0.410597 3.68791 
-1.79742 0.41269 3.73102 
-1.89654 0.412965 3.77906 
-2.02036 0.40342 3.93618 
-2.11628 0.410042 3.92025 
-2.25065 0.426448 3.82792 
-2.35267 0.43711 3.77545 
-2.58315 0.460736 3.66142 
-2.71754 0.494973 3.39398 
-2.81688 0.495431 3.44036 
-2.94604 0.509223 3.37105 
-3.05399 0.535189 3.17131 
-3.17269 0.532658 3.25696 
-3.28353 0.55769 3.06788 
-3.40495 0.564185 3.06628 
-3.5112 0.5709 3.05475 
-3.63731 0.585129 2.97961 
-3.75278 0.62464 2.6507 
-3.88226 0.640818 2.55815 
