ply
format ascii 1.0
element vertex 1802
property float x
property float y
property float z
end_header
-0.873502 -2.27749 5.98254 
-0.997539 -2.27957 6.08233 
-1.09579 -2.28109 6.15985 
-1.21347 -2.28706 6.304 
-1.31742 -2.27121 6.17006 
-1.43613 -2.27657 6.30723 
-1.53779 -2.27381 6.33384 
-1.65364 -2.29141 6.62084 
-1.7488 -2.28831 6.63932 
-1.87142 -2.29671 6.81648 
-1.97336 -2.27421 6.599 
-2.09319 -2.28635 6.82088 
-2.19108 -2.27793 6.77522 
-2.31331 -2.28722 6.96321 
-2.40516 -2.28928 7.04365 
-2.52864 -2.29206 7.15186 
-2.61346 -2.31644 7.50415 
-2.74016 -2.2956 7.32209 
-2.83189 -2.30969 7.55127 
-2.95153 -2.29631 7.45729 
-3.05393 -2.29608 7.51569 
-3.16203 -2.29693 7.59081 
-3.27286 -2.28145 7.46556 
-3.4865 -2.27967 7.57123 
-3.60414 -2.28089 7.65682 
-3.70409 -2.26736 7.5491 
-3.82889 -2.25753 7.50217 
-3.94254 -2.21444 7.03686 
-4.05675 -2.23009 7.29888 
-4.16835 -2.19206 6.89509 
-4.39668 -2.16707 6.72243 
-4.50689 -2.19058 7.0794 
-4.6333 -2.13309 6.44355 
-4.76187 -2.11896 6.34568 
-5.00455 -2.06254 5.79274 
-5.21858 -2.07168 6.03396 
-6.55926 -1.48244 -0.455657 
-6.80833 -1.45496 -0.646546 
-6.94704 -1.43937 -0.756485 
-7.08517 -1.38509 -1.34547 
-7.20777 -1.39294 -1.17492 
-7.3568 -1.32543 -1.92124 
-7.47832 -1.33742 -1.7001 
-7.63482 -1.2635 -2.52121 
4.56435 -2.45717 5.40556 
4.32403 -2.48007 5.83047 
4.21601 -2.48854 5.99897 
4.09143 -2.48953 6.08522 
3.98979 -2.49332 6.19233 
3.865 -2.48757 6.19557 
3.76485 -2.48555 6.23017 
3.64495 -2.47523 6.17423 
3.54376 -2.47677 6.25334 
3.41746 -2.4788 6.35348 
3.31832 -2.48291 6.46307 
3.19641 -2.48308 6.53762 
3.1024 -2.46112 6.3228 
2.97882 -2.45953 6.37671 
2.88027 -2.45633 6.39589 
2.75836 -2.44591 6.33995 
2.66667 -2.43586 6.27056 
2.53923 -2.43002 6.27443 
2.44549 -2.41433 6.13677 
2.32016 -2.41018 6.16019 
2.23008 -2.38768 5.93639 
2.10575 -2.38357 5.95972 
2.01215 -2.37133 5.86455 
1.88996 -2.35942 5.79042 
1.79387 -2.34421 5.66015 
1.67792 -2.32646 5.51032 
1.57305 -2.3322 5.64347 
1.45302 -2.31406 5.49131 
1.35863 -2.29487 5.31094 
1.23562 -2.28846 5.30515 
1.13683 -2.27466 5.19387 
1.01077 -2.27693 5.2968 
0.913888 -2.26488 5.20601 
0.786776 -2.2691 5.33363 
0.692333 -2.24582 5.10291 
0.564333 -2.24775 5.20289 
0.468084 -2.24863 5.27106 
0.345617 -2.23378 5.16091 
0.245289 -2.23332 5.21498 
0.121675 -2.23772 5.34271 
0.0189618 -2.23246 5.33908 
-0.104586 -2.24062 5.51314 
-0.201467 -2.24241 5.59299 
-0.327964 -2.23701 5.60172 
-0.426947 -2.23186 5.59711 
-0.552485 -2.2341 5.6995 
-0.650517 -2.2426 5.86265 
-0.776057 -2.23666 5.86424 
-0.872268 -2.24883 6.07148 
-0.995832 -2.24222 6.06371 
-1.09369 -2.25075 6.22706 
-1.21407 -2.24942 6.2824 
-1.31681 -2.24053 6.23404 
-1.43171 -2.2562 6.49569 
-1.53497 -2.24293 6.39364 
-1.65297 -2.25202 6.57596 
-1.74791 -2.25433 6.66095 
-1.86718 -2.27035 6.92954 
-1.96732 -2.25008 6.73936 
-2.09315 -2.24376 6.73646 
-2.1905 -2.23851 6.72983 
-2.30891 -2.25989 7.06395 
-2.52316 -2.2669 7.27808 
-2.61453 -2.27139 7.38789 
-2.73956 -2.25773 7.2941 
-2.83295 -2.26592 7.45067 
-2.94433 -2.27404 7.61716 
-3.05392 -2.25059 7.39348 
-3.15493 -2.27851 7.79786 
-3.26782 -2.25401 7.56322 
-3.4866 -2.24088 7.53188 
-3.59996 -2.25061 7.7195 
-3.70958 -2.21785 7.38111 
-3.82439 -2.22531 7.54157 
-3.93419 -2.19287 7.20715 
-4.05268 -2.20039 7.37057 
-4.15929 -2.16913 7.04877 
-4.39247 -2.13795 6.8036 
-4.51408 -2.1404 6.90635 
-4.63173 -2.09746 6.44725 
-4.75948 -2.08435 6.36186 
-4.9987 -2.03554 5.90297 
-5.20868 -2.05149 6.22501 
-6.5531 -1.45177 -0.365494 
-6.80617 -1.41996 -0.606532 
-6.94708 -1.39756 -0.798562 
-7.08845 -1.33881 -1.43842 
-7.20112 -1.35981 -1.11231 
-7.32856 -1.32244 -1.49685 
-7.62372 -1.23641 -2.38121 
4.44639 -2.45395 5.87551 
4.32641 -2.44269 5.8083 
4.21195 -2.46081 6.09865 
4.09625 -2.45067 6.04267 
3.9903 -2.45962 6.2153 
3.86992 -2.44755 6.1385 
3.76409 -2.4548 6.29022 
3.64238 -2.44845 6.28439 
3.53972 -2.45674 6.44693 
3.41883 -2.44342 6.35507 
3.3178 -2.45411 6.54615 
3.20076 -2.43992 6.44144 
3.10797 -2.41456 6.18505 
2.98342 -2.41715 6.29066 
2.88247 -2.42034 6.38967 
2.76097 -2.40874 6.31939 
2.66635 -2.39559 6.21402 
2.53562 -2.41022 6.47111 
2.44832 -2.37582 6.10068 
2.3223 -2.37603 6.17795 
2.23091 -2.35494 5.97329 
2.10668 -2.34925 5.97709 
2.01386 -2.33582 5.86729 
1.89103 -2.33095 5.8803 
1.79677 -2.307 5.64223 
1.67335 -2.30875 5.73694 
1.57681 -2.28581 5.51257 
1.45398 -2.28347 5.55674 
1.36022 -2.25974 5.32105 
1.23636 -2.25358 5.31888 
1.13757 -2.24888 5.31977 
1.01415 -2.23686 5.24552 
0.914701 -2.23059 5.2275 
0.789502 -2.22596 5.24494 
0.694264 -2.21063 5.1133 
0.5657 -2.21386 5.22923 
0.469332 -2.20954 5.2334 
0.347149 -2.21008 5.31256 
0.245549 -2.20493 5.30963 
0.122697 -2.20878 5.42984 
0.0200492 -2.20876 5.49056 
-0.102106 -2.20352 5.49872 
-0.199434 -2.20662 5.59464 
-0.325144 -2.19692 5.55012 
-0.426566 -2.20555 5.71637 
-0.549665 -2.19265 5.63109 
-0.648958 -2.20494 5.84089 
-0.774474 -2.20367 5.89991 
-0.870415 -2.21575 6.10516 
-0.994054 -2.21087 6.11879 
-1.09162 -2.20744 6.13461 
-1.20891 -2.22461 6.41508 
-1.3141 -2.21018 6.30046 
-1.43426 -2.19903 6.23493 
-1.5308 -2.21798 6.52491 
-1.65216 -2.2125 6.52984 
-1.74523 -2.22093 6.68856 
-1.86724 -2.22929 6.86377 
-1.96205 -2.22334 6.84705 
-2.08993 -2.21953 6.87629 
-2.18538 -2.2136 6.86027 
-2.30711 -2.22627 7.08816 
-2.40381 -2.21124 6.96119 
-2.6169 -2.22727 7.28472 
-2.73166 -2.23656 7.46702 
-2.82981 -2.23477 7.50339 
-2.94351 -2.23696 7.59788 
-3.04414 -2.23537 7.63828 
-3.15995 -2.22694 7.60357 
-3.26748 -2.21639 7.53804 
-3.5975 -2.21863 7.76186 
-3.7014 -2.19512 7.53507 
-3.82446 -2.19004 7.54586 
-3.93491 -2.15229 7.14805 
-4.05116 -2.16297 7.34839 
-4.15767 -2.13242 7.03657 
-4.51779 -2.0933 6.77055 
-4.63207 -2.05826 6.40828 
-4.75682 -2.05118 6.39568 
-5.00209 -1.98705 5.75408 
-5.21428 -2.00335 6.08067 
-6.55776 -1.40556 -0.460544 
-6.67192 -1.41704 -0.251555 
-6.809 -1.37377 -0.701253 
-6.94479 -1.35875 -0.804805 
-7.0851 -1.30416 -1.3917 
-7.20204 -1.31748 -1.15848 
-7.35819 -1.23966 -2.02121 
-7.47304 -1.25801 -1.72744 
4.5616 -2.39517 5.52492 
4.45196 -2.41181 5.79308 
4.32707 -2.40958 5.83961 
4.21924 -2.41927 6.02186 
4.10082 -2.40853 5.96051 
3.99246 -2.4251 6.22719 
3.87171 -2.41229 6.14188 
3.76803 -2.41892 6.28418 
3.64723 -2.40575 6.19455 
3.42173 -2.40623 6.33375 
3.31649 -2.42505 6.6261 
3.20816 -2.38727 6.22811 
3.10419 -2.39352 6.36599 
2.98257 -2.39192 6.41835 
2.8901 -2.36645 6.16161 
2.76109 -2.37697 6.3665 
2.66482 -2.36996 6.33769 
2.54122 -2.36177 6.31066 
2.45051 -2.33681 6.05903 
2.32354 -2.34153 6.19181 
2.23419 -2.3157 5.92881 
2.10845 -2.31228 5.96136 
2.01965 -2.28688 5.70334 
1.8913 -2.30185 5.96235 
1.80182 -2.26371 5.54875 
1.67503 -2.27501 5.76203 
1.58064 -2.24228 5.41755 
1.45421 -2.25196 5.6108 
1.35917 -2.23522 5.46227 
1.23955 -2.21285 5.25948 
1.13967 -2.21093 5.29516 
1.0163 -2.20201 5.25906 
0.917424 -2.19095 5.18227 
0.790815 -2.1958 5.31654 
0.69642 -2.16847 5.03823 
0.566462 -2.1853 5.32095 
0.472235 -2.17419 5.24081 
0.348575 -2.17677 5.34562 
0.247328 -2.16769 5.29451 
0.125533 -2.16508 5.33474 
0.0223432 -2.16622 5.40977 
-0.0999928 -2.16539 5.4721 
-0.196536 -2.16279 5.49741 
-0.323894 -2.15942 5.53159 
-0.425548 -2.17467 5.77841 
-0.548628 -2.16718 5.75962 
-0.647221 -2.17854 5.95694 
-0.772881 -2.16666 5.88612 
-0.868399 -2.18356 6.14945 
-0.992366 -2.17203 6.0819 
-1.08999 -2.18194 6.26087 
-1.21022 -2.1771 6.27292 
-1.31155 -2.17525 6.31044 
-1.4295 -2.18233 6.46684 
-1.53068 -2.17547 6.44298 
-1.64945 -2.1822 6.59568 
-1.74717 -2.16889 6.49077 
-1.86752 -2.18805 6.79651 
-1.96614 -2.17211 6.65998 
-2.08822 -2.18229 6.85688 
-2.18602 -2.17314 6.80291 
-2.30798 -2.18178 6.98095 
-2.40038 -2.18007 7.01486 
-2.52183 -2.19317 7.24704 
-2.61257 -2.19685 7.34593 
-2.7309 -2.19911 7.44377 
-2.82743 -2.20093 7.52319 
-2.94044 -2.20291 7.61455 
-3.04735 -2.19101 7.53242 
-3.15897 -2.19051 7.59243 
-3.26776 -2.17611 7.48084 
-3.48021 -2.17612 7.60699 
-3.59391 -2.18723 7.81037 
-3.69823 -2.16246 7.56927 
-3.82215 -2.15398 7.53914 
-3.93633 -2.11045 7.07441 
-4.05209 -2.12146 7.27778 
-4.15757 -2.09454 7.01111 
-4.38884 -2.06703 6.81186 
-4.51008 -2.06892 6.907 
-4.62338 -2.03398 6.54676 
-4.75867 -2.01004 6.33421 
-4.99633 -1.96082 5.87322 
-6.68675 -1.35907 -0.484294 
-6.81571 -1.32507 -0.823633 
-6.95062 -1.31204 -0.902914 
-7.07995 -1.27203 -1.31557 
-7.19659 -1.28559 -1.08032 
-7.35971 -1.19638 -2.07482 
4.33402 -2.36379 5.71251 
4.22424 -2.38015 5.97657 
4.09891 -2.38094 6.05996 
3.99647 -2.3855 6.17589 
3.8706 -2.3813 6.19894 
3.7692 -2.38273 6.27618 
3.65246 -2.3641 6.11802 
3.54599 -2.37908 6.36321 
3.42083 -2.37359 6.37015 
3.31542 -2.39601 6.7055 
3.20765 -2.3596 6.32541 
3.11089 -2.34442 6.19754 
2.98618 -2.34977 6.33625 
2.8916 -2.3314 6.16831 
2.76384 -2.34057 6.35531 
2.66876 -2.33373 6.32813 
2.54485 -2.321 6.24613 
2.44952 -2.30796 6.14342 
2.32936 -2.29615 6.0705 
2.23642 -2.27788 5.90277 
2.11121 -2.27597 5.95328 
2.02153 -2.25123 5.70482 
1.89503 -2.25691 5.8486 
1.79847 -2.24088 5.7104 
1.67326 -2.25001 5.8955 
1.58068 -2.20753 5.43262 
1.45907 -2.20762 5.50538 
1.36362 -2.18902 5.33514 
1.24142 -2.18231 5.32548 
1.14441 -2.17955 5.34919 
1.01684 -2.16945 5.30141 
0.919036 -2.15542 5.18827 
0.790419 -2.16813 5.41896 
0.697301 -2.14067 5.13945 
0.569799 -2.137 5.17 
0.473761 -2.14163 5.28314 
0.349592 -2.14238 5.36557 
0.245077 -2.13347 5.31867 
0.127728 -2.12849 5.32728 
0.0239399 -2.13072 5.4158 
-0.0975331 -2.12589 5.42866 
-0.197475 -2.13942 5.65257 
-0.322454 -2.12719 5.57734 
-0.422097 -2.13734 5.75996 
-0.546099 -2.12157 5.64099 
-0.644735 -2.1363 5.87881 
-0.771936 -2.12791 5.85169 
-0.866795 -2.14467 6.11199 
-0.990931 -2.12475 5.94265 
-1.0892 -2.14532 6.25135 
-1.20919 -2.14176 6.27884 
-1.3102 -2.13965 6.31287 
-1.43079 -2.13176 6.28801 
-1.52654 -2.15048 6.57265 
-1.6472 -2.1482 6.61624 
-1.7412 -2.14844 6.6747 
-1.86641 -2.15398 6.8162 
-1.96143 -2.14779 6.79706 
-2.08734 -2.14408 6.82624 
-2.18303 -2.14334 6.87381 
-2.30509 -2.14421 6.95659 
-2.39901 -2.14367 7.0056 
-2.613 -2.15636 7.28681 
-2.72834 -2.16578 7.46984 
-2.82675 -2.16317 7.49624 
-2.9376 -2.16983 7.6429 
-3.04608 -2.14987 7.46386 
-3.15597 -2.15868 7.63631 
-3.26966 -2.13413 7.40438 
-3.48149 -2.13498 7.54017 
-3.59298 -2.14602 7.74062 
-3.70528 -2.11027 7.37147 
-3.82221 -2.11617 7.5126 
-3.93402 -2.07653 7.09569 
-4.05083 -2.08586 7.27858 
-4.15297 -2.06704 7.10968 
-4.26944 -2.08132 7.3527 
-4.38323 -2.03775 6.88901 
-4.51206 -2.02557 6.8169 
-4.626 -1.99169 6.47145 
-4.75235 -1.98106 6.41675 
-4.99434 -1.92686 5.89951 
-6.55237 -1.33048 -0.445547 
-6.68401 -1.32446 -0.440928 
-6.80446 -1.29936 -0.675445 
-6.9458 -1.27709 -0.863143 
-7.07928 -1.23143 -1.34054 
-7.21657 -1.21331 -1.48008 
-7.33882 -1.18682 -1.73038 
-7.45941 -1.19686 -1.53656 
-7.62617 -1.10948 -2.50274 
4.33513 -2.32979 5.73289 
4.22083 -2.35075 6.0545 
4.09828 -2.35104 6.13007 
3.99234 -2.36246 6.33095 
3.87629 -2.33898 6.11411 
3.77173 -2.34637 6.26528 
3.65146 -2.33455 6.19264 
3.54551 -2.3499 6.44118 
3.42428 -2.33471 6.32813 
3.32134 -2.34907 6.56291 
3.20159 -2.34901 6.63261 
3.10897 -2.32008 6.33602 
2.98681 -2.31779 6.38001 
2.88848 -2.31032 6.34725 
2.76796 -2.29744 6.26176 
2.67274 -2.29387 6.27449 
2.54572 -2.28839 6.28267 
2.45063 -2.27453 6.17041 
2.32951 -2.26256 6.09641 
2.23739 -2.24463 5.93298 
2.1119 -2.24247 5.98068 
2.02062 -2.22441 5.81513 
1.89712 -2.22122 5.84918 
1.80602 -2.19004 5.52438 
1.67546 -2.21156 5.86231 
1.58475 -2.17141 5.42851 
1.46 -2.17713 5.57134 
1.36621 -2.1502 5.29969 
1.24374 -2.14087 5.25855 
1.14518 -2.13429 5.23674 
1.01869 -2.13515 5.32157 
0.91967 -2.12604 5.26936 
0.791051 -2.13417 5.44374 
0.698444 -2.10664 5.16413 
0.572327 -2.10186 5.18037 
0.475403 -2.10287 5.24965 
0.35198 -2.1051 5.34942 
0.252601 -2.09334 5.26524 
0.12702 -2.10265 5.45227 
0.0255505 -2.09946 5.47322 
-0.0969688 -2.0896 5.4258 
-0.196314 -2.09599 5.56191 
-0.3196 -2.07808 5.4171 
-0.421714 -2.10963 5.8602 
-0.544686 -2.08767 5.66616 
-0.643924 -2.10505 5.93549 
-0.769327 -2.09178 5.84836 
-0.864835 -2.10127 6.01986 
-0.989016 -2.09718 6.04337 
-1.08639 -2.10426 6.18667 
-1.20698 -2.10283 6.2405 
-1.30755 -2.10948 6.38049 
-1.42608 -2.10951 6.45066 
-1.52569 -2.11116 6.52949 
-1.64764 -2.10421 6.51704 
-1.73984 -2.11362 6.6856 
-1.86546 -2.11127 6.73113 
-1.95767 -2.11813 6.86873 
-2.08396 -2.11529 6.90875 
-2.178 -2.11613 6.9744 
-2.30032 -2.12352 7.13626 
-2.39394 -2.11912 7.13812 
-2.51902 -2.11548 7.16768 
-2.60729 -2.13343 7.4377 
-2.72639 -2.13107 7.47935 
-2.82248 -2.13392 7.57055 
-2.93275 -2.14414 7.7597 
-3.04021 -2.1277 7.62357 
-3.14977 -2.1366 7.79625 
-3.25814 -2.11589 7.60883 
-3.58932 -2.11677 7.81493 
-3.69342 -2.09438 7.60466 
-3.82022 -2.08355 7.54802 
-3.92716 -2.05151 7.22222 
-4.04399 -2.0625 7.42464 
-4.15682 -2.02045 6.98073 
-4.51068 -1.99136 6.8366 
-4.62971 -1.94662 6.36371 
-4.75889 -1.93003 6.23857 
-6.5594 -1.28169 -0.568997 
-6.66048 -1.31462 -0.109485 
-6.80322 -1.25882 -0.702565 
-6.93212 -1.25566 -0.664766 
-7.07683 -1.19346 -1.33443 
-7.20453 -1.19226 -1.27358 
-7.34941 -1.13236 -1.91512 
-7.47641 -1.13414 -1.81848 
4.33587 -2.2959 5.7548 
4.2212 -2.31872 6.09786 
4.10646 -2.30284 5.97312 
4.00131 -2.31137 6.13789 
3.88484 -2.29146 5.96548 
3.76996 -2.31894 6.36505 
3.6552 -2.29591 6.15391 
3.54731 -2.31419 6.43821 
3.42414 -2.30794 6.43494 
3.32688 -2.30475 6.45335 
3.20799 -2.29841 6.44646 
3.11372 -2.27619 6.23312 
2.9893 -2.28144 6.36961 
2.89065 -2.27302 6.32568 
2.76877 -2.26466 6.29612 
2.67325 -2.25419 6.2255 
2.54925 -2.24886 6.23382 
2.4521 -2.2413 6.19941 
2.32628 -2.24006 6.25834 
2.23753 -2.21584 6.01753 
2.11013 -2.21725 6.10941 
2.02529 -2.17841 5.68956 
1.90056 -2.18008 5.78291 
1.81467 -2.13349 5.27007 
1.67527 -2.18054 5.92075 
1.58537 -2.14523 5.54656 
1.45937 -2.14744 5.6473 
1.36847 -2.11125 5.26316 
1.24167 -2.11942 5.43629 
1.14576 -2.08895 5.1242 
1.02112 -2.09693 5.29392 
0.921075 -2.09135 5.28523 
0.79612 -2.08222 5.24815 
0.700855 -2.0667 5.1165 
0.572753 -2.07214 5.25746 
0.477795 -2.06429 5.21835 
0.354042 -2.06797 5.33557 
0.254321 -2.06095 5.30924 
0.129528 -2.06237 5.39974 
0.027496 -2.0603 5.43465 
-0.0954601 -2.06231 5.53109 
-0.193559 -2.06341 5.60213 
-0.31937 -2.05505 5.5749 
-0.419211 -2.06389 5.74049 
-0.543361 -2.04689 5.60793 
-0.642042 -2.06712 5.91048 
-0.768032 -2.05557 5.84487 
-0.863482 -2.0671 6.04038 
-0.98699 -2.07138 6.16481 
-1.08487 -2.07933 6.31848 
-1.20717 -2.0691 6.26662 
-1.30803 -2.06914 6.32638 
-1.42588 -2.06743 6.37507 
-1.5252 -2.07023 6.4673 
-1.64394 -2.0742 6.58515 
-1.73387 -2.09769 6.92204 
-1.86317 -2.07932 6.77599 
-1.95804 -2.08077 6.84936 
-2.08251 -2.08326 6.95267 
-2.17505 -2.08197 6.99151 
-2.30325 -2.06687 6.88433 
-2.39535 -2.07429 7.02826 
-2.61161 -2.07868 7.20859 
-2.72541 -2.09411 7.46215 
-2.82141 -2.10077 7.59918 
-2.93511 -2.09731 7.62428 
-3.04174 -2.08546 7.54373 
-3.14772 -2.09958 7.77679 
-3.25141 -2.09097 7.73376 
-3.46717 -2.08601 7.80081 
-3.58722 -2.0822 7.82541 
-3.6921 -2.05823 7.59727 
-3.81716 -2.05155 7.59003 
-3.92477 -2.01818 7.24991 
-4.03955 -2.03263 7.49228 
-4.15165 -1.98927 7.03387 
-4.37969 -1.96706 6.89954 
-4.50936 -1.95383 6.81591 
-4.62313 -1.91841 6.4546 
-4.75641 -1.89585 6.26021 
-4.99325 -1.84908 5.83413 
-5.20784 -1.85675 6.05328 
-6.56966 -1.22831 -0.744962 
-6.67991 -1.24989 -0.419035 
-6.80751 -1.21046 -0.82071 
-6.93581 -1.21027 -0.747435 
-7.08002 -1.14534 -1.44772 
-7.194 -1.16753 -1.11217 
4.33894 -2.25778 5.72417 
4.22541 -2.27782 6.03182 
4.10478 -2.2726 6.03948 
3.99861 -2.2836 6.23409 
3.87967 -2.26783 6.11376 
3.77656 -2.27235 6.22842 
3.65152 -2.27216 6.2993 
3.55242 -2.26982 6.32908 
3.42685 -2.26504 6.34494 
3.32658 -2.27464 6.51923 
3.20729 -2.27057 6.54003 
3.1125 -2.24428 6.27879 
2.98964 -2.24861 6.40289 
2.89176 -2.24055 6.36305 
2.77047 -2.23148 6.32482 
2.67384 -2.21801 6.21907 
2.55049 -2.21386 6.24126 
2.46023 -2.1883 5.98621 
2.33596 -2.18445 6.01266 
2.24041 -2.17531 5.95848 
2.11406 -2.17556 6.03545 
2.02271 -2.15473 5.83802 
1.89842 -2.15923 5.96491 
1.81612 -2.09883 5.28557 
1.67739 -2.14355 5.90554 
1.58604 -2.10885 5.54105 
1.46114 -2.1094 5.62071 
1.37029 -2.07586 5.26994 
1.24629 -2.07174 5.293 
1.14623 -2.06393 5.25752 
1.02024 -2.07105 5.41697 
0.923017 -2.05468 5.27673 
0.79904 -2.04489 5.23143 
0.700916 -2.03966 5.22593 
0.575482 -2.03501 5.24336 
0.479005 -2.03385 5.28601 
0.355772 -2.03151 5.32998 
0.256886 -2.0156 5.19621 
0.131028 -2.02498 5.38298 
0.0307379 -2.02058 5.3888 
-0.0930582 -2.02298 5.49017 
-0.191793 -2.01772 5.48474 
-0.317689 -2.02218 5.61227 
-0.417647 -2.02552 5.71099 
-0.541126 -2.01146 5.6141 
-0.640371 -2.03338 5.93628 
-0.766821 -2.02002 5.8494 
-0.861959 -2.03771 6.11838 
-0.985527 -2.02367 6.02167 
-1.08328 -2.03742 6.24466 
-1.20504 -2.02764 6.19819 
-1.30891 -2.02818 6.26566 
-1.42506 -2.02518 6.29764 
-1.52065 -2.0472 6.61891 
-1.64539 -2.02984 6.48296 
-1.73202 -2.05869 6.88136 
-1.86107 -2.0437 6.77643 
-1.95625 -2.0468 6.86958 
-2.07911 -2.05055 6.98684 
-2.17504 -2.04376 6.96134 
-2.29769 -2.0543 7.16031 
-2.38898 -2.04923 7.15285 
-2.6045 -2.06151 7.42725 
-2.71921 -2.06941 7.58973 
-2.82033 -2.06773 7.62882 
-2.9381 -2.05238 7.51303 
-3.03817 -2.05524 7.60622 
-3.14615 -2.0654 7.79203 
-3.2576 -2.0408 7.56115 
-3.36437 -2.05778 7.8284 
-3.46979 -2.04219 7.70241 
-3.58479 -2.04885 7.8502 
-3.6933 -2.0178 7.53986 
-3.81521 -2.01611 7.59111 
-3.91898 -1.98986 7.33578 
-4.04051 -1.99251 7.43904 
-4.14837 -1.95827 7.08993 
-4.26231 -1.9792 7.40897 
-4.38016 -1.92589 6.83585 
-4.50387 -1.92603 6.91028 
-4.62456 -1.87694 6.38975 
-4.75185 -1.86893 6.368 
-6.67726 -1.21306 -0.402993 
-6.795 -1.1819 -0.709349 
-6.928 -1.17975 -0.656974 
-7.06242 -1.13345 -1.1359 
-7.20868 -1.10639 -1.37597 
4.33996 -2.22275 5.73198 
4.2281 -2.24268 6.03634 
4.11378 -2.22359 5.87401 
4.00496 -2.24089 6.14508 
3.8834 -2.2288 6.07091 
3.77424 -2.2429 6.30373 
3.66391 -2.21627 6.04858 
3.55458 -2.23394 6.32434 
3.43031 -2.22842 6.3307 
3.33108 -2.23447 6.46119 
3.21091 -2.23078 6.48698 
3.11722 -2.20351 6.21449 
2.99177 -2.21421 6.41605 
2.89638 -2.19515 6.24303 
2.77323 -2.18986 6.25142 
2.6745 -2.18491 6.24964 
2.55168 -2.17966 6.25834 
2.45586 -2.16843 6.17945 
2.33587 -2.1542 6.07873 
2.2415 -2.14265 5.9953 
2.11479 -2.14253 6.06781 
2.02563 -2.11643 5.8067 
1.90246 -2.11429 5.85296 
1.81272 -2.07794 5.46918 
1.68043 -2.10668 5.89127 
1.58803 -2.0668 5.46667 
1.45939 -2.08774 5.79311 
1.37025 -2.04793 5.36739 
1.24953 -2.02881 5.20844 
1.14937 -2.02912 5.27072 
1.02188 -2.03608 5.42874 
0.924525 -2.0193 5.28418 
0.79994 -2.01963 5.3609 
0.703575 -2.00387 5.22817 
0.57698 -1.99472 5.1923 
0.481284 -1.99017 5.19361 
0.35807 -1.99075 5.27256 
0.254854 -1.98481 5.26156 
0.132448 -1.98969 5.39163 
0.0319343 -1.98829 5.43366 
-0.0906412 -1.98127 5.42104 
-0.189272 -1.98979 5.58087 
-0.314517 -1.97337 5.45714 
-0.415031 -1.99666 5.7954 
-0.539636 -1.97823 5.64706 
-0.638124 -1.98889 5.83257 
-0.762774 -1.98402 5.84698 
-0.859527 -1.99459 6.03039 
-0.984066 -1.98572 5.99675 
-1.08075 -2.00675 6.30567 
-1.20214 -1.99319 6.21399 
-1.30622 -1.99317 6.27454 
-1.4224 -1.99384 6.35057 
-1.52046 -2.00491 6.54077 
-1.64207 -1.99858 6.53599 
-1.73147 -2.02042 6.85036 
-1.85658 -2.02028 6.92196 
-1.95103 -2.0193 6.96543 
-2.07994 -2.00643 6.88645 
-2.17329 -2.00935 6.97611 
-2.29629 -2.01592 7.12687 
-2.38173 -2.03694 7.42922 
-2.50976 -2.02494 7.36007 
-2.60139 -2.03005 7.47505 
-2.71847 -2.03207 7.56793 
-2.82174 -2.01789 7.45818 
-2.93273 -2.02456 7.60321 
-3.03697 -2.02028 7.6129 
-3.1472 -2.0232 7.71242 
-3.25791 -2.00251 7.52899 
-3.58278 -2.01632 7.88491 
-3.68721 -1.99052 7.63645 
-3.80957 -1.99156 7.72063 
-3.92274 -1.94459 7.22314 
-4.0401 -1.95459 7.41187 
-4.1529 -1.91006 6.94355 
-4.50227 -1.89045 6.91288 
-4.62665 -1.83449 6.31402 
-4.74497 -1.83931 6.44117 
-4.99493 -1.76422 5.68636 
-6.68147 -1.16613 -0.50441 
-6.80908 -1.11974 -0.986356 
-6.94552 -1.11607 -0.950448 
-7.07238 -1.07821 -1.33053 
-7.21043 -1.06131 -1.45251 
4.3445 -2.18171 5.666 
4.23193 -2.20108 5.96301 
4.11111 -2.19636 5.97689 
4.00771 -2.20423 6.13108 
3.8814 -2.19992 6.15311 
3.77553 -2.21193 6.35821 
3.65821 -2.19551 6.23016 
3.55749 -2.19521 6.28521 
3.43234 -2.19122 6.31031 
3.332 -2.19936 6.46605 
3.2115 -2.19732 6.51185 
3.11639 -2.17944 6.35343 
2.99181 -2.18001 6.43276 
2.89822 -2.15958 6.24302 
2.77326 -2.16166 6.34062 
2.67581 -2.15065 6.26576 
2.5536 -2.14377 6.25461 
2.46112 -2.12538 6.08861 
2.33457 -2.12801 6.19372 
2.24717 -2.09517 5.85199 
2.12304 -2.08897 5.85019 
2.03354 -2.0638 5.60139 
1.90366 -2.08147 5.8883 
1.81234 -2.04883 5.55129 
1.68304 -2.06871 5.86422 
1.58825 -2.02872 5.4414 
1.46343 -2.0482 5.74694 
1.37326 -2.00742 5.31193 
1.24801 -2.00668 5.37607 
1.15011 -1.99272 5.26625 
1.02419 -1.99799 5.40264 
0.926398 -1.98485 5.30247 
0.803327 -1.97677 5.27764 
0.705629 -1.96126 5.14917 
0.579666 -1.96067 5.21549 
0.482742 -1.95843 5.24513 
0.358835 -1.96439 5.38866 
0.256266 -1.95785 5.3702 
0.134218 -1.94995 5.34695 
0.0331953 -1.94423 5.33742 
-0.0887292 -1.9474 5.44647 
-0.190113 -1.96348 5.69773 
-0.313103 -1.94615 5.56226 
-0.412064 -1.96007 5.78647 
-0.537927 -1.94478 5.67696 
-0.636507 -1.94998 5.79671 
-0.761613 -1.94314 5.78787 
-0.858215 -1.96146 6.06325 
-0.981963 -1.95871 6.10249 
-1.08007 -1.96918 6.28492 
-1.19969 -1.95408 6.17423 
-1.30415 -1.9697 6.42184 
-1.41994 -1.96324 6.4122 
-1.51986 -1.96435 6.48376 
-1.63965 -1.96811 6.59858 
-1.73353 -1.97015 6.67785 
-1.85791 -1.97085 6.75872 
-1.95611 -1.96204 6.71069 
-2.07749 -1.97123 6.89147 
-2.17107 -1.97723 7.01786 
-2.29479 -1.97756 7.09395 
-2.38464 -1.98718 7.26145 
-2.50738 -1.99182 7.38856 
-2.60292 -1.98028 7.30635 
-2.72186 -1.9846 7.42747 
-2.81583 -1.99726 7.63371 
-2.93019 -1.99267 7.64562 
-3.03813 -1.98099 7.56901 
-3.14334 -1.98884 7.72436 
-3.25672 -1.96933 7.55732 
-3.46771 -1.96844 7.66987 
-3.58194 -1.97955 7.86946 
-3.68674 -1.95367 7.62126 
-3.80803 -1.95142 7.66519 
-3.92142 -1.90756 7.20696 
-4.03619 -1.92304 7.45915 
-4.14424 -1.88543 7.07251 
-4.37961 -1.84974 6.78329 
-4.49988 -1.85462 6.91194 
-4.74787 -1.79407 6.33283 
-6.53783 -1.14334 -0.402683 
-6.67364 -1.13297 -0.447279 
-6.81506 -1.07789 -1.0232 
-6.93606 -1.08959 -0.812526 
-7.06869 -1.04083 -1.31813 
-7.20653 -1.02556 -1.42019 
-7.35024 -0.96481 -2.06263 
-7.46326 -0.987804 -1.72154 
4.34534 -2.14922 5.70445 
4.23241 -2.16668 5.97792 
4.11306 -2.16119 5.98171 
4.00702 -2.17012 6.14965 
3.88314 -2.16462 6.15604 
3.7814 -2.16741 6.24826 
3.66131 -2.15548 6.17595 
3.55957 -2.15857 6.27174 
3.43456 -2.15332 6.28182 
3.32553 -2.18545 6.72771 
3.21245 -2.16491 6.54871 
3.12097 -2.13613 6.25905 
2.99395 -2.14466 6.43445 
2.89754 -2.13266 6.3475 
2.77593 -2.12114 6.28095 
2.67855 -2.11675 6.28513 
2.55613 -2.10651 6.23429 
2.46074 -2.09519 6.15491 
2.33878 -2.08297 6.08017 
2.24734 -2.06306 5.89618 
2.12029 -2.06516 5.99498 
2.0292 -2.0461 5.82083 
1.90192 -2.05721 6.02707 
1.80971 -2.02415 5.68694 
1.68864 -2.02192 5.73074 
1.5894 -1.99596 5.47921 
1.46424 -2.01233 5.74687 
1.37375 -1.97682 5.37654 
1.24631 -1.98236 5.51655 
1.15078 -1.95975 5.30269 
1.02608 -1.95815 5.35621 
0.925943 -1.95541 5.38173 
0.802721 -1.94411 5.31869 
0.707018 -1.92697 5.1702 
0.580351 -1.93815 5.37702 
0.485021 -1.92289 5.25066 
0.36163 -1.91925 5.27907 
0.259481 -1.92335 5.38731 
0.135571 -1.91798 5.3953 
0.034373 -1.91864 5.46204 
-0.0875719 -1.91546 5.4951 
-0.185758 -1.91445 5.5401 
-0.310811 -1.89496 5.38072 
-0.4119 -1.92325 5.77645 
-0.536025 -1.90721 5.65764 
-0.635248 -1.91783 5.84178 
-0.760316 -1.89792 5.67739 
-0.85733 -1.9282 6.09452 
-0.980214 -1.90816 5.92737 
-1.07863 -1.93192 6.26763 
-1.20001 -1.92404 6.24435 
-1.30027 -1.92958 6.36871 
-1.42121 -1.91423 6.25628 
-1.51369 -1.94883 6.7222 
-1.63853 -1.92751 6.54089 
-1.72498 -1.9595 6.97229 
-1.85635 -1.93826 6.79571 
-1.9477 -1.95089 6.9994 
-2.07331 -1.94361 6.98576 
-2.16762 -1.94442 7.05029 
-2.29246 -1.9474 7.15858 
-2.38437 -1.94709 7.20829 
-2.50265 -1.96405 7.47923 
-2.59963 -1.95584 7.43793 
-2.71672 -1.9574 7.52467 
-2.81496 -1.95716 7.57909 
-2.92831 -1.95753 7.64948 
-3.03232 -1.95178 7.64155 
-3.14423 -1.94826 7.6649 
-3.25012 -1.94404 7.67627 
-3.34857 -1.98181 8.18362 
-3.58188 -1.94181 7.84306 
-3.68637 -1.91509 7.5856 
-3.80686 -1.91388 7.64142 
-3.916 -1.87969 7.29772 
-4.03459 -1.89024 7.49246 
-4.13829 -1.85857 7.17559 
-4.25697 -1.87471 7.43705 
-4.49935 -1.81772 6.89945 
-4.62124 -1.76715 6.36796 
-4.74993 -1.75148 6.25633 
-4.99301 -1.68615 5.61975 
-6.53709 -1.10759 -0.372879 
-6.67388 -1.09259 -0.471807 
-6.80648 -1.04927 -0.910702 
-6.95289 -1.02332 -1.13448 
-7.0724 -0.99445 -1.40871 
-7.20472 -0.987252 -1.41729 
4.34614 -2.11396 5.70985 
4.23745 -2.12908 5.95206 
4.11389 -2.12816 6.0127 
4.0069 -2.1366 6.17469 
3.89171 -2.11718 6.01101 
3.78161 -2.13352 6.26857 
3.66154 -2.12047 6.18329 
3.55935 -2.12805 6.33231 
3.43325 -2.12805 6.40531 
3.32903 -2.14727 6.69381 
3.21463 -2.12662 6.51501 
3.12065 -2.10616 6.32659 
2.99669 -2.10635 6.40065 
2.9017 -2.08885 6.24805 
2.77945 -2.0812 6.22811 
2.68024 -2.07623 6.22649 
2.55839 -2.07125 6.23806 
2.46183 -2.05951 6.15462 
2.34093 -2.04785 6.08639 
2.24845 -2.0295 5.92221 
2.12458 -2.02224 5.90784 
2.03241 -2.00588 5.76705 
1.90253 -2.02496 6.06873 
1.81151 -1.99067 5.71458 
1.68298 -2.00754 5.98923 
1.58902 -1.97566 5.66541 
1.46861 -1.97076 5.67699 
1.37801 -1.92816 5.224 
1.25125 -1.93328 5.35833 
1.1544 -1.92178 5.27796 
1.02661 -1.92873 5.43455 
0.932555 -1.89698 5.1123 
0.804711 -1.90691 5.30415 
0.70962 -1.89197 5.18204 
0.582595 -1.88348 5.15497 
0.486688 -1.88807 5.26505 
0.362043 -1.88964 5.35587 
0.26222 -1.88277 5.33227 
0.138898 -1.88246 5.40015 
0.0366187 -1.87694 5.39391 
-0.0867012 -1.88332 5.54121 
-0.184089 -1.88533 5.62153 
-0.309581 -1.86864 5.4963 
-0.410078 -1.87953 5.68384 
-0.53353 -1.86244 5.55258 
-0.633013 -1.88212 5.84391 
-0.854958 -1.88996 6.06568 
-0.978972 -1.86736 5.8695 
-1.07656 -1.89389 6.24091 
-1.1951 -1.89363 6.30665 
-1.298 -1.89598 6.39422 
-1.42049 -1.87487 6.21481 
-1.51586 -1.8958 6.5186 
-1.72505 -1.91739 6.89623 
-1.85582 -1.89632 6.72215 
-1.94514 -1.91948 7.0489 
-2.07125 -1.90893 6.99686 
-2.16049 -1.92459 7.23458 
-2.2889 -1.91523 7.19807 
-2.38239 -1.91312 7.22727 
-2.59894 -1.91442 7.36854 
-2.71304 -1.9269 7.58285 
-2.81286 -1.92451 7.61255 
-2.92813 -1.92109 7.63896 
-3.03085 -1.91357 7.60939 
-3.1397 -1.92152 7.76696 
-3.24898 -1.90761 7.66533 
-3.58109 -1.90556 7.834 
-3.68298 -1.88278 7.62288 
-3.80615 -1.8801 7.66269 
-3.91869 -1.83563 7.2003 
-4.03061 -1.8564 7.51188 
-4.14152 -1.81425 7.07611 
-4.49525 -1.78626 6.94946 
-4.62003 -1.73046 6.35979 
-4.74686 -1.71936 6.30172 
-6.6721 -1.05667 -0.444484 
-6.79695 -1.02292 -0.772524 
-6.93417 -1.00985 -0.847798 
-7.08481 -0.933315 -1.66864 
-7.21197 -0.936412 -1.55791 
4.3498 -2.07508 5.67071 
4.23987 -2.0924 5.93892 
4.11504 -2.09351 6.02409 
4.0131 -2.09657 6.11905 
3.89196 -2.08444 6.04559 
3.78277 -2.09779 6.26643 
3.66523 -2.08264 6.15528 
3.56247 -2.09143 6.31851 
3.43609 -2.08637 6.33169 
3.33813 -2.09385 6.47671 
3.21493 -2.09741 6.58986 
3.12095 -2.07659 6.39805 
3.00003 -2.06455 6.32557 
2.90644 -2.0465 6.16622 
2.78025 -2.05051 6.28653 
2.68163 -2.04378 6.26399 
2.55927 -2.03647 6.24828 
2.46579 -2.01746 6.07757 
2.34036 -2.0178 6.15404 
2.24831 -2.00012 5.99824 
2.12481 -1.99275 5.98243 
2.03361 -1.97136 5.78232 
1.90861 -1.97608 5.91037 
1.81234 -1.96098 5.78746 
1.68901 -1.95966 5.84313 
1.59307 -1.93821 5.645 
1.46965 -1.93918 5.72782 
1.37754 -1.90431 5.36878 
1.25316 -1.90017 5.39171 
1.15584 -1.87724 5.17699 
1.03133 -1.8811 5.29454 
0.930291 -1.88341 5.38035 
0.804219 -1.88088 5.4233 
0.71118 -1.85421 5.16183 
0.582777 -1.86169 5.32452 
0.487345 -1.85659 5.3194 
0.365332 -1.84253 5.22377 
0.264596 -1.83777 5.22568 
0.14148 -1.84988 5.44014 
0.0375713 -1.85186 5.52357 
-0.0836797 -1.83807 5.43067 
-0.180643 -1.8345 5.44466 
-0.307209 -1.83001 5.46472 
-0.40665 -1.84849 5.74078 
-0.532033 -1.82064 5.48413 
-0.631352 -1.84377 5.81505 
-0.757726 -1.84394 5.8902 
-0.853439 -1.86182 6.15693 
-0.976905 -1.83977 5.96779 
-1.07536 -1.86563 6.33049 
-1.19385 -1.84479 6.15264 
-1.30082 -1.85244 6.30501 
-1.41856 -1.84715 6.31066 
-1.51313 -1.86485 6.57465 
-1.63449 -1.86138 6.60396 
-1.72433 -1.88088 6.88657 
-1.85195 -1.87187 6.85397 
-1.94502 -1.87727 6.97171 
-2.06771 -1.8821 7.09983 
-2.16465 -1.87351 7.05445 
-2.28677 -1.88013 7.20349 
-2.3789 -1.88596 7.32579 
-2.59585 -1.88495 7.43953 
-2.7133 -1.88688 7.53041 
-2.80967 -1.89205 7.64735 
-2.92215 -1.89431 7.73923 
-3.02715 -1.88425 7.68119 
-3.13789 -1.88996 7.8129 
-3.24584 -1.87521 7.70103 
-3.57392 -1.88151 7.96569 
-3.68311 -1.84391 7.5844 
-3.80426 -1.84491 7.66653 
-3.91194 -1.81137 7.33233 
-4.02567 -1.82978 7.61597 
-4.14188 -1.7773 7.0628 
-4.49578 -1.74745 6.91503 
-4.62207 -1.68888 6.29557 
-4.74668 -1.67757 6.23416 
-6.51881 -1.05283 -0.125908 
-6.66459 -1.0249 -0.371569 
-6.79256 -0.98846 -0.728253 
-6.94007 -0.957206 -1.01228 
-7.0792 -0.90178 -1.58701 
-7.2207 -0.880615 -1.75521 
4.35264 -2.03634 5.63396 
4.24367 -2.05414 5.90637 
4.11696 -2.05709 6.01403 
4.01081 -2.06891 6.21438 
3.88404 -2.06686 6.2633 
3.78382 -2.06363 6.28292 
3.67151 -2.04104 6.08163 
3.56424 -2.05542 6.31278 
3.43799 -2.05623 6.39504 
3.34292 -2.04985 6.37457 
3.21902 -2.04984 6.44582 
3.12735 -2.02295 6.18196 
3.00357 -2.02517 6.27944 
2.90301 -2.02524 6.33818 
2.78211 -2.01493 6.28643 
2.68457 -2.00866 6.26886 
2.55934 -2.00503 6.29822 
2.46754 -1.98328 6.09489 
2.34401 -1.97957 6.12243 
2.24896 -1.96647 6.02289 
2.12731 -1.95487 5.9564 
2.03453 -1.93898 5.82277 
1.90975 -1.94303 5.94236 
1.81161 -1.93076 5.8544 
1.69294 -1.918 5.77258 
1.59288 -1.90393 5.66454 
1.46616 -1.91841 5.90812 
1.37868 -1.8713 5.40365 
1.25436 -1.8659 5.41183 
1.15649 -1.85423 5.33077 
1.02874 -1.85701 5.43715 
0.934676 -1.8388 5.27693 
0.808837 -1.83358 5.28806 
0.712897 -1.81678 5.14545 
0.584477 -1.82348 5.29845 
0.488847 -1.81852 5.29525 
0.366114 -1.81809 5.36104 
0.265081 -1.80515 5.2669 
0.141142 -1.82353 5.55487 
0.0396232 -1.81167 5.47377 
-0.0821765 -1.80311 5.44322 
-0.1817 -1.8143 5.63243 
-0.305087 -1.79228 5.44428 
-0.406707 -1.81399 5.75869 
-0.529461 -1.78886 5.53354 
-0.629248 -1.80666 5.80082 
-0.851707 -1.82145 6.10337 
-0.975604 -1.80037 5.92659 
-1.07417 -1.82274 6.24705 
-1.19203 -1.81593 6.2349 
-1.29648 -1.81852 6.32575 
-1.41487 -1.81671 6.37282 
-1.51033 -1.83423 6.63428 
-1.72224 -1.85073 6.95113 
-1.85049 -1.83453 6.83428 
-1.94125 -1.84997 7.06864 
-2.06676 -1.8406 7.03072 
-2.1611 -1.843 7.11356 
-2.28218 -1.85594 7.33592 
-2.37624 -1.85372 7.3642 
-2.59254 -1.85445 7.4978 
-2.70778 -1.86074 7.63843 
-2.80951 -1.85159 7.5895 
-2.9226 -1.85193 7.65889 
-3.02752 -1.84501 7.63802 
-3.14165 -1.83977 7.64226 
-3.2474 -1.83262 7.61912 
-3.5775 -1.83246 7.80817 
-3.67382 -1.82344 7.75754 
-3.8003 -1.81423 7.72216 
-3.90757 -1.78207 7.40533 
-4.02835 -1.78429 7.50138 
-4.13893 -1.74338 7.08334 
-4.49284 -1.71347 6.9357 
-4.6183 -1.65675 6.33998 
-4.74555 -1.64132 6.23186 
-6.53955 -0.984155 -0.47291 
-6.67929 -0.963547 -0.634855 
-6.80772 -0.925319 -1.01094 
-6.93879 -0.917578 -1.02629 
-7.07933 -0.857834 -1.64888 
-7.2214 -0.837116 -1.81075 
4.35472 -2.00423 5.67581 
4.24237 -2.02398 5.97213 
4.12199 -2.01876 5.97999 
4.0129 -2.03266 6.20581 
3.89216 -2.01935 6.11889 
3.7884 -2.02456 6.23971 
3.67075 -2.00848 6.11855 
3.56108 -2.03255 6.46409 
3.44315 -2.00922 6.25807 
3.3429 -2.01737 6.41127 
3.22126 -2.01709 6.4779 
3.12268 -2.01004 6.45185 
3.00511 -1.99058 6.29104 
2.90397 -1.99347 6.38303 
2.78411 -1.97869 6.27857 
2.69014 -1.96658 6.19048 
2.56516 -1.95866 6.16932 
2.46644 -1.95348 6.16534 
2.34485 -1.94325 6.11513 
2.24734 -1.94256 6.16309 
2.12707 -1.92459 6.02144 
2.03576 -1.90609 5.85682 
1.91027 -1.90908 5.96407 
1.81238 -1.89682 5.87648 
1.6954 -1.87969 5.7427 
1.59382 -1.87368 5.73062 
1.46951 -1.87744 5.84624 
1.38045 -1.83515 5.40113 
1.25301 -1.83992 5.5304 
1.15871 -1.81395 5.27993 
1.03153 -1.82653 5.50069 
0.933494 -1.81284 5.39646 
0.809839 -1.8049 5.37446 
0.713666 -1.78974 5.25181 
0.587712 -1.77865 5.1942 
0.490484 -1.78267 5.2973 
0.368375 -1.77927 5.32766 
0.266695 -1.76611 5.23173 
0.0424452 -1.76364 5.33183 
-0.0807262 -1.77022 5.47992 
-0.179267 -1.77849 5.63373 
-0.304065 -1.75955 5.48328 
-0.404801 -1.77847 5.76329 
-0.527974 -1.75475 5.55583 
-0.626355 -1.7532 5.59431 
-0.849542 -1.7888 6.14062 
-0.973794 -1.76554 5.93916 
-1.07291 -1.78217 6.19148 
-1.1928 -1.76794 6.0935 
-1.29303 -1.79387 6.45557 
-1.41514 -1.77612 6.31759 
-1.50743 -1.80414 6.69965 
-1.62988 -1.79409 6.65218 
-1.72168 -1.81204 6.91583 
-1.84842 -1.80092 6.85827 
-1.93925 -1.81223 7.04339 
-2.06791 -1.80242 7.0024 
-2.15966 -1.80912 7.13391 
-2.28114 -1.80941 7.20739 
-2.37612 -1.80978 7.26641 
-2.49632 -1.82051 7.46172 
-2.59238 -1.81808 7.48856 
-2.70411 -1.83023 7.69552 
-2.80471 -1.82753 7.72182 
-2.91912 -1.82173 7.71971 
-3.02489 -1.81247 7.67203 
-3.13811 -1.80893 7.69577 
-3.24848 -1.79185 7.55897 
-3.45339 -1.8046 7.82679 
-3.57599 -1.79418 7.77526 
-3.67896 -1.77484 7.60764 
-3.79608 -1.78396 7.78228 
-3.91066 -1.73513 7.27518 
-4.0253 -1.75092 7.52667 
-4.13727 -1.70709 7.0767 
-4.37153 -1.67165 6.79588 
-4.49715 -1.66775 6.82259 
-4.74397 -1.60568 6.23638 
-6.54266 -0.937042 -0.574429 
-6.67907 -0.925488 -0.631316 
-6.79571 -0.902793 -0.830405 
-6.95355 -0.854397 -1.3074 
-7.07618 -0.820726 -1.63187 
4.35 -1.97904 5.80217 
4.24394 -1.98947 5.98488 
4.12002 -1.9884 6.04337 
4.01902 -1.98941 6.11302 
3.89185 -1.98814 6.17107 
3.78683 -1.99621 6.32561 
3.56608 -1.988 6.35611 
3.44377 -1.9744 6.26727 
3.34387 -1.9852 6.4507 
3.22474 -1.97758 6.42992 
3.12477 -1.97391 6.44436 
3.00744 -1.95424 6.28162 
2.90591 -1.95711 6.37337 
2.68807 -1.93281 6.21414 
2.56723 -1.92337 6.17307 
2.46807 -1.92085 6.20054 
2.34508 -1.90882 6.13033 
2.25286 -1.89576 6.0306 
2.12946 -1.88688 5.99757 
2.03879 -1.86504 5.79417 
1.91224 -1.87387 5.96997 
1.81361 -1.86198 5.88749 
1.69581 -1.84647 5.77378 
1.59867 -1.83001 5.63702 
1.47323 -1.8366 5.78607 
1.38331 -1.79529 5.35468 
1.25597 -1.8006 5.48974 
1.15724 -1.79219 5.4481 
1.03381 -1.78666 5.45428 
0.935905 -1.77384 5.36059 
0.812408 -1.7643 5.3199 
0.715735 -1.75246 5.23691 
0.587584 -1.75623 5.35459 
0.492728 -1.74468 5.27392 
0.369027 -1.74735 5.37615 
0.268998 -1.74027 5.35084 
0.144115 -1.75023 5.53893 
0.0431281 -1.74183 5.49881 
-0.0793808 -1.73423 5.48018 
-0.17636 -1.73018 5.48859 
-0.302946 -1.72935 5.55152 
-0.403673 -1.74522 5.79499 
-0.526917 -1.72586 5.63936 
-0.62577 -1.74089 5.87193 
-0.750395 -1.72462 5.75321 
-0.847381 -1.75081 6.11513 
-0.971889 -1.73246 5.9721 
-1.06896 -1.75974 6.34685 
-1.19138 -1.73272 6.10126 
-1.29212 -1.75431 6.41165 
-1.4115 -1.73642 6.27101 
-1.51137 -1.74264 6.40113 
-1.63044 -1.74674 6.51751 
-1.71945 -1.76975 6.83777 
-1.84794 -1.75717 6.76452 
-1.93595 -1.78167 7.10163 
-2.06344 -1.77285 7.0718 
-2.15396 -1.78244 7.23596 
-2.28062 -1.77524 7.22453 
-2.37234 -1.78015 7.33472 
-2.49659 -1.78138 7.42053 
-2.58535 -1.79658 7.6493 
-2.70635 -1.78549 7.58923 
-2.80456 -1.78639 7.65624 
-2.91575 -1.79027 7.76554 
-3.02297 -1.77695 7.67142 
-3.14026 -1.76602 7.61107 
-3.25079 -1.74498 7.42867 
-3.56649 -1.7751 7.96255 
-3.6749 -1.74409 7.66228 
-3.80013 -1.73857 7.66975 
-3.9074 -1.7029 7.31432 
-4.02141 -1.71907 7.56904 
-4.13253 -1.67873 7.1612 
-4.48537 -1.64963 7.02396 
-4.61488 -1.5836 6.3262 
-4.74377 -1.56804 6.21844 
-6.65533 -0.916344 -0.303137 
-6.79556 -0.858798 -0.895445 
-6.94196 -0.833217 -1.11033 
-7.21609 -0.764933 -1.75113 
6.01698 -1.49116 -0.416425 
4.36095 -1.92713 5.60748 
4.25076 -1.94341 5.8601 
4.12574 -1.94437 5.94277 
4.0195 -1.95579 6.13648 
3.89951 -1.94177 6.04168 
3.79005 -1.95716 6.28359 
3.67491 -1.93837 6.13046 
3.57096 -1.94594 6.27811 
3.4432 -1.94697 6.36313 
3.34582 -1.94974 6.45114 
3.2293 -1.93173 6.30796 
3.13076 -1.92559 6.29275 
3.00646 -1.92532 6.36067 
2.9105 -1.91168 6.2566 
2.78894 -1.90236 6.21754 
2.68975 -1.89753 6.21805 
2.56815 -1.88874 6.1852 
2.46938 -1.88516 6.20003 
2.34687 -1.87789 6.18538 
2.2593 -1.84665 5.87156 
2.13027 -1.85365 6.02697 
2.03759 -1.83851 5.90363 
1.9135 -1.83753 5.96322 
1.81734 -1.81982 5.81191 
1.69461 -1.81931 5.87615 
1.60145 -1.79067 5.59577 
1.47908 -1.7865 5.61725 
1.38619 -1.75392 5.29087 
1.25551 -1.77337 5.59224 
1.16135 -1.74988 5.37246 
0.938976 -1.73233 5.29537 
0.811473 -1.73728 5.42601 
0.717664 -1.71448 5.21412 
0.589917 -1.71624 5.30772 
0.494652 -1.70732 5.25836 
0.371438 -1.70373 5.28709 
0.270375 -1.70536 5.36396 
0.0469736 -1.7002 5.43172 
-0.0774062 -1.69737 5.47003 
-0.175405 -1.70358 5.59856 
-0.299867 -1.67949 5.38914 
-0.400836 -1.70155 5.70403 
-0.524082 -1.67661 5.48406 
-0.623842 -1.70199 5.83691 
-0.748662 -1.68769 5.74179 
-0.845786 -1.71022 6.05992 
-0.970536 -1.68835 5.87658 
-1.06799 -1.71457 6.23793 
-1.18805 -1.70271 6.16861 
-1.29332 -1.70812 6.29192 
-1.40917 -1.69189 6.16932 
-1.50526 -1.72733 6.63729 
-1.62896 -1.71108 6.51888 
-1.71603 -1.74195 6.92843 
-1.84446 -1.73066 6.87051 
-1.93642 -1.74321 7.06949 
-2.06091 -1.73865 7.08774 
-2.15573 -1.73798 7.13437 
-2.27596 -1.75261 7.37372 
-2.37156 -1.746 7.35158 
-2.4983 -1.7371 7.32054 
-2.58647 -1.75472 7.57638 
-2.70476 -1.74998 7.58901 
-2.80339 -1.74975 7.64295 
-2.91749 -1.74618 7.66688 
-3.0218 -1.73915 7.64478 
-3.12948 -1.74939 7.82582 
-3.25009 -1.70761 7.40825 
-3.33875 -1.76776 8.16005 
-3.44929 -1.73559 7.84864 
-3.57112 -1.72545 7.80035 
-3.6688 -1.7175 7.76383 
-3.79618 -1.70444 7.68478 
-3.89898 -1.68073 7.46745 
-4.02437 -1.67677 7.49327 
-4.1325 -1.63779 7.10116 
-4.24662 -1.66213 7.45025 
-4.36608 -1.60677 6.87378 
-4.49379 -1.59585 6.81987 
-4.74338 -1.5261 6.15036 
-6.29517 -0.88564 -0.421831 
-6.53699 -0.865794 -0.514209 
-6.66238 -0.865971 -0.440121 
-6.80785 -0.801808 -1.10429 
-6.956 -0.77035 -1.38578 
-7.21705 -0.721905 -1.80036 
4.37106 -1.8787 5.45508 
4.24821 -1.91617 5.95999 
4.1268 -1.91046 5.96284 
4.02069 -1.92276 6.16619 
3.90271 -1.90353 6.01026 
3.79394 -1.91671 6.22515 
3.67534 -1.90504 6.15738 
3.57225 -1.91141 6.29012 
3.44568 -1.90826 6.32573 
3.34616 -1.91945 6.5124 
3.2283 -1.90583 6.42154 
3.12692 -1.90119 6.42543 
3.01003 -1.88263 6.2767 
2.91372 -1.87241 6.21306 
2.79054 -1.86731 6.22409 
2.69314 -1.85961 6.19028 
2.56794 -1.86027 6.2694 
2.47052 -1.85213 6.23057 
2.35296 -1.829 6.02909 
2.26028 -1.81325 5.89922 
2.12964 -1.82493 6.10928 
2.04195 -1.79732 5.83888 
1.91331 -1.81388 6.10451 
1.82094 -1.77983 5.76209 
1.69615 -1.78844 5.93322 
1.60143 -1.75743 5.62736 
1.47616 -1.76736 5.81412 
1.38407 -1.73449 5.48509 
1.25659 -1.74222 5.64766 
1.16394 -1.70673 5.28866 
0.942664 -1.69329 5.25898 
0.813639 -1.70501 5.4687 
0.718539 -1.68233 5.25968 
0.590902 -1.68669 5.38321 
0.497281 -1.6679 5.21855 
0.373846 -1.67078 5.32249 
0.273708 -1.66312 5.2908 
0.0475736 -1.66546 5.44718 
-0.0753743 -1.66119 5.46777 
-0.1735 -1.66439 5.56101 
-0.298198 -1.64916 5.45544 
-0.399098 -1.66648 5.71422 
-0.522491 -1.64973 5.59024 
-0.622497 -1.66631 5.8399 
-0.747205 -1.64591 5.67436 
-0.844083 -1.67239 6.03716 
-0.968455 -1.65696 5.92914 
-1.06671 -1.68034 6.25664 
-1.1864 -1.66063 6.09631 
-1.28919 -1.66651 6.22335 
-1.4087 -1.64539 6.04651 
-1.50324 -1.69321 6.65565 
-1.62377 -1.69075 6.69599 
-1.7156 -1.70475 6.9111 
-1.84319 -1.69455 6.86571 
-1.93343 -1.71039 7.10112 
-2.05724 -1.71085 7.17732 
-2.15083 -1.7133 7.25931 
-2.27901 -1.70307 7.21388 
-2.36809 -1.72001 7.46144 
-2.49046 -1.71416 7.46361 
-2.58599 -1.7114 7.48624 
-2.70372 -1.71309 7.57315 
-2.80377 -1.70755 7.56613 
-2.90878 -1.72811 7.86494 
-3.02344 -1.69998 7.60396 
-3.12713 -1.7162 7.85167 
-3.24415 -1.68267 7.52938 
-3.56357 -1.7045 7.96563 
-3.67304 -1.67046 7.63315 
-3.79151 -1.67475 7.75073 
-3.90038 -1.63925 7.40089 
-4.02019 -1.64535 7.54038 
-4.12725 -1.60944 7.18476 
-4.49084 -1.56249 6.8479 
-4.61132 -1.51362 6.34944 
-6.27915 -0.867088 -0.201837 
-6.40486 -0.866382 -0.138016 
-6.54554 -0.811838 -0.690723 
-6.66469 -0.821918 -0.505414 
-6.78374 -0.79802 -0.714683 
-6.93831 -0.756842 -1.10424 
-7.06195 -0.72048 -1.45558 
5.26365 -1.49441 0.918267 
4.36443 -1.858 5.63397 
4.25007 -1.87799 5.93015 
4.13322 -1.86714 5.87104 
4.02759 -1.87628 6.03688 
3.89863 -1.88031 6.15686 
3.79989 -1.87536 6.15576 
3.67748 -1.86698 6.12841 
3.57347 -1.8781 6.31614 
3.44972 -1.86984 6.29104 
3.34784 -1.88347 6.50665 
3.22782 -1.8759 6.48744 
3.13332 -1.85951 6.3516 
3.00894 -1.86215 6.45296 
2.91205 -1.84688 6.33145 
2.78867 -1.84302 6.35702 
2.6965 -1.82228 6.1696 
2.56954 -1.82459 6.26859 
2.47398 -1.81206 6.17807 
2.35036 -1.80429 6.15863 
2.25729 -1.79224 6.07222 
2.13451 -1.77797 5.97706 
2.04379 -1.75961 5.81645 
1.92044 -1.75708 5.8574 
1.8198 -1.75011 5.83402 
1.69764 -1.75595 5.97111 
1.60364 -1.72165 5.62794 
1.47992 -1.72559 5.74406 
1.38731 -1.693 5.41987 
1.26152 -1.69059 5.46365 
1.1646 -1.67534 5.34241 
0.94161 -1.66698 5.37274 
0.816446 -1.67159 5.49737 
0.719367 -1.65235 5.3301 
0.593089 -1.64707 5.34099 
0.498721 -1.63048 5.20286 
0.375307 -1.63863 5.36751 
0.274871 -1.62846 5.30708 
0.0488849 -1.62797 5.43023 
-0.0737874 -1.62393 5.45344 
-0.171988 -1.63452 5.63184 
-0.297682 -1.62153 5.55325 
-0.39779 -1.63112 5.72128 
-0.519627 -1.60178 5.45132 
-0.62053 -1.61946 5.71336 
-0.745544 -1.61078 5.68428 
-0.842404 -1.63135 5.97741 
-0.966912 -1.61516 5.8611 
-1.06342 -1.63862 6.18744 
-1.18568 -1.61995 6.04131 
-1.28633 -1.64258 6.3604 
-1.40763 -1.61517 6.1126 
-1.5016 -1.65738 6.65444 
-1.62721 -1.63324 6.44681 
-1.71223 -1.67529 6.98171 
-1.84301 -1.6528 6.79625 
-1.93108 -1.67478 7.10073 
-2.05576 -1.67746 7.20279 
-2.15257 -1.66941 7.16491 
-2.27775 -1.6693 7.2351 
-2.36622 -1.68294 7.44338 
-2.58492 -1.67656 7.49438 
-2.70304 -1.67533 7.54765 
-2.80114 -1.67527 7.60291 
-2.91597 -1.67347 7.64765 
-3.01602 -1.67614 7.73567 
-3.12982 -1.6722 7.75502 
-3.24153 -1.64814 7.54049 
-3.44693 -1.663 7.82968 
-3.5651 -1.66595 7.9314 
-3.6665 -1.6448 7.7446 
-3.79116 -1.63682 7.72344 
-3.89934 -1.60274 7.39103 
-4.01975 -1.60865 7.52819 
-4.1301 -1.56495 7.08565 
-4.24065 -1.59513 7.49794 
-4.361 -1.53423 6.86222 
-4.48679 -1.52975 6.8823 
-4.73877 -1.45735 6.18865 
-6.27533 -0.832449 -0.162569 
-6.51551 -0.81141 -0.268705 
-6.65838 -0.790229 -0.432081 
-6.79787 -0.734927 -0.992153 
-6.93581 -0.718978 -1.09782 
4.36715 -1.81762 5.57951 
4.26161 -1.82825 5.76178 
4.13405 -1.83249 5.883 
4.03359 -1.83039 5.91586 
3.90746 -1.83145 5.99962 
3.79849 -1.84448 6.21159 
3.67614 -1.83526 6.17474 
3.57579 -1.84013 6.28777 
3.45404 -1.82871 6.2253 
3.35255 -1.83764 6.38581 
3.23236 -1.83147 6.38293 
3.13412 -1.82349 6.34678 
3.01637 -1.80674 6.22057 
2.91748 -1.8015 6.21627 
2.79001 -1.8082 6.36587 
2.69365 -1.80236 6.35323 
2.57432 -1.78165 6.18234 
2.47301 -1.78401 6.26713 
2.35424 -1.76411 6.1052 
2.26141 -1.74852 5.97828 
2.13523 -1.74801 6.04402 
2.0399 -1.73841 5.98762 
1.91745 -1.73803 6.05269 
1.81869 -1.72325 5.93856 
1.69924 -1.71804 5.94638 
1.60232 -1.69586 5.74583 
1.482 -1.686 5.70053 
1.38794 -1.66087 5.46442 
1.26255 -1.65815 5.50425 
1.1661 -1.64456 5.40249 
1.03953 -1.64752 5.50843 
0.943702 -1.6299 5.35987 
0.817465 -1.62759 5.405 
0.721237 -1.61729 5.341 
0.595758 -1.61019 5.33051 
0.50025 -1.6013 5.28229 
0.375659 -1.611 5.46488 
0.27638 -1.59577 5.34581 
0.153841 -1.59446 5.40041 
0.0502935 -1.59685 5.48678 
-0.0700361 -1.58478 5.41607 
-0.171006 -1.6015 5.66623 
-0.294627 -1.57544 5.43614 
-0.396955 -1.59017 5.66408 
-0.519713 -1.57851 5.59947 
-0.618896 -1.5949 5.84484 
-0.743178 -1.57591 5.6966 
-0.840292 -1.58688 5.87834 
-0.965489 -1.57307 5.79041 
-1.06207 -1.6097 6.26745 
-1.18271 -1.59608 6.17909 
-1.28791 -1.60897 6.38758 
-1.40648 -1.57056 6.01236 
-1.50067 -1.61815 6.61441 
-1.62397 -1.60513 6.53453 
-1.71206 -1.63222 6.89682 
-1.84165 -1.61554 6.7784 
-1.93564 -1.62486 6.93924 
-2.0574 -1.63364 7.10977 
-2.14853 -1.64025 7.23779 
-2.27508 -1.63755 7.2788 
-2.4905 -1.6376 7.40194 
-2.58121 -1.64967 7.59271 
-2.69907 -1.64569 7.61392 
-2.79909 -1.63774 7.57926 
-2.91039 -1.64668 7.74569 
-3.13169 -1.63455 7.73201 
-3.23643 -1.61965 7.61989 
-3.33518 -1.66138 8.15709 
-3.44505 -1.62796 7.8345 
-3.56567 -1.62404 7.85799 
-3.66391 -1.61131 7.76732 
-3.79024 -1.604 7.75505 
-3.89637 -1.56946 7.41738 
-4.02075 -1.56644 7.4534 
-4.12713 -1.53428 7.14334 
-4.24938 -1.53554 7.22757 
-4.37232 -1.47686 6.62118 
-4.49453 -1.47649 6.68661 
-4.74286 -1.40529 6.00748 
-6.28649 -0.775642 -0.370558 
-6.5202 -0.763665 -0.375376 
-6.66891 -0.736625 -0.602294 
-6.80217 -0.685749 -1.11277 
5.53289 -1.37321 0.229116 
5.26931 -1.41494 0.857283 
4.38431 -1.75216 5.22935 
4.25489 -1.8078 5.9414 
4.13359 -1.80146 5.93718 
4.02955 -1.8075 6.06542 
3.90769 -1.7978 6.02304 
3.79963 -1.81122 6.23825 
3.68104 -1.79638 6.13505 
3.57301 -1.81699 6.43275 
3.45025 -1.80557 6.37113 
3.35524 -1.79946 6.35474 
3.23728 -1.78924 6.30426 
3.13486 -1.7852 6.31586 
3.01595 -1.77518 6.2681 
2.9171 -1.77122 6.2786 
2.79412 -1.76558 6.28349 
2.69979 -1.75694 6.23769 
2.5729 -1.75347 6.26982 
2.47822 -1.7422 6.19403 
2.35726 -1.72671 6.08467 
2.2613 -1.7179 6.0379 
2.13567 -1.71731 6.10225 
2.0447 -1.69665 5.91653 
1.91964 -1.70289 6.05909 
1.82228 -1.6847 5.9054 
1.70015 -1.68244 5.94865 
1.60159 -1.67223 5.88728 
1.47975 -1.66191 5.83779 
1.39056 -1.62323 5.44418 
1.26558 -1.61963 5.4737 
1.16928 -1.59959 5.29816 
1.041 -1.60982 5.48834 
0.945463 -1.59139 5.33086 
0.818604 -1.59699 5.46707 
0.723524 -1.58112 5.33881 
0.596959 -1.58175 5.4178 
0.501938 -1.56499 5.27921 
0.378138 -1.56979 5.40447 
0.277591 -1.56207 5.37288 
0.0520402 -1.56033 5.4808 
-0.0693421 -1.55019 5.43318 
-0.167317 -1.54877 5.4724 
-0.293524 -1.54481 5.4986 
-0.394056 -1.55266 5.64572 
-0.517367 -1.53464 5.50875 
-0.616643 -1.54308 5.662 
-0.838718 -1.5552 5.92711 
-0.963723 -1.53992 5.82266 
-1.06011 -1.56555 6.1716 
-1.18313 -1.55673 6.14021 
-1.28443 -1.57234 6.37697 
-1.40342 -1.54879 6.17399 
-1.49854 -1.58458 6.63897 
-1.62461 -1.55717 6.39581 
-1.71586 -1.58039 6.71423 
-1.83766 -1.5885 6.87655 
-1.92763 -1.60595 7.12799 
-2.0588 -1.58528 6.96514 
-2.14243 -1.61132 7.31163 
-2.27383 -1.59217 7.16633 
-2.36439 -1.60143 7.3241 
-2.4933 -1.5904 7.27066 
-2.58261 -1.60291 7.46503 
-2.69704 -1.61121 7.62535 
-2.79927 -1.60149 7.57178 
-2.90775 -1.61342 7.77044 
-3.01252 -1.60148 7.6929 
-3.12845 -1.60245 7.76984 
-3.22881 -1.59991 7.79773 
-3.33365 -1.62745 8.17365 
-3.56321 -1.59103 7.88574 
-3.66912 -1.56221 7.615 
-3.78447 -1.57346 7.80975 
-3.89453 -1.53523 7.43322 
-4.01369 -1.54229 7.58209 
-4.12534 -1.49909 7.14937 
-4.2367 -1.52549 7.51591 
-4.48728 -1.45176 6.81154 
-4.74184 -1.36776 5.99151 
-6.28495 -0.73758 -0.368945 
-6.53902 -0.694024 -0.724718 
-6.6676 -0.700637 -0.575628 
-6.80898 -0.635924 -1.23849 
5.259 -1.39429 1.05282 
4.99776 -1.44212 1.74734 
4.26238 -1.7635 5.83873 
4.1375 -1.76165 5.88805 
4.0321 -1.77284 6.07561 
3.90973 -1.76305 6.03272 
3.79845 -1.78023 6.2921 
3.68288 -1.76114 6.13893 
3.57701 -1.77504 6.35776 
3.45303 -1.76467 6.30909 
3.35431 -1.7719 6.44757 
3.23797 -1.7562 6.33363 
3.13894 -1.74611 6.27413 
3.01925 -1.73502 6.21491 
2.91883 -1.73591 6.28184 
2.69913 -1.72388 6.26836 
2.57429 -1.71928 6.2862 
2.47993 -1.70499 6.17603 
2.35667 -1.69776 6.16299 
2.26388 -1.68133 6.02744 
2.13816 -1.67926 6.07478 
2.04971 -1.65203 5.81328 
1.82751 -1.63865 5.78571 
1.70325 -1.64335 5.90981 
1.60484 -1.62768 5.78606 
1.48414 -1.61816 5.74543 
1.39114 -1.59209 5.49971 
1.2639 -1.59692 5.62696 
1.17081 -1.5771 5.45284 
1.04412 -1.57352 5.48351 
0.947243 -1.5521 5.29317 
0.819686 -1.5617 5.4751 
0.724497 -1.54637 5.35359 
0.599618 -1.54066 5.35883 
0.503482 -1.53382 5.33499 
0.380801 -1.53022 5.36323 
0.279048 -1.52503 5.36133 
0.0539687 -1.52485 5.48658 
-0.0664784 -1.50728 5.35378 
-0.164973 -1.51629 5.51256 
-0.292706 -1.51819 5.6066 
-0.39141 -1.51457 5.62096 
-0.515224 -1.49933 5.51667 
