ply
format ascii 1.0
element vertex 1793
property float x
property float y
property float z
end_header
-1.41893 -9.34467 6.75659 
-1.54003 -9.33694 6.58841 
-1.63476 -9.33966 6.91198 
-1.75667 -9.33348 6.82584 
-1.84879 -9.33562 7.11388 
-1.96936 -9.33174 7.1446 
-2.0571 -9.33476 7.47051 
-2.1846 -9.33069 7.50433 
-2.27186 -9.33058 7.66664 
-2.39615 -9.32603 7.66956 
-2.48587 -9.32621 7.85176 
-2.61219 -9.32001 7.77322 
-2.70746 -9.31712 7.80647 
-2.9189 -9.31493 8.09995 
-3.03948 -9.30764 7.9537 
-3.13781 -9.30623 8.06992 
-3.25888 -9.29976 7.96657 
-3.34769 -9.30185 8.24652 
-3.47242 -9.29266 8.00961 
-3.57273 -9.28797 7.95925 
-3.78889 -9.27914 7.91692 
-3.9121 -9.27482 7.92969 
-4.00546 -9.27088 7.90527 
-4.13843 -9.26022 7.60782 
-4.23433 -9.25587 7.5667 
-4.37384 -9.24467 7.2538 
-4.47328 -9.23829 7.11356 
-6.23305 -9.057 1.08797 
-6.33347 -9.05326 1.08701 
-6.47279 -9.0449 0.921497 
-6.56134 -9.04655 1.1777 
-6.69416 -9.0401 1.09912 
-6.8117 -9.03128 0.867385 
-6.93139 -9.02883 0.970961 
-7.05491 -9.01855 0.674975 
-7.17157 -9.01706 0.822611 
-7.28498 -9.01055 0.703131 
-7.41789 -9.00375 0.606353 
-7.51446 -9.00284 0.745377 
-7.64961 -8.99498 0.597805 
-7.77228 -8.98507 0.319458 
-7.90534 -8.97999 0.312275 
-8.00717 -8.97554 0.277405 
-8.15796 -8.96495 0.0181686 
-8.2568 -8.96186 0.0481762 
-8.39239 -8.9564 0.0261544 
4.18183 -9.49815 5.79723 
3.96035 -9.49112 5.85658 
3.86001 -9.48917 5.9466 
3.73719 -9.48383 5.90588 
3.6354 -9.48334 6.07295 
3.51331 -9.47833 6.04794 
3.41337 -9.47477 6.05525 
3.19212 -9.46841 6.14833 
3.07288 -9.46279 6.08702 
2.96839 -9.46469 6.38172 
2.85053 -9.45725 6.22449 
2.75519 -9.45183 6.12806 
2.63201 -9.44745 6.13754 
2.53689 -9.44413 6.14775 
2.31714 -9.43417 6.05489 
2.19607 -9.42786 5.96166 
2.09557 -9.42669 6.09209 
1.97784 -9.41668 5.8032 
1.87927 -9.41358 5.83155 
1.75882 -9.40902 5.82647 
1.66312 -9.4023 5.66473 
1.54008 -9.39786 5.67083 
1.44216 -9.39369 5.64326 
1.31961 -9.38798 5.58352 
1.22481 -9.38496 5.60886 
1.10129 -9.37572 5.37046 
1.00345 -9.3734 5.43707 
0.880279 -9.36775 5.38171 
0.781302 -9.36294 5.32342 
0.659711 -9.35838 5.32099 
0.559605 -9.35322 5.24692 
0.439 -9.34822 5.22018 
0.340412 -9.34273 5.12604 
0.215758 -9.3426 5.35552 
0.118797 -9.33976 5.39438 
-0.00442347 -9.33349 5.30763 
-0.10214 -9.33228 5.43102 
-0.2258 -9.32748 5.42004 
-0.326835 -9.329 5.68934 
-0.449617 -9.32164 5.54569 
-0.546315 -9.32166 5.73017 
-0.670829 -9.31646 5.7006 
-0.767649 -9.31577 5.84843 
-0.889742 -9.31191 5.88299 
-0.98404 -9.31577 6.25883 
-1.10925 -9.30764 6.08095 
-1.20202 -9.31014 6.38479 
-1.32465 -9.30461 6.33463 
-1.41888 -9.30698 6.63428 
-1.53929 -9.3016 6.58805 
-1.62996 -9.30653 7.01164 
-1.7539 -9.30034 6.93056 
-1.84654 -9.29975 7.07597 
-1.96292 -9.3004 7.3301 
-2.0543 -9.29928 7.44641 
-2.18519 -9.29316 7.38195 
-2.27331 -9.29262 7.52137 
-2.39675 -9.2896 7.6016 
-2.48495 -9.28926 7.75147 
-2.60951 -9.28481 7.76061 
-2.70554 -9.2834 7.87069 
-2.9215 -9.27808 8.00868 
-3.03794 -9.27423 8.03257 
-3.13255 -9.27338 8.16913 
-3.25527 -9.26577 8.01318 
-3.35025 -9.26485 8.1464 
-3.47044 -9.25831 8.04047 
-3.56868 -9.25386 7.99926 
-3.78369 -9.24737 8.07589 
-3.90855 -9.24032 7.95266 
-4.00463 -9.23486 7.8561 
-4.13445 -9.2259 7.64441 
-4.22498 -9.22445 7.74249 
-4.37115 -9.2096 7.26099 
-4.46646 -9.20535 7.22447 
-4.6966 -9.19056 6.90551 
-6.23508 -9.01763 0.986923 
-6.33829 -9.01389 0.991719 
-6.47237 -9.00711 0.899929 
-6.56508 -9.00769 1.10593 
-6.80164 -8.99696 1.00714 
-6.93324 -8.99019 0.910785 
-7.05346 -8.98121 0.680046 
-7.17708 -8.97718 0.70935 
-7.28105 -8.97386 0.73714 
-7.41533 -8.96668 0.625438 
-7.52709 -8.96002 0.497268 
-7.76484 -8.94934 0.402922 
-7.90092 -8.94298 0.336839 
-8.00677 -8.93738 0.251509 
-8.14491 -8.93075 0.175506 
-8.24531 -8.92745 0.197468 
-8.38622 -8.92027 0.0983854 
4.18836 -9.46061 5.67141 
4.08604 -9.45916 5.78883 
3.96298 -9.45553 5.8355 
3.86342 -9.45353 5.92058 
3.7353 -9.45089 6.02637 
3.63708 -9.44838 6.08306 
3.51844 -9.44116 5.94117 
3.41176 -9.44256 6.21081 
3.29375 -9.43613 6.10732 
3.19631 -9.43181 6.07161 
3.07397 -9.42796 6.10635 
2.97241 -9.42799 6.29689 
2.85211 -9.42202 6.22138 
2.75559 -9.4181 6.20397 
2.63445 -9.412 6.12338 
2.53746 -9.40993 6.2002 
2.41358 -9.40494 6.18036 
2.31885 -9.39931 6.07373 
2.19664 -9.39312 5.99049 
2.09968 -9.38867 5.94791 
1.97817 -9.38369 5.92407 
1.87966 -9.38008 5.92666 
1.76183 -9.37148 5.71375 
1.66507 -9.36665 5.65166 
1.542 -9.36255 5.67518 
1.44513 -9.35786 5.61991 
1.32353 -9.35145 5.52462 
1.2247 -9.35031 5.65184 
1.10262 -9.34212 5.46792 
1.0047 -9.33666 5.37589 
0.881612 -9.33219 5.38124 
0.782317 -9.32782 5.34688 
0.661115 -9.32269 5.31484 
0.561285 -9.31716 5.22339 
0.441678 -9.31188 5.18111 
0.342456 -9.30568 5.05484 
0.217153 -9.30699 5.35476 
0.119955 -9.30438 5.4051 
-0.00407845 -9.2976 5.29584 
-0.100595 -9.29574 5.38253 
-0.224877 -9.29191 5.42188 
-0.325446 -9.29255 5.64233 
-0.447807 -9.28513 5.49757 
-0.546723 -9.28558 5.70524 
-0.669206 -9.28041 5.67415 
-0.766947 -9.28075 5.87348 
-0.889085 -9.27502 5.81361 
-0.983955 -9.27762 6.12208 
-1.20299 -9.27149 6.22287 
-1.32124 -9.27224 6.48177 
-1.41532 -9.2726 6.67602 
-1.53477 -9.26889 6.71284 
-1.63264 -9.26985 6.94423 
-1.75222 -9.26299 6.82258 
-1.84247 -9.26653 7.16953 
-2.05401 -9.26545 7.51085 
-2.18143 -9.25704 7.32575 
-2.27149 -9.25931 7.60854 
-2.39403 -9.25421 7.58133 
-2.48535 -9.25358 7.7208 
-2.60898 -9.25045 7.79456 
-2.70047 -9.24974 7.92981 
-2.92017 -9.24055 7.87854 
-3.03764 -9.23874 8.00746 
-3.13295 -9.23647 8.07147 
-3.25261 -9.23125 8.03294 
-3.34484 -9.23193 8.23984 
-3.47085 -9.22344 8.04846 
-3.56654 -9.21949 8.02899 
-3.78135 -9.21269 8.08869 
-3.9065 -9.20486 7.92941 
-4.00361 -9.19974 7.85327 
-4.12819 -9.19305 7.74989 
-4.23139 -9.18453 7.5146 
-4.36542 -9.17492 7.28191 
-4.46912 -9.16758 7.10655 
-4.69665 -9.15597 6.94853 
-6.23501 -8.97971 0.958402 
-6.32667 -8.98043 1.16618 
-6.46905 -8.96998 0.907107 
-6.56735 -8.96865 1.02413 
-6.80345 -8.95814 0.937693 
-6.93629 -8.95131 0.843123 
-7.05032 -8.94416 0.696932 
-7.17779 -8.93857 0.654252 
-7.28188 -8.93548 0.694061 
-7.41593 -8.92824 0.580776 
-7.51029 -8.92814 0.752486 
-7.652 -8.91856 0.536247 
-7.7635 -8.91161 0.395043 
-7.90026 -8.90443 0.289991 
-8.00279 -8.90052 0.285417 
-8.14686 -8.89205 0.129366 
-8.23974 -8.89124 0.262449 
-8.38997 -8.88062 0.00970782 
4.18826 -9.42665 5.73858 
3.96096 -9.42198 5.92524 
3.86787 -9.41716 5.85744 
3.74091 -9.41401 5.93495 
3.64277 -9.41148 5.98968 
3.51962 -9.40635 5.96226 
3.41367 -9.40756 6.2167 
3.29471 -9.40162 6.14159 
3.19518 -9.39843 6.16661 
3.07557 -9.39289 6.11229 
2.97267 -9.39372 6.34254 
2.85432 -9.38796 6.27496 
2.75864 -9.38202 6.15657 
2.63599 -9.37793 6.17975 
2.54105 -9.3736 6.14004 
2.41528 -9.36902 6.14453 
2.3205 -9.36278 6.01029 
2.19739 -9.35865 6.03237 
2.09973 -9.35595 6.0782 
1.98053 -9.34802 5.90479 
1.88157 -9.34456 5.9157 
1.76173 -9.33643 5.73359 
1.66601 -9.33282 5.7308 
1.54325 -9.32712 5.67454 
1.44651 -9.32397 5.69702 
1.32458 -9.3161 5.53177 
1.22728 -9.31345 5.57939 
1.10483 -9.3058 5.42615 
1.00697 -9.3015 5.39346 
0.883727 -9.29696 5.39527 
0.783384 -9.29217 5.34286 
0.563172 -9.28178 5.23378 
0.44227 -9.27749 5.24443 
0.342975 -9.27486 5.29689 
0.218685 -9.27147 5.35773 
0.121936 -9.26766 5.34744 
-0.000418944 -9.26187 5.28618 
-0.0982942 -9.26007 5.37714 
-0.224216 -9.25655 5.43479 
-0.324149 -9.2571 5.64667 
-0.446598 -9.25165 5.6022 
-0.545253 -9.24923 5.66405 
-0.667569 -9.24751 5.80447 
-0.765133 -9.24594 5.90632 
-0.885492 -9.24334 5.99966 
-0.982523 -9.24193 6.1084 
-1.10373 -9.24005 6.23873 
-1.20116 -9.23721 6.278 
-1.31947 -9.23659 6.46525 
-1.4117 -9.23847 6.72867 
-1.53339 -9.23273 6.6686 
-1.62777 -9.23523 6.96629 
-1.75187 -9.22744 6.80937 
-1.84105 -9.23081 7.14091 
-1.96408 -9.22603 7.13109 
-2.05075 -9.22937 7.45648 
-2.17947 -9.22503 7.47908 
-2.27163 -9.22348 7.5722 
-2.39618 -9.21847 7.55354 
-2.48303 -9.22013 7.79625 
-2.60832 -9.21385 7.71618 
-2.69857 -9.21584 7.98158 
-2.91693 -9.2078 7.98622 
-3.0386 -9.20267 7.95667 
-3.13437 -9.2002 8.011 
-3.24921 -9.1974 8.08421 
-3.34462 -9.19698 8.23933 
-3.4656 -9.18937 8.08562 
-3.5634 -9.18709 8.15336 
-3.78013 -9.17727 8.06678 
-3.90348 -9.17458 8.16134 
-4.00225 -9.16638 7.93724 
-4.13161 -9.15627 7.67549 
-4.22897 -9.15059 7.57348 
-4.36103 -9.14133 7.35863 
-4.46579 -9.13286 7.13263 
-6.33263 -8.94055 1.05 
-6.46916 -8.9322 0.888412 
-6.56269 -8.93296 1.09883 
-6.80252 -8.92115 0.956722 
-6.93216 -8.91532 0.907253 
-7.04646 -8.90702 0.707275 
-7.1768 -8.90078 0.638671 
-7.27879 -8.89865 0.721734 
-7.41622 -8.89014 0.554173 
-7.51601 -8.88839 0.651745 
-7.65309 -8.88001 0.489916 
-7.76287 -8.87362 0.375955 
-7.90989 -8.86358 0.150096 
-8.00019 -8.86374 0.324835 
-8.14192 -8.85562 0.184743 
-8.23705 -8.85376 0.268269 
-8.39307 -8.84132 -0.0596485 
4.19288 -9.3905 5.68912 
3.9662 -9.38462 5.81281 
3.86947 -9.38283 5.90122 
3.74254 -9.37877 5.93313 
3.64345 -9.37604 5.97943 
3.51904 -9.37273 6.04358 
3.4171 -9.3722 6.20254 
3.2965 -9.36652 6.14425 
3.1966 -9.36355 6.18095 
3.07668 -9.35836 6.14524 
2.97717 -9.35727 6.27268 
2.85512 -9.35248 6.26061 
2.75991 -9.34694 6.16277 
2.63881 -9.34142 6.11347 
2.54063 -9.33748 6.0995 
2.41814 -9.33392 6.14813 
2.32154 -9.32704 5.98816 
2.19955 -9.32354 6.0387 
2.10166 -9.32035 6.06086 
1.98278 -9.31278 5.90727 
1.88586 -9.30603 5.75398 
1.76338 -9.2994 5.65316 
1.66738 -9.29774 5.7462 
1.54637 -9.29015 5.59593 
1.44944 -9.28621 5.58 
1.32806 -9.28094 5.54319 
1.22969 -9.27816 5.58606 
1.10686 -9.27112 5.46605 
1.0093 -9.26565 5.37631 
0.885644 -9.26028 5.3388 
0.785916 -9.25653 5.33702 
0.665833 -9.25042 5.25743 
0.565036 -9.24606 5.22762 
0.444264 -9.24076 5.18881 
0.34442 -9.24011 5.33861 
0.220693 -9.23529 5.32808 
0.123684 -9.23168 5.32821 
0.000142053 -9.22598 5.27461 
-0.0961738 -9.22352 5.32993 
-0.221996 -9.21887 5.33174 
-0.321207 -9.21955 5.54534 
-0.445045 -9.21618 5.6058 
-0.539995 -9.21748 5.842 
-0.666035 -9.20931 5.67258 
-0.762892 -9.21002 5.88313 
-0.885626 -9.20405 5.81505 
-0.980194 -9.20737 6.14934 
-1.10218 -9.20534 6.27218 
-1.19732 -9.20401 6.38033 
-1.31842 -9.19999 6.40441 
-1.41283 -9.2014 6.64484 
-1.53055 -9.19822 6.70376 
-1.62728 -9.19761 6.84983 
-1.74668 -9.1952 6.94945 
-1.83723 -9.19772 7.23757 
-1.96207 -9.19171 7.17129 
-2.05288 -9.19141 7.32207 
-2.18105 -9.18803 7.38998 
-2.26755 -9.19004 7.64552 
-2.39284 -9.18614 7.68338 
-2.48239 -9.18557 7.81844 
-2.60538 -9.18036 7.78801 
-2.6999 -9.17768 7.82972 
-2.9156 -9.17353 8.01981 
-3.03234 -9.1698 8.05047 
-3.12928 -9.16761 8.12 
-3.24837 -9.1624 8.0827 
-3.34147 -9.16314 8.28801 
-3.46424 -9.15608 8.16713 
-3.55638 -9.15353 8.21071 
-3.77932 -9.14239 8.07281 
-3.90428 -9.13563 7.97067 
-3.99976 -9.12991 7.86511 
-4.12353 -9.12444 7.8236 
-4.22954 -9.1155 7.58066 
-4.35464 -9.10802 7.44323 
-4.46723 -9.09685 7.10335 
-4.70103 -9.08191 6.8 
-6.33654 -8.90117 0.957674 
-6.46151 -8.89732 0.997652 
-6.55654 -8.89724 1.16682 
-6.69167 -8.88908 1.01473 
-6.80234 -8.88302 0.92088 
-6.9269 -8.87895 0.949104 
-7.04748 -8.86877 0.671794 
-7.17584 -8.86357 0.651901 
-7.27627 -8.86162 0.740177 
-7.40507 -8.85599 0.700192 
-7.51356 -8.85093 0.651091 
-7.64764 -8.84412 0.56311 
-7.75825 -8.83716 0.42472 
-7.89982 -8.8287 0.270228 
-8.00734 -8.82317 0.196092 
-8.14834 -8.81529 0.0686916 
-8.24587 -8.81297 0.133463 
-8.38285 -8.80665 0.0745979 
4.08963 -9.35475 5.85296 
3.96577 -9.35132 5.90956 
3.87428 -9.34609 5.82203 
3.74479 -9.34367 5.93726 
3.64461 -9.34125 6.00009 
3.52234 -9.33629 5.98065 
3.41815 -9.3376 6.22975 
3.2989 -9.33155 6.1526 
3.19908 -9.32845 6.18213 
3.07495 -9.32562 6.2687 
2.98137 -9.32035 6.18299 
2.85791 -9.3165 6.21877 
2.75873 -9.31311 6.23346 
2.63947 -9.30653 6.13093 
2.54479 -9.30165 6.06582 
2.42044 -9.29855 6.13949 
2.32408 -9.293 6.04567 
2.20201 -9.28799 6.02337 
2.10444 -9.28251 5.93502 
1.98454 -9.27646 5.85875 
1.88794 -9.27147 5.79212 
1.76703 -9.26386 5.64306 
1.66973 -9.26097 5.67841 
1.54752 -9.25522 5.62134 
1.45198 -9.25121 5.59968 
1.32771 -9.24658 5.59999 
1.23186 -9.24138 5.52166 
1.10922 -9.23347 5.36131 
1.01208 -9.23031 5.38373 
0.887894 -9.22437 5.32097 
0.788261 -9.2204 5.30861 
0.567562 -9.20878 5.14553 
0.446039 -9.20613 5.23611 
0.345361 -9.20693 5.45505 
0.223368 -9.19891 5.28841 
0.125769 -9.19709 5.37629 
0.000993506 -9.19249 5.37882 
-0.0960227 -9.18962 5.41458 
-0.319361 -9.18322 5.50748 
-0.443144 -9.18013 5.58136 
-0.538621 -9.17962 5.72814 
-0.663576 -9.17553 5.75573 
-0.761254 -9.17554 5.93139 
-0.883869 -9.16967 5.86893 
-0.979685 -9.1708 6.09511 
-1.10233 -9.16632 6.10007 
-1.19707 -9.16621 6.26493 
-1.31565 -9.16617 6.47556 
-1.40954 -9.16845 6.75389 
-1.52944 -9.16383 6.74699 
-1.62759 -9.16182 6.82638 
-1.74798 -9.15671 6.79683 
-1.8349 -9.16309 7.25952 
-1.96224 -9.15483 7.09112 
-2.05106 -9.15669 7.34014 
-2.18164 -9.14932 7.22034 
-2.26573 -9.15452 7.62109 
-2.39327 -9.14671 7.47481 
-2.48206 -9.14999 7.79187 
-2.60489 -9.14395 7.72213 
-2.69719 -9.14327 7.85516 
-2.91364 -9.13838 8.00911 
-3.02958 -9.13337 7.97628 
-3.12596 -9.13396 8.17799 
-3.24684 -9.12843 8.12944 
-3.33789 -9.12914 8.32674 
-3.46231 -9.12103 8.16061 
-3.55861 -9.11608 8.09557 
-3.77884 -9.10538 7.97716 
-3.90093 -9.10236 8.05105 
-3.99378 -9.09828 8.02176 
-4.12265 -9.09042 7.87574 
-4.22537 -9.08032 7.57453 
-4.35621 -9.07163 7.39166 
-4.46241 -9.06289 7.1627 
-4.69086 -9.0509 6.99646 
-6.32769 -8.86621 1.05778 
-6.45593 -8.86201 1.08636 
-6.56304 -8.85653 1.01542 
-6.69433 -8.8501 0.942562 
-6.79973 -8.84608 0.938762 
-6.94094 -8.83481 0.650754 
-7.04241 -8.83285 0.738909 
-7.17719 -8.8251 0.608706 
-7.28051 -8.82172 0.631947 
-7.40619 -8.81704 0.633118 
-7.51653 -8.81126 0.553749 
-7.64064 -8.80824 0.631875 
-7.7633 -8.7971 0.316562 
-7.89717 -8.79175 0.300412 
-7.99124 -8.79026 0.397736 
-8.14303 -8.77903 0.130867 
-8.24512 -8.77504 0.122725 
-8.38865 -8.76641 -0.0338813 
4.19711 -9.31939 5.65939 
3.97004 -9.3143 5.81879 
3.87153 -9.31223 5.89487 
3.74422 -9.30997 6.01269 
3.64559 -9.30653 6.02383 
3.52316 -9.30153 6.0032 
3.42015 -9.30176 6.19601 
3.20024 -9.29366 6.20099 
3.08175 -9.28761 6.12373 
2.982 -9.28636 6.24083 
2.8614 -9.27878 6.09475 
2.76256 -9.27755 6.21147 
2.64174 -9.27105 6.117 
2.54589 -9.2667 6.08044 
2.32758 -9.25601 5.9601 
2.20298 -9.25426 6.09769 
2.1058 -9.24763 5.95525 
1.98641 -9.23943 5.77824 
1.88999 -9.23545 5.76024 
1.76967 -9.22826 5.63257 
1.67289 -9.22411 5.60687 
1.54904 -9.21904 5.5857 
1.45217 -9.21705 5.66292 
1.32946 -9.21046 5.56786 
1.23174 -9.2058 5.52014 
1.10964 -9.20019 5.47027 
1.01302 -9.19586 5.43634 
0.889542 -9.19028 5.39064 
0.788351 -9.18812 5.46706 
0.668939 -9.18043 5.31405 
0.568345 -9.17559 5.26304 
0.447632 -9.17119 5.26814 
0.347971 -9.16843 5.31361 
0.224945 -9.16356 5.301 
0.127245 -9.16189 5.39484 
0.0041299 -9.15577 5.32286 
-0.0935509 -9.15482 5.45046 
-0.21851 -9.1496 5.42469 
-0.317453 -9.14841 5.54304 
-0.440773 -9.14173 5.44511 
-0.537136 -9.14576 5.80674 
-0.662456 -9.13863 5.69082 
-0.759852 -9.13998 5.92695 
-0.881691 -9.13758 6.02921 
-0.977788 -9.13581 6.11564 
-1.09996 -9.13329 6.21243 
-1.19468 -9.13271 6.35293 
-1.31676 -9.12761 6.3275 
-1.40936 -9.1303 6.61905 
-1.52908 -9.12695 6.67209 
-1.62212 -9.13089 7.02391 
-1.74402 -9.12407 6.91677 
-1.84047 -9.12394 7.08109 
-1.96228 -9.11834 7.03191 
-2.04973 -9.12059 7.29333 
-2.17836 -9.11649 7.32724 
-2.26031 -9.12386 7.82132 
-2.39147 -9.11326 7.55179 
-2.47888 -9.11529 7.80295 
-2.60185 -9.11078 7.80701 
-2.69617 -9.10944 7.91061 
-2.91131 -9.10323 7.99778 
-3.02859 -9.09883 7.99738 
-3.12771 -9.09693 8.08312 
-3.24465 -9.09362 8.13353 
-3.33771 -9.09384 8.30938 
-3.46207 -9.08518 8.11931 
-3.55465 -9.08355 8.20612 
-3.77694 -9.07126 8.01817 
-3.90097 -9.0666 8.01733 
-3.99247 -9.06448 8.07952 
-4.12687 -9.05127 7.69203 
-4.21953 -9.04601 7.60673 
-4.35419 -9.03685 7.41158 
-4.45592 -9.02919 7.2293 
-4.68864 -9.01544 6.99082 
-6.32901 -8.82777 1.00853 
-6.46473 -8.81966 0.864801 
-6.56396 -8.81856 0.989099 
-6.68529 -8.81595 1.08072 
-6.80227 -8.8069 0.859236 
-6.93235 -8.80041 0.782754 
-7.035 -8.79783 0.842762 
-7.17619 -8.78688 0.574572 
-7.27266 -8.78656 0.730759 
-7.40845 -8.77862 0.595299 
-7.51979 -8.77213 0.485364 
-7.64477 -8.76868 0.54409 
-7.75194 -8.76339 0.483439 
-7.89884 -8.7527 0.238054 
-8.00372 -8.74785 0.194116 
-8.14112 -8.74109 0.118077 
-8.23347 -8.74068 0.262494 
-8.38577 -8.72886 -0.0271618 
3.97206 -9.27904 5.81717 
3.8726 -9.27702 5.89633 
3.75396 -9.26938 5.74632 
3.64792 -9.27084 5.99913 
3.52614 -9.2659 5.98091 
3.42476 -9.2646 6.09704 
3.30018 -9.26214 6.19924 
3.2004 -9.25974 6.26148 
3.07954 -9.2549 6.24635 
2.98352 -9.25116 6.23926 
2.86432 -9.24406 6.11551 
2.76397 -9.24165 6.17828 
2.64393 -9.23585 6.11671 
2.54684 -9.23345 6.17405 
2.42454 -9.22721 6.09654 
2.32905 -9.22164 6.00284 
2.2066 -9.21629 5.96691 
2.10883 -9.21239 5.95558 
1.98762 -9.20591 5.86455 
1.88988 -9.20183 5.84484 
1.76956 -9.19469 5.72149 
1.67378 -9.18954 5.64838 
1.55052 -9.18443 5.6249 
1.45684 -9.17828 5.50163 
1.33216 -9.17461 5.54801 
1.2349 -9.16988 5.49684 
1.11192 -9.1636 5.41874 
1.01337 -9.16014 5.42922 
0.890856 -9.15473 5.39047 
0.790801 -9.14985 5.33767 
0.67062 -9.14492 5.31707 
0.570786 -9.13817 5.17642 
0.449802 -9.13513 5.24598 
0.350322 -9.13096 5.22527 
0.226538 -9.12713 5.26231 
0.129067 -9.12633 5.39544 
0.0055501 -9.11901 5.26968 
-0.090736 -9.11747 5.36565 
-0.217074 -9.11384 5.41718 
-0.3166 -9.11216 5.51265 
-0.438584 -9.10809 5.53553 
-0.534464 -9.10969 5.77768 
-0.660462 -9.10396 5.73053 
-0.757458 -9.10524 5.96008 
-0.88032 -9.09851 5.8604 
-0.976735 -9.09947 6.07372 
-1.09973 -9.09726 6.1857 
-1.19336 -9.09611 6.29537 
-1.31382 -9.09407 6.4109 
-1.40781 -9.09434 6.58767 
-1.52943 -9.09024 6.60919 
-1.62407 -9.09171 6.84306 
-1.74334 -9.08669 6.81728 
-1.83421 -9.09219 7.23302 
-1.95946 -9.08388 7.06418 
-2.04956 -9.08516 7.28122 
-2.17127 -9.08447 7.46193 
-2.26224 -9.0846 7.62734 
-2.39427 -9.07427 7.37575 
-2.47526 -9.08263 7.90802 
-2.59869 -9.07748 7.88351 
-2.90761 -9.07024 8.08601 
-3.02733 -9.06262 7.93962 
-3.12378 -9.06294 8.12316 
-3.24114 -9.05884 8.13717 
-3.33518 -9.05807 8.26595 
-3.46017 -9.05097 8.15304 
-3.55773 -9.04589 8.08645 
-3.77351 -9.0366 8.03065 
-3.89904 -9.03158 8.01596 
-3.99397 -9.02429 7.84183 
-4.12211 -9.01717 7.73387 
-4.21608 -9.0136 7.73167 
-4.34938 -9.00281 7.46092 
-4.45528 -8.99357 7.21473 
-4.58419 -8.98709 7.13819 
-4.68145 -8.98211 7.07582 
-6.32907 -8.78946 0.96443 
-6.46394 -8.78239 0.870326 
-6.56018 -8.78198 1.01978 
-6.69338 -8.77477 0.916402 
-6.7897 -8.77405 1.05182 
-6.93153 -8.76233 0.752695 
-7.04049 -8.75709 0.698984 
-7.16795 -8.75215 0.691617 
-7.27113 -8.74952 0.749576 
-7.40084 -8.74371 0.705638 
-7.50932 -8.73839 0.647309 
-7.63887 -8.73254 0.601003 
-7.75656 -8.72334 0.377648 
-7.88379 -8.71987 0.438587 
-8.00499 -8.70923 0.153934 
-8.14473 -8.70151 0.0384689 
-8.2411 -8.6998 0.127653 
-8.37744 -8.69345 0.0700087 
4.20041 -9.24839 5.63826 
3.97433 -9.24373 5.81279 
3.87778 -9.24062 5.83559 
3.75206 -9.2365 5.86262 
3.6453 -9.23737 6.08594 
3.5275 -9.23116 6.0033 
3.42603 -9.22942 6.09753 
3.30416 -9.22514 6.11066 
3.20768 -9.22 6.04018 
3.08081 -9.21972 6.24548 
2.98423 -9.21559 6.22173 
2.86435 -9.20995 6.16891 
2.76663 -9.20546 6.13055 
2.64623 -9.2 6.08659 
2.54931 -9.19634 6.08544 
2.42539 -9.19239 6.11718 
2.33013 -9.18851 6.10267 
2.20743 -9.18219 6.02333 
2.10949 -9.17859 6.02638 
1.98915 -9.17097 5.88308 
1.89197 -9.1661 5.82617 
1.77168 -9.16 5.75279 
1.67548 -9.15412 5.64845 
1.45766 -9.14437 5.57505 
1.33211 -9.13989 5.58549 
1.23758 -9.13363 5.46001 
1.11422 -9.12661 5.35004 
1.01587 -9.12527 5.45764 
0.892935 -9.11825 5.34674 
0.792855 -9.11365 5.30777 
0.57221 -9.10443 5.2636 
0.451093 -9.10013 5.27492 
0.352134 -9.0952 5.21859 
0.229397 -9.09186 5.27649 
0.130498 -9.09147 5.42921 
0.00641433 -9.08404 5.30133 
-0.0917455 -9.08199 5.37625 
-0.216195 -9.0792 5.46242 
-0.31485 -9.07736 5.54773 
-0.437432 -9.07376 5.59357 
-0.536988 -9.07218 5.69282 
-0.658375 -9.06861 5.73806 
-0.755947 -9.06929 5.93746 
-0.87883 -9.06247 5.83561 
-0.974295 -9.06379 6.0611 
-1.09912 -9.05953 6.08037 
-1.19007 -9.06331 6.41149 
-1.31336 -9.05643 6.30767 
-1.40439 -9.06117 6.68277 
-1.52477 -9.05709 6.70302 
-1.62213 -9.05843 6.93245 
-1.74101 -9.05311 6.8932 
-1.83668 -9.05254 7.032 
-1.95577 -9.05074 7.15473 
-2.04445 -9.05148 7.34185 
-2.17354 -9.04574 7.3008 
-2.25886 -9.04875 7.58631 
-2.39174 -9.04059 7.44044 
-2.47486 -9.04603 7.83416 
-2.59955 -9.03978 7.76179 
-2.69131 -9.03879 7.87503 
-2.90834 -9.03443 8.04934 
-3.02629 -9.02761 7.93884 
-3.12382 -9.02715 8.08639 
-3.24361 -9.02365 8.13211 
-3.33476 -9.02301 8.26037 
-3.45996 -9.01579 8.14424 
-3.55624 -9.01348 8.20435 
-3.77039 -9.00196 8.04434 
-3.89855 -8.99408 7.90294 
-3.99453 -8.98872 7.82207 
-4.1224 -8.98065 7.6717 
-4.22296 -8.97568 7.6168 
-4.35352 -8.96475 7.33915 
-4.4525 -8.95848 7.2216 
-4.68375 -8.94491 6.99708 
-6.32355 -8.75393 1.04003 
-6.46148 -8.74517 0.8754 
-6.56286 -8.74335 0.967106 
-6.78924 -8.7364 1.03832 
-6.91903 -8.72962 0.9508 
-7.03467 -8.72163 0.783085 
-7.15928 -8.71782 0.823392 
-7.28733 -8.70433 0.423391 
-7.39541 -8.70743 0.753562 
-7.51302 -8.69867 0.553522 
-7.74953 -8.68812 0.476745 
-7.89225 -8.67849 0.280657 
-8.00403 -8.67088 0.123674 
-8.14682 -8.66256 -0.0122464 
-8.24626 -8.6596 0.0234537 
-8.3699 -8.65742 0.136916 
4.20856 -9.20992 5.48264 
3.98009 -9.20572 5.68034 
3.87442 -9.20722 5.9275 
3.7536 -9.20064 5.8342 
3.65317 -9.20077 6.01078 
3.53008 -9.19519 5.96672 
3.42462 -9.19649 6.20499 
3.30565 -9.19094 6.15565 
3.20715 -9.18642 6.11807 
3.08003 -9.18654 6.33964 
2.9856 -9.18054 6.22777 
2.8666 -9.17423 6.14411 
2.76845 -9.17106 6.16698 
2.64895 -9.16441 6.06842 
2.55062 -9.16145 6.10167 
2.42696 -9.15756 6.13547 
2.33281 -9.15103 5.9992 
2.21053 -9.14491 5.92986 
2.11107 -9.14188 5.96137 
1.9922 -9.13484 5.84457 
1.89422 -9.13014 5.79802 
1.77307 -9.12405 5.72768 
1.678 -9.11833 5.62987 
1.55255 -9.11532 5.70677 
1.45965 -9.10816 5.5401 
1.33504 -9.10579 5.64462 
1.23628 -9.10079 5.58591 
1.11587 -9.09214 5.39865 
1.01486 -9.09072 5.50628 
0.895935 -9.08113 5.2733 
0.794282 -9.07979 5.38581 
0.67409 -9.07396 5.32605 
0.574367 -9.06892 5.26695 
0.452806 -9.06466 5.28083 
0.353651 -9.06059 5.26481 
0.231428 -9.05492 5.21564 
0.132313 -9.05485 5.38123 
0.00866052 -9.04951 5.34972 
-0.092093 -9.04814 5.45901 
-0.213818 -9.0438 5.46975 
-0.313308 -9.04023 5.47689 
-0.436089 -9.03722 5.54962 
-0.531789 -9.03869 5.77952 
-0.657226 -9.03132 5.65867 
-0.754892 -9.0322 5.86491 
-0.877449 -9.02823 5.89365 
-0.972548 -9.02886 6.08427 
-1.09428 -9.02616 6.1692 
-1.18827 -9.02754 6.39197 
-1.31083 -9.02282 6.38671 
-1.40589 -9.02133 6.48122 
-1.52235 -9.02268 6.74092 
-1.62178 -9.02087 6.82823 
-1.74185 -9.01446 6.74181 
-1.83599 -9.01625 6.98353 
-1.95456 -9.0153 7.14252 
-2.04455 -9.01484 7.27512 
-2.17017 -9.01261 7.38818 
-2.25879 -9.01243 7.53102 
-2.3899 -9.00255 7.30667 
-2.47578 -9.0089 7.7411 
-2.59967 -9.003 7.68443 
-2.90727 -8.99777 7.97175 
-3.0225 -8.99569 8.07425 
-3.12008 -8.99346 8.13959 
-3.24091 -8.98833 8.11267 
-3.33276 -8.98871 8.28668 
-3.45921 -8.98116 8.15982 
-3.5546 -8.97648 8.11032 
-3.77196 -8.96714 8.05717 
-3.89642 -8.9615 8.01354 
-3.99003 -8.95771 8.00158 
-4.12027 -8.94499 7.64636 
-4.21352 -8.94257 7.69579 
-4.35157 -8.93016 7.36825 
-4.44296 -8.9281 7.43063 
-4.68201 -8.91016 7.02473 
-6.32165 -8.71632 1.02554 
-6.46442 -8.70555 0.780277 
-6.56296 -8.70471 0.91053 
-6.68623 -8.70211 1.00295 
-6.78957 -8.6981 0.997732 
-6.91501 -8.6935 1.00296 
-7.03847 -8.68216 0.699126 
-7.16852 -8.6757 0.627945 
-7.28223 -8.66818 0.481039 
-7.41076 -8.66381 0.502117 
-7.51174 -8.66066 0.531533 
-7.63595 -8.6572 0.586947 
-7.75216 -8.64859 0.394714 
-7.89112 -8.64073 0.275114 
-8.00362 -8.63305 0.118803 
-8.14082 -8.62624 0.0440109 
-8.25721 -8.6178 -0.140341 
-8.37712 -8.61695 0.0263152 
3.97448 -9.17414 5.85796 
3.87492 -9.17305 5.97619 
3.75778 -9.16529 5.82538 
3.65706 -9.16412 5.94205 
3.52975 -9.16126 6.02789 
3.42823 -9.15995 6.13976 
3.30837 -9.15469 6.10566 
3.21015 -9.15077 6.09535 
3.0838 -9.14954 6.25202 
2.98881 -9.14485 6.20188 
2.8698 -9.13865 6.12434 
2.76848 -9.13654 6.20017 
2.65111 -9.13064 6.13346 
2.55134 -9.12734 6.15344 
2.42741 -9.12269 6.15347 
2.33362 -9.11503 5.96864 
2.21046 -9.11094 5.99237 
2.11352 -9.10539 5.90719 
1.99408 -9.09902 5.8227 
1.89615 -9.09437 5.77922 
1.77537 -9.08685 5.64579 
1.67951 -9.08314 5.64102 
1.55766 -9.07687 5.56544 
1.46148 -9.07242 5.52763 
1.3401 -9.06769 5.52024 
1.24047 -9.06357 5.50323 
1.11717 -9.0573 5.43016 
1.01832 -9.05413 5.45435 
0.89626 -9.04743 5.35983 
0.796458 -9.0429 5.32515 
0.676257 -9.03691 5.25937 
0.575289 -9.03478 5.3338 
0.454004 -9.02862 5.26201 
0.355616 -9.02414 5.22715 
0.2329 -9.01885 5.19696 
0.134443 -9.01891 5.36495 
0.0122625 -9.01377 5.34053 
-0.088029 -9.01421 5.52876 
-0.212655 -9.00826 5.47241 
-0.311911 -9.00772 5.61539 
-0.434093 -9.00065 5.50439 
-0.532941 -9.00042 5.66035 
-0.654908 -8.99859 5.78376 
-0.751195 -8.99713 5.88049 
-0.875543 -8.99233 5.87512 
-0.969234 -8.99542 6.17077 
-1.09348 -8.99002 6.13825 
-1.1898 -8.98818 6.21801 
-1.30921 -8.98741 6.38473 
-1.40467 -8.9869 6.52255 
-1.52392 -8.98315 6.55548 
-1.61904 -8.98531 6.8121 
-1.73801 -8.9811 6.82422 
-1.83365 -8.98244 7.04509 
-1.95321 -8.97936 7.10852 
-2.04637 -8.97774 7.19273 
-2.17372 -8.97211 7.15565 
-2.25946 -8.97577 7.46359 
-2.38747 -8.97106 7.46836 
-2.47221 -8.97362 7.7258 
-2.59667 -8.96914 7.73491 
-2.90428 -8.96437 8.0398 
-3.02172 -8.95901 7.99762 
-3.12096 -8.95653 8.054 
-3.23861 -8.95384 8.13162 
-3.33022 -8.95358 8.27456 
-3.4551 -8.94707 8.19376 
-3.54899 -8.9438 8.20565 
-3.76928 -8.93238 8.06557 
-3.89251 -8.92773 8.06513 
-3.98625 -8.92389 8.05143 
-4.11149 -8.91351 7.79775 
-4.20823 -8.90742 7.68828 
-4.34553 -8.89731 7.4675 
-4.44899 -8.8894 7.28776 
-4.68041 -8.87426 7.00041 
-6.31892 -8.67928 1.03529 
-6.45682 -8.67047 0.873653 
-6.55694 -8.66867 0.962023 
-6.69111 -8.66159 0.871517 
-6.79093 -8.65911 0.928914 
-6.91362 -8.65609 1.00046 
-7.03059 -8.64712 0.796133 
-7.16459 -8.63897 0.657396 
-7.26761 -8.6361 0.702917 
-7.40245 -8.62866 0.597219 
-7.50589 -8.62476 0.597151 
-7.63371 -8.61961 0.582605 
-7.74182 -8.61434 0.528722 
-7.88403 -8.6051 0.355298 
-7.99227 -8.59912 0.270348 
-8.14023 -8.58859 0.0484894 
-8.24309 -8.5845 0.0390156 
-8.37993 -8.57769 -0.0351 
3.98172 -9.13638 5.73701 
3.88492 -9.13377 5.78207 
3.75998 -9.12941 5.79677 
3.65421 -9.13096 6.04046 
3.53416 -9.12447 5.95346 
3.43162 -9.12438 6.11949 
3.21071 -9.11648 6.13702 
3.08927 -9.11232 6.15483 
2.9896 -9.11116 6.26907 
2.86914 -9.10458 6.17873 
2.77026 -9.10135 6.20004 
2.65171 -9.09504 6.11848 
2.55366 -9.09298 6.19034 
2.3349 -9.08077 6.01462 
2.2122 -9.07646 6.02799 
2.1146 -9.07117 5.95631 
1.99426 -9.06444 5.8592 
1.89677 -9.06084 5.8624 
1.77664 -9.05342 5.73435 
1.68012 -9.0484 5.67279 
1.55935 -9.04182 5.58319 
1.46263 -9.03689 5.52623 
1.34182 -9.03012 5.42795 
1.2435 -9.02799 5.49742 
1.12007 -9.02022 5.35932 
1.02229 -9.01782 5.41574 
0.897854 -9.01209 5.36979 
0.798844 -9.00771 5.34102 
0.677706 -9.0018 5.28109 
0.575942 -9.00091 5.41092 
0.455289 -8.99484 5.34348 
0.357211 -8.98858 5.23035 
0.233854 -8.98501 5.27746 
0.13586 -8.98508 5.44365 
0.0132337 -8.97751 5.31337 
-0.0849077 -8.97713 5.45956 
-0.210367 -8.97208 5.44496 
-0.309064 -8.96873 5.46141 
-0.432731 -8.96565 5.53107 
-0.529424 -8.96729 5.76409 
-0.653879 -8.96063 5.67705 
-0.751464 -8.96134 5.87056 
-0.874027 -8.95775 5.91577 
-0.969425 -8.95722 6.05077 
-1.09061 -8.95795 6.2846 
-1.19006 -8.94907 6.058 
-1.30853 -8.95092 6.33647 
-1.40377 -8.9515 6.52036 
-1.52448 -8.94512 6.43963 
-1.62022 -8.95093 6.85525 
-1.73783 -8.94562 6.81667 
-1.83369 -8.94525 6.95969 
-1.95123 -8.9443 7.11302 
-2.04572 -8.94171 7.156 
-2.16654 -8.94181 7.3615 
-2.2547 -8.94423 7.61489 
-2.38542 -8.93625 7.48009 
-2.47103 -8.94024 7.79891 
-2.59489 -8.9342 7.73821 
-2.68739 -8.93583 7.96433 
-2.90233 -8.92888 8.01495 
-3.01864 -8.9254 8.05487 
-3.11545 -8.92423 8.16451 
-3.23457 -8.91917 8.13957 
-3.32979 -8.9175 8.22404 
-3.45153 -8.91167 8.16953 
-3.54756 -8.90849 8.18885 
-3.76661 -8.89819 8.09917 
-3.89285 -8.89162 8.01902 
-3.98458 -8.8888 8.04749 
-4.12013 -8.87583 7.70045 
-4.21246 -8.87112 7.64643 
-4.34881 -8.86085 7.42014 
-4.44884 -8.85415 7.29063 
-4.68559 -8.83642 6.90257 
-6.45504 -8.63329 0.881243 
-6.55853 -8.62985 0.902106 
-6.68829 -8.62438 0.876386 
-6.78624 -8.62323 0.989233 
-6.9196 -8.61592 0.888357 
-7.03193 -8.60864 0.754424 
-7.15903 -8.6026 0.699218 
-7.27255 -8.59575 0.586096 
-7.39906 -8.59174 0.619786 
-7.50967 -8.5852 0.515368 
-7.64099 -8.57992 0.501376 
-7.74396 -8.57517 0.463119 
-7.88144 -8.56747 0.352268 
-7.99269 -8.56061 0.235065 
-8.14157 -8.55014 0.0209001 
-8.23364 -8.5496 0.150682 
-8.3748 -8.54059 -0.0119428 
4.21316 -9.1039 5.48247 
3.98304 -9.10186 5.76997 
3.88285 -9.10056 5.87757 
3.76033 -9.09445 5.81245 
3.65364 -9.09658 6.07983 
3.5367 -9.08879 5.93234 
3.4326 -9.08906 6.11458 
3.214 -9.07955 6.05887 
3.09038 -9.0775 6.17211 
2.99017 -9.07685 6.30771 
2.8719 -9.06906 6.16265 
2.77293 -9.06616 6.19845 
2.65468 -9.05944 6.10017 
2.55654 -9.05494 6.06496 
2.33545 -9.04491 5.99098 
2.21299 -9.04187 6.05919 
2.11701 -9.03461 5.90052 
1.99726 -9.0285 5.83108 
1.89925 -9.02503 5.84063 
1.77875 -9.01673 5.67701 
1.68415 -9.01059 5.56492 
1.56035 -9.00737 5.62769 
1.4649 -9.0016 5.53317 
1.34218 -8.99508 5.45097 
1.24376 -8.99162 5.46153 
1.12128 -8.98567 5.40346 
1.0225 -8.9838 5.48443 
0.89953 -8.97653 5.36968 
0.800668 -8.97357 5.40305 
0.678217 -8.96857 5.38638 
0.577366 -8.96558 5.42147 
0.45801 -8.95876 5.32048 
0.358671 -8.95247 5.20988 
0.235615 -8.94946 5.28075 
0.13747 -8.94923 5.43185 
0.0142613 -8.94299 5.36226 
-0.0835204 -8.94126 5.44753 
-0.208465 -8.93601 5.42392 
-0.307021 -8.93383 5.49088 
-0.431253 -8.93102 5.57264 
-0.526016 -8.93334 5.82933 
-0.65216 -8.92523 5.68316 
-0.748524 -8.92777 5.95228 
-0.871895 -8.92118 5.8677 
-0.967438 -8.92274 6.09259 
-1.08947 -8.92041 6.19141 
-1.18468 -8.91955 6.31039 
-1.30501 -8.91837 6.45692 
-1.40397 -8.91444 6.44835 
-1.52046 -8.91083 6.48257 
-1.61784 -8.91381 6.77224 
-1.73775 -8.90685 6.66613 
-1.82824 -8.9143 7.13937 
-1.95071 -8.90693 7.01979 
-2.03666 -8.91354 7.4488 
-2.16417 -8.90701 7.37379 
-2.25761 -8.90498 7.43929 
-2.38676 -8.89826 7.35897 
-2.46757 -8.90553 7.8081 
-2.59569 -8.89697 7.64629 
-2.68588 -8.89761 7.82217 
-2.90092 -8.89395 8.01622 
-3.0185 -8.8899 8.03321 
-3.11606 -8.88794 8.10851 
-3.23509 -8.88364 8.11676 
-3.32992 -8.88253 8.22477 
-3.45097 -8.87672 8.17046 
-3.54785 -8.8726 8.15048 
-3.76527 -8.86255 8.07065 
-3.88936 -8.85574 7.97791 
-3.98555 -8.85208 7.977 
-4.11769 -8.84183 7.74785 
-4.21203 -8.83682 7.6851 
-4.35146 -8.82246 7.28896 
-4.44888 -8.81703 7.21262 
-4.57634 -8.81016 7.12347 
-4.68052 -8.80162 6.92294 
-6.4484 -8.59878 0.997346 
-6.55048 -8.5952 1.00923 
-6.78231 -8.5867 1.02078 
-6.92106 -8.57692 0.823201 
-7.02834 -8.57157 0.766902 
-7.15929 -8.56478 0.686588 
-7.27283 -8.55751 0.55709 
-7.40483 -8.55112 0.49586 
-7.50719 -8.5481 0.533117 
-7.74483 -8.53665 0.425753 
-7.8857 -8.52803 0.282331 
-8.00861 -8.51633 -0.025028 
-8.14331 -8.51085 -0.0421293 
-8.2237 -8.51471 0.258802 
-8.36189 -8.50771 0.181458 
3.98942 -9.06357 5.63266 
3.88498 -9.06442 5.83781 
3.76624 -9.05642 5.68635 
3.65938 -9.05945 5.98966 
3.54147 -9.0511 5.82174 
3.43565 -9.05272 6.06274 
3.21499 -9.04568 6.11765 
3.09165 -9.04283 6.19461 
2.993 -9.0402 6.24177 
2.87335 -9.03442 6.18708 
2.77508 -9.03013 6.16216 
2.65318 -9.02534 6.15363 
2.55667 -9.02034 6.09532 
2.33875 -9.00944 5.9804 
2.21817 -9.00338 5.91516 
2.12019 -8.99777 5.83318 
1.9983 -8.99316 5.83277 
1.90073 -8.98969 5.84173 
1.78147 -8.98233 5.71901 
1.68282 -8.97815 5.69945 
1.56241 -8.97145 5.60687 
1.46876 -8.96328 5.40765 
1.34488 -8.95914 5.43077 
1.24788 -8.95629 5.46558 
1.12278 -8.9507 5.42799 
1.02227 -8.94835 5.48998 
0.901925 -8.94044 5.3455 
0.803456 -8.93505 5.27348 
0.681107 -8.93078 5.28882 
0.578989 -8.93054 5.44375 
0.458784 -8.92251 5.29393 
0.360795 -8.9173 5.22924 
0.237376 -8.91368 5.27365 
0.138882 -8.91313 5.40986 
0.0168974 -8.90743 5.36295 
-0.082191 -8.90507 5.42218 
-0.206294 -8.90112 5.45392 
-0.305294 -8.89774 5.46926 
-0.429205 -8.89524 5.56282 
-0.524487 -8.89358 5.64625 
-0.650872 -8.88966 5.68278 
-0.746587 -8.89227 5.95035 
-0.870804 -8.88553 5.86252 
-0.966841 -8.88527 6.00735 
-1.18329 -8.88417 6.31119 
-1.30485 -8.88081 6.364 
-1.39836 -8.88267 6.59592 
-1.51873 -8.87653 6.52734 
-1.61792 -8.877 6.70864 
-1.7388 -8.87111 6.65212 
-1.82796 -8.87593 7.00392 
-2.0432 -8.86995 7.0964 
-2.16434 -8.87056 7.31926 
-2.2536 -8.87149 7.5045 
-2.38207 -8.86472 7.42219 
-2.46473 -8.86958 7.7652 
-2.5953 -8.86083 7.60143 
-2.68589 -8.8617 7.78577 
-2.90159 -8.85866 8.0058 
-3.01683 -8.85458 8.01796 
-3.11821 -8.85153 8.05163 
-3.23241 -8.84837 8.10109 
-3.32992 -8.84618 8.16566 
-3.44683 -8.84359 8.24443 
-3.54323 -8.8398 8.23821 
-3.76289 -8.82986 8.16795 
-3.8881 -8.8218 8.02514 
-3.98438 -8.81507 7.89247 
-4.11375 -8.80628 7.72531 
-4.20824 -8.8021 7.69916 
-4.3388 -8.7935 7.54182 
-4.4463 -8.78145 7.19878 
-4.67647 -8.7683 7.0081 
-6.44493 -8.56241 1.03543 
-6.55374 -8.55646 0.956515 
-6.68428 -8.54998 0.890765 
-6.78854 -8.54632 0.902881 
-6.91021 -8.54362 0.984819 
-7.01964 -8.53746 0.898052 
-7.15859 -8.5271 0.678951 
-7.26698 -8.52171 0.623399 
-7.40874 -8.51182 0.429241 
-7.50133 -8.51227 0.599256 
-7.62798 -8.50768 0.608192 
-7.74653 -8.49831 0.398469 
-7.87752 -8.49329 0.395542 
-8.00834 -8.47795 -0.0507472 
-8.13714 -8.47465 0.0168184 
-8.2419 -8.4706 0.0133892 
-8.37899 -8.46329 -0.0775057 
3.98961 -9.02947 5.68573 
3.88672 -9.0296 5.85609 
3.76472 -9.02333 5.78541 
3.65854 -9.02565 6.05332 
3.53978 -9.01829 5.93161 
3.44115 -9.01553 5.97237 
3.21791 -9.00906 6.05541 
3.09497 -9.00622 6.13169 
2.99501 -9.00483 6.2327 
2.87792 -8.99709 6.09218 
2.7793 -8.99414 6.12479 
2.65632 -8.98846 6.08103 
2.55887 -8.98634 6.14707 
2.34088 -8.97519 6.02368 
2.22061 -8.96742 5.88699 
2.12039 -8.96466 5.93023 
2.00077 -8.95736 5.81266 
1.90189 -8.95508 5.87452 
1.78231 -8.94679 5.71458 
1.68618 -8.94163 5.64952 
1.5648 -8.93529 5.57528 
1.46623 -8.93206 5.59659 
1.34598 -8.92414 5.45336 
1.24726 -8.92237 5.53669 
1.12381 -8.91559 5.44678 
1.02528 -8.9108 5.40172 
0.903045 -8.90525 5.36254 
0.803394 -8.90132 5.35552 
0.681317 -8.89795 5.40844 
0.579731 -8.89664 5.51555 
0.460178 -8.88756 5.32218 
0.361852 -8.88264 5.27132 
0.239111 -8.87777 5.26188 
0.140273 -8.87704 5.38899 
0.0180554 -8.87165 5.35653 
-0.0799521 -8.87136 5.5013 
-0.205046 -8.86618 5.48254 
-0.304138 -8.8645 5.5702 
-0.427905 -8.85812 5.49832 
-0.523861 -8.86092 5.77069 
-0.649188 -8.85384 5.67168 
-0.744383 -8.85731 5.97142 
-0.868431 -8.85147 5.92257 
-0.964633 -8.8499 6.01034 
-1.08708 -8.84753 6.10637 
-1.1836 -8.84368 6.09796 
-1.30336 -8.84419 6.31162 
-1.39771 -8.84517 6.50471 
-1.51841 -8.8411 6.52579 
-1.61817 -8.8407 6.6689 
-1.73674 -8.83532 6.63099 
-1.83166 -8.83697 6.85325 
-1.95007 -8.83458 6.94191 
-2.04061 -8.83648 7.16781 
-2.16429 -8.83409 7.26507 
-2.25237 -8.83841 7.58991 
-2.38037 -8.82982 7.43083 
-2.46808 -8.83108 7.62512 
-2.59306 -8.82597 7.60915 
-2.68642 -8.82706 7.80554 
-2.80135 -8.82551 7.92421 
-2.8994 -8.82335 7.99024 
-3.01638 -8.81808 7.95453 
-3.11768 -8.81558 8.01125 
-3.23192 -8.81297 8.08405 
-3.32632 -8.81342 8.25456 
-3.44747 -8.80715 8.1832 
-3.54045 -8.80576 8.27401 
-3.76285 -8.79356 8.11358 
-3.88513 -8.7887 8.10432 
-3.9799 -8.78359 8.03971 
-4.10977 -8.77471 7.87159 
-4.20537 -8.76783 7.7338 
-4.34394 -8.75578 7.44524 
-4.44786 -8.74484 7.14848 
-6.44915 -8.52222 0.92282 
-6.54692 -8.5218 1.06226 
-6.68011 -8.51349 0.924181 
-6.78205 -8.5105 0.961081 
-6.91531 -8.50359 0.88219 
-7.02518 -8.49702 0.780437 
-7.15418 -8.49139 0.749184 
-7.27713 -8.47976 0.453526 
-7.39536 -8.47835 0.583726 
-7.49584 -8.47622 0.655135 
-7.62792 -8.46981 0.595456 
-7.73567 -8.46433 0.536303 
-7.88277 -8.45263 0.276579 
-7.99318 -8.445 0.130579 
-8.13496 -8.43685 0.0131773 
-8.23412 -8.43459 0.0765922 
-8.3748 -8.42634 -0.0467193 
3.98862 -8.9955 5.74514 
3.8913 -8.99287 5.78908 
3.76797 -8.98827 5.79146 
3.66223 -8.98967 6.01719 
3.54203 -8.98278 5.91914 
3.44308 -8.97871 5.90555 
3.32021 -8.97578 5.97702 
3.21785 -8.97537 6.12182 
3.09579 -8.97189 6.1695 
2.99611 -8.97055 6.27103 
2.87689 -8.96317 6.15098 
2.78167 -8.95885 6.12091 
2.65986 -8.95262 6.05319 
2.56108 -8.95168 6.17028 
2.43912 -8.94429 6.054 
2.34178 -8.93975 6.01815 
2.2197 -8.93423 5.98049 
2.12307 -8.92762 5.85698 
2.00041 -8.92366 5.88556 
1.90586 -8.91562 5.69888 
1.7836 -8.9114 5.71592 
1.68884 -8.90499 5.59762 
1.56671 -8.89946 5.55956 
1.46957 -8.89574 5.55787 
1.3467 -8.88924 5.48051 
1.24716 -8.88698 5.54354 
1.12556 -8.8807 5.47325 
1.02765 -8.87601 5.43223 
0.905633 -8.86997 5.37294 
0.804979 -8.86782 5.44227 
0.682823 -8.86172 5.38077 
0.582985 -8.85751 5.36255 
0.462808 -8.84955 5.21994 
0.363009 -8.84854 5.33591 
0.239696 -8.84425 5.35196 
0.142604 -8.84212 5.41663 
0.019747 -8.83568 5.34193 
-0.0785968 -8.83482 5.46147 
-0.203238 -8.83003 5.45875 
-0.301816 -8.82723 5.49774 
-0.42656 -8.82602 5.645 
-0.524061 -8.82257 5.65518 
-0.647429 -8.81797 5.65818 
-0.743901 -8.81817 5.81942 
-0.867125 -8.81427 5.85182 
-0.962128 -8.81736 6.13182 
-1.08542 -8.81097 6.05997 
-1.17909 -8.81368 6.32178 
-1.29915 -8.8132 6.49188 
-1.40171 -8.80767 6.42333 
-1.51574 -8.80628 6.54618 
-1.61913 -8.80328 6.58433 
-1.73006 -8.80357 6.77264 
-1.82977 -8.80176 6.85495 
-1.94783 -8.80169 7.03919 
-2.03922 -8.79983 7.10643 
-2.16568 -8.79596 7.14538 
-2.24954 -8.80165 7.51642 
-2.37379 -8.79899 7.60231 
-2.4647 -8.7974 7.68002 
-2.59107 -8.79139 7.62905 
-2.68452 -8.79354 7.86758 
-2.80029 -8.79139 7.96115 
-2.89797 -8.78938 8.03224 
-3.01516 -8.78308 7.95469 
-3.11746 -8.77888 7.94097 
-3.22953 -8.78006 8.16835 
-3.3255 -8.7774 8.20934 
-3.44738 -8.76979 8.0846 
-3.54284 -8.76709 8.12315 
-3.66717 -8.76298 8.14865 
-3.76092 -8.75719 8.0549 
-3.88655 -8.75111 7.99995 
-3.98155 -8.74532 7.90849 
-4.10638 -8.7399 7.88014 
-4.20587 -8.73181 7.69936 
-4.34132 -8.72084 7.45517 
-4.4445 -8.71161 7.23268 
-4.57269 -8.70501 7.1602 
-4.67667 -8.69545 6.92497 
-6.45076 -8.48324 0.859962 
-6.55179 -8.48137 0.942477 
-6.67939 -8.47592 0.916935 
-6.78196 -8.47298 0.957087 
-6.91837 -8.46344 0.774533 
-7.02182 -8.46041 0.811877 
-7.15946 -8.45103 0.638077 
-7.26607 -8.44671 0.626846 
-7.40021 -8.43816 0.481768 
-7.49871 -8.43641 0.565506 
-7.62843 -8.43177 0.577419 
-7.73025 -8.42829 0.593509 
-7.88786 -8.41217 0.169021 
-7.99201 -8.40767 0.146319 
-8.12645 -8.40205 0.124916 
-8.24214 -8.39304 -0.0685388 
-8.37742 -8.38742 -0.0884514 
3.99571 -8.95822 5.65378 
3.89183 -8.95837 5.82244 
3.76962 -8.95293 5.78904 
3.66829 -8.95084 5.8611 
3.54528 -8.94677 5.88535 
3.44351 -8.94588 6.0077 
3.31977 -8.94282 6.07461 
3.22268 -8.93786 6.02172 
3.09796 -8.93691 6.17754 
2.99929 -8.93403 6.21276 
2.87969 -8.92635 6.08286 
2.78006 -8.9254 6.19961 
2.66098 -8.91747 6.05811 
2.56231 -8.91535 6.12501 
2.44139 -8.90876 6.0423 
2.34461 -8.9045 6.01759 
2.22095 -8.89925 5.9942 
2.12684 -8.89083 5.79408 
2.00263 -8.88852 5.89281 
1.90756 -8.88068 5.71784 
1.78723 -8.87436 5.64538 
1.6895 -8.87125 5.66979 
1.56963 -8.86305 5.5187 
1.47206 -8.85945 5.52274 
1.34934 -8.85226 5.41819 
1.24995 -8.85191 5.55928 
1.12762 -8.84464 5.4504 
1.02755 -8.84286 5.53381 
0.907986 -8.83304 5.31528 
0.805879 -8.83127 5.40239 
0.685417 -8.82535 5.34626 
0.585321 -8.82161 5.3485 
0.464375 -8.81498 5.26414 
0.365781 -8.8118 5.28718 
0.242748 -8.80503 5.20032 
0.144786 -8.80431 5.32419 
0.0222819 -8.80064 5.36435 
-0.076844 -8.79898 5.45145 
-0.20137 -8.79379 5.43209 
-0.300771 -8.79494 5.6352 
-0.423768 -8.78911 5.58739 
-0.521627 -8.78827 5.70588 
-0.64465 -8.78376 5.71253 
-0.741896 -8.78367 5.86123 
-0.86498 -8.77861 5.84519 
-0.961133 -8.77997 6.05194 
-1.08466 -8.77459 6.02341 
-1.17976 -8.77451 6.16909 
-1.2997 -8.77406 6.33842 
-1.39749 -8.77062 6.35001 
-1.5166 -8.76661 6.37114 
-1.61359 -8.77021 6.67176 
-1.73258 -8.76614 6.6902 
-1.82907 -8.76561 6.81987 
-1.94656 -8.76566 7.00609 
-2.04567 -8.75688 6.79887 
-2.16637 -8.75735 7.00753 
-2.25157 -8.76398 7.4154 
-2.37447 -8.76081 7.47684 
-2.46231 -8.76398 7.74587 
-2.59097 -8.75513 7.58188 
-2.68738 -8.75311 7.65004 
-2.89619 -8.75162 7.91586 
-3.0134 -8.74818 7.95792 
-3.11418 -8.74391 7.93972 
-3.22846 -8.74162 8.02456 
-3.32283 -8.74353 8.25147 
-3.44551 -8.73593 8.13023 
-3.5389 -8.73312 8.16069 
-3.75977 -8.72206 8.0502 
-3.88239 -8.71917 8.12363 
-3.97816 -8.71252 7.99889 
-4.10533 -8.70236 7.77897 
-4.20595 -8.69401 7.59163 
-4.33671 -8.68544 7.44304 
-4.43905 -8.67835 7.31058 
-4.66606 -8.66438 7.09015 
-6.44315 -8.4491 0.98431 
-6.54789 -8.44454 0.960326 
-6.68062 -8.43699 0.856977 
-6.78831 -8.43181 0.81222 
-6.90723 -8.43005 0.926119 
-7.02564 -8.42006 0.699496 
-7.15117 -8.41566 0.71476 
-7.25651 -8.41185 0.723245 
-7.39062 -8.40422 0.61868 
-7.50567 -8.39529 0.430149 
-7.62329 -8.3959 0.64032 
-7.74341 -8.38469 0.366061 
-7.87742 -8.37905 0.34326 
-7.99159 -8.36942 0.124997 
-8.14379 -8.35693 -0.151945 
-8.23491 -8.35639 -0.0310765 
-8.37051 -8.35138 -0.025066 
4.23103 -8.92304 5.29787 
3.99572 -8.92329 5.67189 
3.8943 -8.92237 5.79086 
3.77445 -8.91579 5.70792 
3.66743 -8.91737 5.93782 
3.54867 -8.9104 5.83727 
3.44507 -8.91159 6.04592 
3.3193 -8.9085 6.11435 
3.22154 -8.90523 6.13214 
3.10185 -8.89891 6.0596 
3.0034 -8.89655 6.11541 
2.88375 -8.88984 6.02694 
2.78249 -8.8898 6.18191 
2.66376 -8.88336 6.10324 
2.56497 -8.87997 6.11789 
2.44294 -8.87353 6.04416 
2.3449 -8.87049 6.0718 
2.22251 -8.86482 6.02978 
2.1249 -8.85906 5.94599 
2.0041 -8.85387 5.92151 
1.90632 -8.85015 5.92096 
1.78592 -8.84044 5.71159 
1.69153 -8.8348 5.62751 
1.57076 -8.82814 5.54312 
1.47391 -8.82465 5.55044 
1.35083 -8.8193 5.52306 
1.25232 -8.81633 5.55452 
1.12981 -8.80824 5.41421 
1.02829 -8.80624 5.48995 
0.908783 -8.79844 5.35661 
0.810239 -8.79235 5.26113 
0.685978 -8.79123 5.40772 
0.588438 -8.78322 5.23214 
0.465418 -8.78192 5.3696 
0.366597 -8.779 5.40369 
0.243885 -8.77164 5.29362 
0.146249 -8.7712 5.42708 
0.0220488 -8.76574 5.39687 
-0.0738297 -8.76234 5.40674 
-0.199829 -8.75837 5.4401 
-0.298923 -8.75842 5.59545 
-0.4209 -8.7527 5.55128 
-0.522875 -8.75094 5.63748 
-0.64378 -8.7481 5.70909 
-0.741303 -8.74965 5.9236 
-0.863249 -8.74396 5.88039 
-0.961237 -8.74261 5.97708 
-1.08261 -8.74003 6.06009 
-1.17699 -8.7408 6.23766 
-1.30034 -8.73572 6.22176 
-1.39649 -8.73564 6.36783 
-1.51714 -8.72895 6.28175 
-1.61232 -8.73327 6.60595 
-1.72849 -8.73079 6.68483 
-1.82859 -8.72939 6.78279 
-1.94804 -8.72598 6.82889 
-2.03879 -8.72799 7.05185 
-2.16122 -8.72688 7.19653 
-2.24794 -8.73139 7.51487 
-2.37727 -8.72119 7.2997 
-2.46505 -8.72575 7.62165 
-2.58387 -8.72462 7.76014 
-2.68326 -8.7219 7.80318 
-2.89462 -8.71754 7.95336 
-3.01209 -8.71208 7.91307 
-3.11085 -8.71126 8.03273 
-3.23015 -8.70434 7.93552 
-3.32348 -8.70825 8.24027 
-3.44578 -8.70071 8.1223 
-3.53982 -8.69743 8.13466 
-3.75524 -8.68934 8.13899 
-3.88394 -8.68021 7.9664 
-3.97659 -8.67517 7.90458 
-4.09652 -8.66865 7.8246 
-4.20586 -8.65722 7.52808 
-4.33656 -8.6491 7.3996 
-4.43576 -8.64411 7.35028 
-4.66594 -8.62901 7.0917 
-6.30275 -8.4212 1.15393 
-6.44415 -8.41018 0.923783 
-6.55295 -8.40427 0.851631 
-6.78454 -8.39537 0.848476 
-6.91092 -8.39045 0.844167 
-7.02091 -8.38433 0.765462 
-7.15148 -8.37772 0.698444 
-7.25817 -8.37288 0.666919 
-7.40112 -8.36146 0.422953 
-7.50429 -8.35782 0.434638 
-7.61184 -8.36189 0.768171 
-7.73319 -8.35033 0.485066 
-7.8835 -8.33831 0.22788 
-7.99143 -8.33089 0.092811 
-8.13373 -8.3229 -0.0121005 
-8.22291 -8.32287 0.125482 
-8.37457 -8.31115 -0.117104 
4.23128 -8.88846 5.33309 
3.99849 -8.88757 5.6531 
3.89799 -8.88613 5.74894 
3.77403 -8.88086 5.726 
3.67395 -8.87994 5.84221 
3.54913 -8.87655 5.89645 
3.44801 -8.87471 5.97677 
3.32802 -8.8681 5.89407 
3.22642 -8.86723 6.01474 
3.10527 -8.8627 6.01746 
3.0038 -8.86273 6.17406 
2.88372 -8.85584 6.08001 
2.785 -8.85466 6.18356 
2.66601 -8.84772 6.0863 
2.56594 -8.84407 6.09236 
2.44491 -8.83801 6.03379 
2.34965 -8.83314 5.98341 
2.22827 -8.82491 5.83782 
2.1268 -8.82421 5.96475 
2.00671 -8.81726 5.86848 
1.90858 -8.8138 5.87945 
1.78909 -8.80319 5.63521 
1.69581 -8.79655 5.51081 
1.57226 -8.79309 5.56042 
1.47351 -8.79039 5.60276 
1.35256 -8.78305 5.49246 
1.25485 -8.78039 5.53489 
1.13075 -8.77394 5.46518 
1.03136 -8.76987 5.4535 
0.909919 -8.76319 5.37069 
0.810617 -8.75937 5.36862 
0.688385 -8.75494 5.37747 
0.588572 -8.75059 5.3554 
0.467612 -8.74506 5.3178 
0.367717 -8.74677 5.5398 
0.246091 -8.73549 5.27175 
0.148884 -8.73364 5.34624 
0.0243924 -8.73009 5.39427 
-0.0726 -8.72726 5.42857 
-0.197432 -8.72237 5.42305 
-0.296309 -8.71958 5.46231 
-0.419978 -8.71801 5.58838 
-0.519686 -8.71593 5.65765 
-0.642319 -8.7124 5.70319 
-0.740782 -8.71182 5.83078 
-0.862554 -8.70674 5.81308 
-0.960604 -8.70593 5.93051 
-1.08096 -8.70405 6.03936 
-1.17455 -8.70653 6.28274 
-1.29715 -8.70253 6.30976 
-1.3947 -8.69759 6.26041 
-1.51324 -8.69605 6.37994 
-1.61188 -8.69915 6.65611 
-1.72795 -8.69589 6.70292 
-1.83162 -8.68812 6.54909 
-1.94829 -8.68923 6.77245 
-2.03618 -8.69263 7.04444 
-2.1642 -8.68453 6.91446 
-2.24552 -8.69574 7.49112 
-2.37681 -8.68693 7.33733 
-2.46282 -8.68996 7.59138 
-2.5855 -8.68689 7.65612 
-2.79637 -8.68328 7.83443 
-2.89341 -8.68238 7.94715 
-3.0107 -8.67616 7.8765 
-3.10504 -8.67809 8.09926 
-3.22725 -8.66961 7.945 
-3.32142 -8.67266 8.21241 
-3.44271 -8.66738 8.18604 
-3.53847 -8.6648 8.22913 
-3.7578 -8.65005 7.97156 
-3.88376 -8.64275 7.87087 
-3.97175 -8.64558 8.12004 
-4.09666 -8.6362 7.93405 
-4.20245 -8.62446 7.62313 
-4.33556 -8.61427 7.41694 
-4.43344 -8.60759 7.29835 
-4.67059 -8.59031 6.96615 
-6.29632 -8.3861 1.23438 
-6.43877 -8.37459 0.989463 
-6.54137 -8.37144 1.02017 
-6.79006 -8.35487 0.734817 
-6.91963 -8.34888 0.692279 
-7.01524 -8.34887 0.838863 
-7.14511 -8.34222 0.770447 
-7.26229 -8.33287 0.573749 
-7.39074 -8.32749 0.554628 
-7.49629 -8.32343 0.553218 
-7.73368 -8.31183 0.45065 
-7.88972 -8.29721 0.101301 
-7.98146 -8.29694 0.231613 
-8.12967 -8.28579 0.00991857 
-8.23079 -8.28189 0.0084767 
-8.35797 -8.27893 0.0847037 
4.23765 -8.85074 5.23366 
4.0003 -8.85241 5.65893 
3.89873 -8.84948 5.69598 
3.77723 -8.84505 5.70321 
3.67401 -8.84546 5.87565 
3.55108 -8.84065 5.87051 
3.44963 -8.83964 5.98357 
3.32483 -8.83681 6.06013 
3.2286 -8.83211 6.01873 
3.10597 -8.82727 6.01183 
3.00665 -8.8269 6.14712 
2.88566 -8.82072 6.0844 
2.78777 -8.81908 6.16756 
2.66767 -8.81247 6.08628 
2.56828 -8.81057 6.16123 
2.44645 -8.80221 6.01323 
2.3514 -8.79874 6.01889 
2.22698 -8.79392 6.01539 
2.12998 -8.7872 5.89516 
2.00862 -8.78113 5.83754 
1.91163 -8.77685 5.81399 
1.79114 -8.76792 5.64151 
1.69522 -8.76357 5.61352 
1.57368 -8.75824 5.58573 
1.47598 -8.75352 5.54575 
1.35303 -8.74738 5.48777 
1.25553 -8.74415 5.50722 
1.13357 -8.73791 5.44352 
1.03349 -8.73401 5.44001 
0.912102 -8.72885 5.41851 
0.81317 -8.72334 5.34953 
0.690411 -8.71852 5.34363 
0.59092 -8.7137 5.30285 
0.469236 -8.70931 5.3126 
0.370521 -8.70594 5.32814 
0.247822 -8.70154 5.33873 
0.150093 -8.69771 5.33465 
0.0263171 -8.69421 5.3832 
-0.0710665 -8.68976 5.35365 
-0.19511 -8.68861 5.49602 
-0.29459 -8.68532 5.5157 
-0.417967 -8.68199 5.57051 
-0.516228 -8.68273 5.74872 
-0.640179 -8.6768 5.70081 
-0.738164 -8.67846 5.91535 
-0.861052 -8.67076 5.79549 
-0.95727 -8.67253 6.01159 
-1.07851 -8.67083 6.12801 
-1.17326 -8.6728 6.35008 
-1.29817 -8.66337 6.16422 
-1.3945 -8.66377 6.32658 
-1.51123 -8.66054 6.37517 
-1.61145 -8.66354 6.64619 
-1.72709 -8.65915 6.64722 
-1.83016 -8.65253 6.5403 
-1.94571 -8.655 6.81367 
-2.03155 -8.66119 7.19011 
-2.15619 -8.65706 7.2151 
-2.24137 -8.66388 7.61575 
-2.37223 -8.65489 7.45668 
