ply
format ascii 1.0
element vertex 1797
property float x
property float y
property float z
end_header
-4.58085 -4.13488 7.35433 
-4.67621 -4.12894 7.32887 
-4.80564 -4.12097 7.29603 
-4.88221 -4.13801 7.61663 
-5.00604 -4.13468 7.65237 
-5.09059 -4.14655 7.89791 
-5.20742 -4.14576 7.96817 
-5.31022 -4.13778 7.91633 
3.05391 -4.01302 0.638052 
2.80431 -4.04155 1.25708 
2.37179 -4.28319 5.32019 
2.23768 -4.30017 5.67847 
2.13632 -4.30395 5.80862 
2.01564 -4.28985 5.6741 
1.79241 -4.29358 5.8891 
1.68417 -4.31292 6.26608 
1.56328 -4.31215 6.33905 
1.46383 -4.31246 6.41371 
1.34094 -4.30265 6.34757 
1.24253 -4.31962 6.68085 
1.11819 -4.30197 6.4937 
1.02065 -4.30812 6.65794 
0.800167 -4.30854 6.81952 
0.678089 -4.30168 6.79877 
0.58004 -4.28127 6.5502 
0.462213 -4.27836 6.58784 
0.359864 -4.27596 6.62245 
0.242469 -4.27176 6.63965 
0.141286 -4.27077 6.69553 
-0.0756341 -4.25095 6.53974 
-0.201416 -4.25256 6.65339 
-0.29844 -4.23831 6.49985 
-0.423112 -4.23337 6.5108 
-0.521996 -4.21197 6.24744 
-0.644868 -4.21521 6.38434 
-0.743609 -4.20136 6.23831 
-0.867655 -4.19934 6.29434 
-0.965123 -4.17591 5.99837 
-1.08629 -4.18688 6.2544 
-1.187 -4.16421 5.97247 
-1.30813 -4.15012 5.83857 
-1.4089 -4.13943 5.74326 
-1.53124 -4.13373 5.74077 
-1.63325 -4.13065 5.76464 
-1.75458 -4.12348 5.73853 
-1.85254 -4.11984 5.75085 
-1.97834 -4.10801 5.65544 
-2.07532 -4.10363 5.65558 
-2.2014 -4.09687 5.63916 
-2.29902 -4.0974 5.71616 
-2.42298 -4.09219 5.72255 
-2.52304 -4.0842 5.66875 
-2.6471 -4.08286 5.73524 
-2.7423 -4.08268 5.7996 
-2.87067 -4.06673 5.64177 
-2.9644 -4.07071 5.76973 
-3.09145 -4.05869 5.67224 
-3.18384 -4.0702 5.91649 
-3.305 -4.06489 5.91931 
-3.40533 -4.06228 5.94945 
-3.5227 -4.06668 6.10071 
-3.62009 -4.0718 6.24897 
-3.74303 -4.06191 6.18179 
-3.83322 -4.075 6.44916 
-3.95583 -4.06732 6.41602 
-4.0416 -4.08085 6.68714 
-4.16422 -4.07924 6.74858 
-4.24832 -4.09309 7.02343 
-4.36855 -4.09562 7.14764 
-4.46391 -4.08826 7.10036 
-4.58207 -4.09401 7.27314 
-4.66594 -4.10574 7.51488 
-4.80377 -4.08355 7.26676 
-4.87664 -4.10857 7.70757 
-5.00289 -4.10138 7.68491 
-5.09084 -4.10689 7.83263 
-5.20853 -4.10737 7.92326 
3.04982 -3.9887 0.84121 
2.24884 -4.24259 5.33258 
2.14164 -4.25831 5.65108 
2.01725 -4.25368 5.66652 
1.79001 -4.27055 6.08678 
1.68538 -4.28649 6.40688 
1.56603 -4.27126 6.25472 
1.46604 -4.27833 6.43431 
1.34068 -4.28008 6.54917 
1.2449 -4.27583 6.55047 
1.11932 -4.26753 6.51009 
1.02192 -4.27831 6.7451 
0.802053 -4.26575 6.70477 
0.679681 -4.2566 6.64891 
0.582557 -4.25351 6.66915 
0.464429 -4.25537 6.78082 
0.360563 -4.24217 6.64924 
0.244439 -4.2454 6.78071 
0.141961 -4.22999 6.61395 
-0.0734929 -4.22037 6.61596 
-0.199465 -4.21344 6.59702 
-0.294897 -4.20432 6.52278 
-0.42136 -4.19721 6.5014 
-0.519504 -4.17945 6.29523 
-0.644176 -4.18118 6.40948 
-0.742882 -4.15864 6.1297 
-0.863943 -4.17324 6.4407 
-0.963742 -4.14418 6.06077 
-1.08724 -4.14011 6.0844 
-1.18542 -4.12502 5.91963 
-1.30721 -4.12364 5.98361 
-1.40716 -4.1048 5.76201 
-1.52933 -4.10739 5.88788 
-1.63175 -4.09034 5.69576 
-1.75267 -4.09153 5.79912 
-1.85145 -4.0815 5.71301 
-1.97513 -4.08188 5.80577 
-2.07329 -4.071 5.70628 
-2.20016 -4.06123 5.64402 
-2.29795 -4.05798 5.66228 
-2.42146 -4.05311 5.67361 
-2.52112 -4.04648 5.64089 
-2.7399 -4.04861 5.82748 
-2.86801 -4.0358 5.71902 
-2.96319 -4.03291 5.74123 
-3.0883 -4.02649 5.72967 
-3.18072 -4.03647 5.94916 
-3.30186 -4.03359 5.98961 
-3.40399 -4.03422 6.07108 
-3.62011 -4.03498 6.23476 
-3.73528 -4.03462 6.30998 
-3.83628 -4.0313 6.32959 
-3.95619 -4.02794 6.36184 
-4.03864 -4.04736 6.72043 
-4.17108 -4.02954 6.5376 
-4.24898 -4.05101 6.92483 
-4.36633 -4.06004 7.14717 
-4.45282 -4.06816 7.3338 
-4.58601 -4.05062 7.15576 
-4.66684 -4.06548 7.44273 
-4.79779 -4.05258 7.33505 
-4.87618 -4.07049 7.66747 
-5.0041 -4.06206 7.62685 
-5.21454 -4.06308 7.79069 
2.81121 -3.96112 1.1559 
2.23771 -4.23555 5.78422 
2.14235 -4.2255 5.69592 
1.79144 -4.23838 6.13926 
1.68619 -4.25212 6.42446 
1.56878 -4.23168 6.19148 
1.4679 -4.24166 6.41564 
1.34346 -4.23823 6.44968 
1.2471 -4.23261 6.43037 
1.12241 -4.23259 6.51722 
1.02415 -4.23504 6.62348 
0.899041 -4.23442 6.70137 
0.803188 -4.23021 6.70351 
0.681208 -4.22744 6.746 
0.584474 -4.21218 6.57836 
0.465871 -4.21043 6.63422 
0.362867 -4.20517 6.62522 
0.244709 -4.19703 6.58231 
0.144075 -4.20002 6.69869 
0.022905 -4.19282 6.67243 
-0.0726259 -4.18611 6.63578 
-0.19807 -4.17593 6.56648 
-0.293601 -4.16905 6.52734 
-0.419428 -4.15993 6.47472 
-0.518488 -4.14418 6.30122 
-0.642212 -4.14563 6.41011 
-0.739434 -4.13413 6.30079 
-0.862182 -4.13719 6.43374 
-0.961185 -4.11471 6.15649 
-1.08336 -4.11368 6.22609 
-1.18222 -4.10001 6.08455 
-1.30454 -4.0878 5.98184 
-1.40558 -4.06955 5.77135 
-1.52764 -4.06142 5.73145 
-1.63037 -4.05685 5.73279 
-1.7509 -4.05518 5.79137 
-1.85032 -4.04289 5.67148 
-1.97371 -4.04321 5.76277 
-2.07247 -4.03429 5.69436 
-2.19772 -4.02726 5.6736 
-2.29772 -4.02047 5.6389 
-2.41959 -4.019 5.70159 
-2.51932 -4.01 5.6326 
-2.74038 -4.00531 5.71493 
-2.86457 -4.00364 5.77607 
-2.95809 -4.01032 5.94454 
-3.08638 -3.99186 5.74984 
-3.18216 -3.99612 5.88249 
-3.30229 -3.99114 5.88992 
-3.4012 -3.99571 6.02949 
-3.62204 -3.99507 6.17425 
-3.73701 -3.993 6.22287 
-3.83168 -4.00002 6.39728 
-3.95464 -3.99166 6.35461 
-4.03699 -4.01183 6.72306 
-4.16516 -3.99972 6.62628 
-4.24621 -4.01574 6.92984 
-4.3723 -4.01364 6.98592 
-4.45177 -4.02854 7.27109 
-4.5815 -4.02114 7.24794 
-4.66408 -4.03023 7.44599 
-4.78893 -4.02903 7.5149 
-4.87686 -4.03173 7.61809 
-5.00473 -4.02368 7.58369 
-5.08459 -4.03973 7.88709 
-5.21302 -4.02732 7.7857 
3.1781 -3.93274 1.03493 
3.05908 -3.90756 0.731659 
2.80725 -3.93714 1.36011 
2.37517 -4.17979 5.38111 
2.26541 -4.14351 4.9012 
2.14298 -4.19315 5.74753 
2.02825 -4.16215 5.3519 
1.79712 -4.18802 5.90939 
1.69077 -4.20636 6.26459 
1.56927 -4.20241 6.28853 
1.46908 -4.21062 6.48413 
1.34668 -4.19847 6.38294 
1.24781 -4.20503 6.55243 
1.12369 -4.19718 6.51836 
1.02485 -4.20585 6.7201 
0.900503 -4.19846 6.69326 
0.805222 -4.20007 6.78434 
0.683194 -4.19012 6.71662 
0.586424 -4.18875 6.76293 
0.467087 -4.16813 6.52993 
0.365126 -4.16404 6.53815 
0.24703 -4.17206 6.74332 
0.146034 -4.15993 6.62756 
0.0258919 -4.15753 6.67446 
-0.0703941 -4.15079 6.63814 
-0.196368 -4.1416 6.58495 
-0.293138 -4.12828 6.44811 
-0.41848 -4.1247 6.48042 
-0.516233 -4.11877 6.45753 
-0.639789 -4.11185 6.43751 
-0.738068 -4.09996 6.32365 
-0.860229 -4.09704 6.36391 
-0.959034 -4.07936 6.16152 
-1.08377 -4.06904 6.09026 
-1.18089 -4.06052 6.02724 
-1.30408 -4.0537 6.00839 
-1.4046 -4.03154 5.73857 
-1.52577 -4.03266 5.84022 
-1.62898 -4.02589 5.80831 
-1.7488 -4.0244 5.86894 
-1.84723 -4.01324 5.76634 
-1.97179 -4.00945 5.795 
-2.07116 -3.99336 5.6176 
-2.19596 -3.99276 5.69535 
-2.29571 -3.98297 5.61479 
-2.41765 -3.98339 5.70613 
-2.51869 -3.97148 5.59398 
-2.64148 -3.97347 5.71008 
-2.73759 -3.97479 5.79737 
-2.86527 -3.96165 5.68479 
-2.95923 -3.96324 5.77473 
-3.08346 -3.9602 5.81467 
-3.18105 -3.95423 5.79121 
-3.30298 -3.94988 5.80952 
-3.40192 -3.95645 5.9793 
-3.5143 -3.96749 6.22699 
-3.624 -3.95048 6.04274 
-3.73928 -3.95204 6.14698 
-3.83689 -3.95308 6.23106 
-3.9546 -3.9527 6.30735 
-4.04166 -3.9667 6.58282 
-4.16408 -3.96277 6.60807 
-4.24263 -3.9835 6.98088 
-4.37238 -3.97556 6.94957 
-4.44701 -3.99867 7.35623 
-4.58384 -3.98042 7.17168 
-4.66192 -3.99654 7.47344 
-4.79365 -3.98554 7.39681 
-4.88215 -3.98821 7.49954 
-4.99967 -3.99432 7.67522 
-5.20237 -4.0031 7.95149 
3.0548 -3.87801 0.852021 
2.9429 -3.89368 1.16852 
2.81554 -3.88658 1.1485 
2.15259 -4.13786 5.44231 
2.02236 -4.14664 5.66664 
1.79751 -4.15772 5.99156 
1.69117 -4.1758 6.34115 
1.57152 -4.15868 6.16275 
1.47084 -4.17495 6.48096 
1.34652 -4.17079 6.50366 
1.25142 -4.16103 6.4206 
1.12406 -4.16646 6.59175 
1.0271 -4.16318 6.60896 
0.902135 -4.16544 6.73008 
0.807498 -4.15383 6.61856 
0.684248 -4.15234 6.68129 
0.588954 -4.13515 6.48508 
0.467782 -4.13654 6.59024 
0.367026 -4.12921 6.54826 
0.249278 -4.13016 6.64454 
0.148337 -4.13109 6.72874 
0.0273336 -4.12145 6.66557 
-0.0685871 -4.12024 6.71355 
-0.194881 -4.10601 6.58402 
-0.291031 -4.09573 6.49389 
-0.416613 -4.0922 6.52719 
-0.514185 -4.08091 6.4225 
-0.640197 -4.06858 6.3218 
-0.735453 -4.06529 6.3377 
-0.860467 -4.05916 6.3309 
-0.957695 -4.04032 6.11077 
-1.07779 -4.05035 6.34724 
-1.18022 -4.01624 5.89775 
-1.30154 -4.01494 5.96221 
-1.40217 -4.00229 5.83894 
-1.52348 -4.00253 5.92683 
-1.62608 -3.99054 5.81512 
-1.74684 -3.98676 5.8413 
-1.84551 -3.9774 5.76685 
-1.97007 -3.97456 5.81009 
-2.06886 -3.95939 5.64704 
-2.19446 -3.95675 5.69402 
-2.29342 -3.95124 5.67859 
-2.41767 -3.94167 5.61883 
-2.51644 -3.93951 5.65457 
-2.73537 -3.9407 5.82479 
-2.86526 -3.92069 5.60969 
-2.95805 -3.92529 5.74431 
-3.08351 -3.91884 5.73309 
-3.18102 -3.91406 5.7279 
-3.29923 -3.92111 5.91757 
-3.39814 -3.92286 6.01303 
-3.61492 -3.92685 6.22466 
-3.73616 -3.91847 6.18105 
-3.83109 -3.92445 6.33837 
-3.9507 -3.92207 6.38519 
-4.0376 -3.93428 6.63197 
-4.16502 -3.92289 6.5467 
-4.24395 -3.94532 6.94395 
-4.37914 -3.92411 6.71419 
-4.44627 -3.96223 7.34288 
-4.58416 -3.94197 7.12942 
-4.66454 -3.95613 7.40154 
-4.79117 -3.95248 7.43401 
-4.87953 -3.95581 7.54628 
-5.00105 -3.95543 7.62495 
-5.08758 -3.96316 7.80328 
-5.2161 -3.9492 7.67959 
3.18963 -3.84236 0.782614 
3.06385 -3.82241 0.566338 
2.94339 -3.85797 1.18949 
2.81601 -3.85195 1.18608 
2.57458 -3.87894 1.7626 
2.15072 -4.11146 5.58678 
1.79968 -4.12121 5.97731 
1.69285 -4.14107 6.35282 
1.57535 -4.11804 6.0842 
1.47339 -4.13111 6.35307 
1.3481 -4.13561 6.50794 
1.25175 -4.12668 6.43887 
1.12671 -4.12545 6.50663 
1.02905 -4.12845 6.61968 
0.903864 -4.13085 6.74271 
0.809063 -4.11985 6.64102 
0.68621 -4.11466 6.64719 
0.587859 -4.12041 6.80241 
0.470433 -4.10419 6.63728 
0.36815 -4.10615 6.73769 
0.25019 -4.09144 6.59591 
0.149392 -4.09087 6.65693 
0.0291091 -4.08006 6.57583 
-0.0673621 -4.07451 6.55829 
-0.193632 -4.07043 6.58355 
-0.28907 -4.05731 6.45028 
-0.415557 -4.04734 6.3862 
-0.511611 -4.04913 6.47985 
-0.636742 -4.03563 6.36136 
-0.733398 -4.03151 6.36558 
-0.859021 -4.01982 6.27495 
-0.955997 -4.00799 6.16237 
-1.07781 -4.00915 6.26414 
-1.1775 -3.98311 5.93754 
-1.29965 -3.96884 5.80525 
-1.40031 -3.96261 5.78037 
-1.52193 -3.9598 5.82177 
-1.62421 -3.95579 5.83164 
-1.74428 -3.94908 5.8128 
-1.84454 -3.93884 5.72661 
-1.96902 -3.93214 5.71089 
-2.06889 -3.92505 5.6724 
-2.1918 -3.92373 5.73734 
-2.29106 -3.91668 5.69899 
-2.41637 -3.90587 5.62147 
-2.51561 -3.90072 5.61204 
-2.7333 -3.90737 5.86375 
-2.86287 -3.88715 5.64621 
-2.9562 -3.88984 5.75171 
-3.08421 -3.87518 5.61771 
-3.17471 -3.89339 5.957 
-3.29823 -3.88092 5.85301 
-3.39737 -3.88303 5.95386 
-3.61602 -3.88818 6.18343 
-3.73468 -3.8814 6.16269 
-3.82911 -3.88894 6.34264 
-3.95016 -3.88356 6.34476 
-4.03931 -3.89293 6.54887 
-4.16392 -3.88671 6.54079 
-4.23913 -3.9158 7.0349 
-4.36539 -3.90606 6.97435 
-4.4473 -3.92415 7.30602 
-4.58115 -3.90933 7.17361 
-4.65799 -3.92523 7.46843 
-4.79482 -3.91163 7.35677 
-4.87615 -3.92378 7.59769 
-4.99529 -3.92489 7.69721 
-5.20292 -3.92729 7.87755 
3.18684 -3.81338 0.909126 
3.05549 -3.80681 0.900152 
2.94833 -3.81721 1.13094 
2.25461 -4.07236 5.46515 
2.15131 -4.07867 5.63163 
2.02673 -4.07414 5.64897 
1.80351 -4.07405 5.80118 
1.69481 -4.10613 6.36099 
1.57924 -4.07401 5.95498 
1.47525 -4.09587 6.35694 
1.352 -4.08874 6.33406 
1.25459 -4.0973 6.53054 
1.12903 -4.09434 6.57229 
1.03061 -4.10048 6.7328 
0.905756 -4.09253 6.69867 
0.811567 -4.08303 6.61995 
0.688377 -4.08214 6.69134 
0.590665 -4.07227 6.60937 
0.47269 -4.06669 6.6062 
0.370414 -4.05933 6.56546 
0.252737 -4.06046 6.66366 
0.15073 -4.05379 6.63298 
0.0308984 -4.05065 6.66807 
-0.0650972 -4.03986 6.57111 
-0.19112 -4.04249 6.69779 
-0.287607 -4.02127 6.44344 
-0.41265 -4.01543 6.44133 
-0.510323 -4.01219 6.45957 
-0.636696 -4.00167 6.38764 
-0.731921 -3.99404 6.3379 
-0.855851 -3.98633 6.30674 
-0.954606 -3.96785 6.09548 
-1.07669 -3.97058 6.22091 
-1.17532 -3.95026 5.98156 
-1.29776 -3.94171 5.93673 
-1.40028 -3.93222 5.86392 
-1.52091 -3.92727 5.87227 
-1.62333 -3.91631 5.7772 
-1.74396 -3.91146 5.78701 
-1.84234 -3.90413 5.74403 
-1.9671 -3.89659 5.71613 
-2.06579 -3.89295 5.72908 
-2.19014 -3.88702 5.72524 
-2.29027 -3.87547 5.61972 
-2.41397 -3.86988 5.62052 
-2.51261 -3.87018 5.693 
-2.7336 -3.86491 5.76582 
-2.86095 -3.84904 5.61382 
-2.9553 -3.85056 5.7018 
-3.07891 -3.85044 5.78531 
-3.17426 -3.85149 5.86707 
-3.29771 -3.84153 5.80155 
-3.39313 -3.85159 6.01962 
-3.61225 -3.85543 6.22887 
-3.73628 -3.84079 6.09308 
-3.82511 -3.85757 6.40827 
-3.9496 -3.84632 6.324 
-4.03427 -3.86316 6.63717 
-4.16129 -3.8531 6.5728 
-4.23811 -3.87799 7.00222 
-4.36533 -3.86995 6.96842 
-4.44327 -3.88786 7.29311 
-4.57412 -3.88128 7.28398 
-4.65561 -3.89037 7.4778 
-4.78825 -3.87962 7.40687 
-4.86041 -3.90629 7.86011 
-4.99199 -3.89157 7.72839 
-5.20497 -3.88739 7.81229 
3.55322 -3.73251 0.000743141 
3.29962 -3.76105 0.604015 
3.18965 -3.77692 0.918059 
3.06586 -3.75364 0.652709 
2.94372 -3.79416 1.34606 
2.81296 -3.79232 1.408 
2.58283 -3.79101 1.54598 
1.80931 -4.02682 5.62436 
1.69912 -4.0636 6.25328 
1.57834 -4.04991 6.13018 
1.47708 -4.05882 6.33371 
1.3529 -4.06216 6.46919 
1.25516 -4.06017 6.5063 
1.12967 -4.05736 6.55009 
1.03262 -4.05564 6.59082 
0.909683 -4.05169 6.61567 
0.813938 -4.04229 6.54004 
0.68992 -4.04969 6.73649 
0.591734 -4.03725 6.61663 
0.474479 -4.03481 6.66051 
0.371982 -4.02618 6.60095 
0.253568 -4.02186 6.61719 
0.152024 -4.01665 6.60857 
0.0320244 -4.01361 6.64515 
-0.0637771 -4.0082 6.62956 
-0.189506 -4.00132 6.6124 
-0.286341 -3.98372 6.41398 
-0.411115 -3.97789 6.41204 
-0.508524 -3.97659 6.45938 
-0.634962 -3.96777 6.4134 
-0.729812 -3.96555 6.44524 
-0.854788 -3.9546 6.3662 
-0.950556 -3.94939 6.35357 
-1.07411 -3.93879 6.27907 
-1.17415 -3.91187 5.94267 
-1.29405 -3.91683 6.09962 
-1.39954 -3.90221 5.95217 
-1.51921 -3.89226 5.88467 
-1.62245 -3.87307 5.66674 
-1.84087 -3.86673 5.72153 
-1.96526 -3.86506 5.78174 
-2.06489 -3.85261 5.66293 
-2.1892 -3.84559 5.64266 
-2.28825 -3.83703 5.58196 
-2.41202 -3.83774 5.6777 
-2.51135 -3.83222 5.66292 
-2.73189 -3.82618 5.72365 
-2.85871 -3.81878 5.69959 
-2.95402 -3.81596 5.72265 
-3.07914 -3.80751 5.68157 
-3.17646 -3.80209 5.66686 
-3.29747 -3.80073 5.72969 
-3.39206 -3.8173 6.04404 
-3.51035 -3.81638 6.11152 
-3.61087 -3.8166 6.18408 
-3.73462 -3.80593 6.10855 
-3.82997 -3.81049 6.24279 
-3.94892 -3.80979 6.3142 
-4.04059 -3.81384 6.43824 
-4.15525 -3.82558 6.69373 
-4.3644 -3.83418 6.9671 
-4.44426 -3.8474 7.22109 
-4.57255 -3.84472 7.26914 
-4.65611 -3.85137 7.42669 
-4.789 -3.83823 7.32038 
-4.87409 -3.85081 7.56833 
-4.99435 -3.85018 7.64164 
-5.20414 -3.85099 7.79842 
-5.29793 -3.85391 7.90694 
3.28726 -3.75311 1.05177 
3.19028 -3.73969 0.916984 
3.04747 -3.75497 1.24334 
2.95155 -3.74861 1.21358 
2.82304 -3.73641 1.11875 
2.70911 -3.76342 1.60102 
2.57942 -3.7654 1.71921 
1.80955 -4.00001 5.75873 
1.70084 -4.01756 6.09581 
1.57916 -4.01638 6.1613 
1.47949 -4.01704 6.23933 
1.35613 -4.01567 6.30314 
1.25931 -4.0129 6.32792 
1.13347 -4.01321 6.4186 
1.03559 -4.01388 6.49559 
0.910908 -4.01231 6.55733 
0.815086 -4.00799 6.55818 
0.691024 -4.00888 6.65644 
0.59503 -3.99806 6.55997 
0.476345 -4.0027 6.7106 
0.374058 -3.98957 6.58397 
0.255887 -3.98079 6.53341 
0.153631 -3.97816 6.56386 
0.0333792 -3.97758 6.63754 
-0.0610958 -3.9761 6.68 
-0.187741 -3.97011 6.67695 
-0.28541 -3.95 6.4426 
-0.409452 -3.94099 6.39259 
-0.507895 -3.93608 6.38636 
-0.632183 -3.93445 6.44708 
-0.728499 -3.92112 6.31325 
-0.8551 -3.91628 6.32743 
-0.951662 -3.89494 6.0739 
-1.07238 -3.90334 6.2824 
-1.1727 -3.87933 5.99146 
-1.29337 -3.87316 5.98171 
-1.39647 -3.85921 5.84332 
-1.51676 -3.85488 5.86076 
-1.61851 -3.84971 5.85304 
-1.83883 -3.83318 5.75642 
-1.96327 -3.83064 5.80357 
-2.06087 -3.8211 5.72743 
-2.18804 -3.80731 5.60797 
-2.28719 -3.80321 5.61458 
-2.4116 -3.80014 5.65374 
-2.51099 -3.79049 5.57732 
-2.73049 -3.7882 5.69337 
-2.85603 -3.78549 5.7388 
-2.95152 -3.78245 5.75884 
-3.07729 -3.77203 5.68883 
-3.17474 -3.76688 5.67852 
-3.29437 -3.76899 5.79219 
-3.39097 -3.77497 5.94787 
-3.51082 -3.77902 6.09076 
-3.61159 -3.77856 6.153 
-3.73481 -3.76404 6.01995 
-3.82411 -3.78201 6.3504 
-3.94766 -3.77325 6.30382 
-4.02798 -3.79664 6.70922 
-4.15735 -3.78265 6.5885 
-4.23879 -3.79909 6.8905 
-4.36634 -3.79245 6.87855 
-4.44443 -3.81547 7.27701 
-4.571 -3.80811 7.25362 
-4.65412 -3.82153 7.51171 
-4.78691 -3.80547 7.36221 
-4.87129 -3.81634 7.58293 
-4.99521 -3.81162 7.59724 
-5.19557 -3.82496 7.93457 
3.31026 -3.67854 0.478201 
3.1878 -3.71085 1.04308 
3.07383 -3.67358 0.565208 
2.95125 -3.71114 1.20846 
2.82259 -3.70615 1.22156 
2.58388 -3.72332 1.64002 
1.80991 -3.96783 5.8117 
1.70289 -3.97954 6.05915 
1.58404 -3.97123 6.0163 
1.48114 -3.98231 6.2516 
1.3594 -3.96862 6.13048 
1.25987 -3.98714 6.47436 
1.13512 -3.98016 6.45527 
1.03723 -3.98197 6.54902 
0.91224 -3.97668 6.55543 
0.817011 -3.96973 6.51662 
0.693848 -3.96088 6.46875 
0.597203 -3.95512 6.44871 
0.476695 -3.96236 6.63875 
0.376302 -3.95112 6.53969 
0.256461 -3.9534 6.65533 
0.157029 -3.94819 6.64557 
0.0352706 -3.94036 6.61182 
-0.0597083 -3.94248 6.70815 
-0.185717 -3.93815 6.72954 
-0.283122 -3.92056 6.53381 
-0.408146 -3.90716 6.41924 
-0.504523 -3.90954 6.52052 
-0.630177 -3.89201 6.34492 
-0.72585 -3.89515 6.45688 
-0.850763 -3.88235 6.35131 
-0.947946 -3.87119 6.25132 
-1.06993 -3.87105 6.33233 
-1.17033 -3.85155 6.11025 
-1.29306 -3.83935 6.01205 
-1.39431 -3.82424 5.8559 
-1.51468 -3.8271 5.98058 
-1.6172 -3.81183 5.82294 
-1.83771 -3.79454 5.71573 
-1.9619 -3.79208 5.76373 
-2.06133 -3.77912 5.63841 
-2.18556 -3.77573 5.67265 
-2.28683 -3.75956 5.50072 
-2.4108 -3.75598 5.53203 
-2.50821 -3.75776 5.62511 
-2.73026 -3.74684 5.61388 
-2.85438 -3.7471 5.70249 
-2.95022 -3.74458 5.7304 
-3.07532 -3.73672 5.69859 
-3.17178 -3.73525 5.74268 
-3.29264 -3.73351 5.79926 
-3.38874 -3.73936 5.95211 
-3.50895 -3.74535 6.12358 
-3.61118 -3.74176 6.13985 
-3.72576 -3.74397 6.25102 
-3.82621 -3.73972 6.25629 
-3.95376 -3.72504 6.12464 
-4.02876 -3.75672 6.64829 
-4.15968 -3.74051 6.49599 
-4.23361 -3.77136 7.00656 
-4.36253 -3.75795 6.89468 
-4.44232 -3.77814 7.25031 
-4.57811 -3.7579 7.04138 
-4.65841 -3.77739 7.38695 
-4.78583 -3.77006 7.3648 
-4.86439 -3.78672 7.66685 
-4.99132 -3.77946 7.64546 
-5.07952 -3.7823 7.74812 
-5.19635 -3.78631 7.88783 
3.52326 -3.69738 1.16683 
3.19733 -3.66132 0.852992 
3.07485 -3.63855 0.598282 
2.94521 -3.69344 1.50052 
2.82336 -3.66723 1.19433 
2.70639 -3.69625 1.70431 
2.59157 -3.67493 1.46586 
1.81204 -3.93146 5.80092 
1.70436 -3.94354 6.05328 
1.58462 -3.94305 6.1274 
1.48355 -3.9401 6.15229 
1.36204 -3.92937 6.07554 
1.26308 -3.9424 6.33607 
1.13734 -3.93643 6.33282 
1.03919 -3.94714 6.55843 
0.914443 -3.93622 6.48116 
0.818106 -3.94285 6.64502 
0.695574 -3.92667 6.48815 
0.598982 -3.92546 6.53577 
0.479252 -3.93005 6.68524 
0.376481 -3.926 6.69506 
0.259796 -3.9213 6.70447 
0.158896 -3.91453 6.67268 
0.0375954 -3.90827 6.66225 
-0.0581214 -3.90526 6.68253 
-0.184159 -3.89946 6.68215 
-0.280604 -3.88433 6.52322 
-0.405986 -3.87375 6.4514 
-0.503039 -3.86899 6.44681 
-0.628969 -3.85714 6.35652 
-0.724365 -3.85926 6.45283 
-0.848445 -3.8529 6.44285 
-0.947663 -3.82581 6.10826 
-1.06869 -3.83342 6.30348 
-1.16948 -3.81015 6.0268 
-1.2883 -3.81221 6.1382 
-1.39257 -3.78817 5.85233 
-1.51364 -3.78977 5.9584 
-1.61519 -3.7829 5.92546 
-1.73748 -3.76856 5.79587 
-1.8339 -3.77086 5.89562 
-1.9598 -3.7615 5.84241 
-2.05883 -3.74621 5.68289 
-2.1835 -3.74252 5.71292 
-2.28374 -3.73167 5.62007 
-2.4082 -3.72629 5.62489 
-2.50737 -3.71795 5.56859 
-2.72703 -3.71773 5.71481 
-2.85168 -3.71274 5.72559 
-2.94837 -3.70887 5.73402 
-3.0766 -3.692 5.57091 
-3.16998 -3.70001 5.75329 
-3.29101 -3.6973 5.79555 
-3.38644 -3.7089 6.03266 
-3.50153 -3.71868 6.2561 
-3.60799 -3.70669 6.15073 
-3.72947 -3.69839 6.11028 
-3.81965 -3.71265 6.38332 
-3.94412 -3.70165 6.30478 
-4.02667 -3.72197 6.66261 
-4.15953 -3.70231 6.46135 
-4.23934 -3.72427 6.84164 
-4.36544 -3.71663 6.81412 
-4.43347 -3.75236 7.39083 
-4.56332 -3.74566 7.37988 
-4.64534 -3.7569 7.60256 
-4.78606 -3.73259 7.33759 
-4.85653 -3.75888 7.77589 
-4.99201 -3.74024 7.5915 
-5.07517 -3.75224 7.82635 
-5.19136 -3.75467 7.94163 
-5.29299 -3.74992 7.9404 
3.08408 -3.59063 0.435208 
2.82688 -3.63201 1.22011 
2.72053 -3.63146 1.28384 
2.59086 -3.64362 1.55123 
2.35479 -3.65552 1.88648 
1.81522 -3.89018 5.71712 
1.59078 -3.89111 5.88275 
1.48491 -3.90786 6.20175 
1.36159 -3.90427 6.23216 
1.26471 -3.91179 6.40887 
1.13906 -3.90108 6.33566 
1.04115 -3.90376 6.4416 
0.81902 -3.90353 6.58854 
0.697091 -3.89803 6.5898 
0.599701 -3.89336 6.58681 
0.481154 -3.89015 6.61965 
0.379418 -3.88363 6.59225 
0.260243 -3.87957 6.61297 
0.159513 -3.87807 6.65907 
-0.0557368 -3.87077 6.69707 
-0.181567 -3.86452 6.68999 
-0.280831 -3.84062 6.40421 
-0.405134 -3.84077 6.49054 
-0.501697 -3.82887 6.38032 
-0.627485 -3.82484 6.40589 
-0.723287 -3.82012 6.40116 
-0.847327 -3.81309 6.38135 
-0.944417 -3.80595 6.34167 
-1.06497 -3.80681 6.43607 
-1.16883 -3.77684 6.06377 
-1.28833 -3.77176 6.06967 
-1.3907 -3.74888 5.8012 
-1.51023 -3.75351 5.9506 
-1.61362 -3.74404 5.8808 
-1.7351 -3.7392 5.89156 
-1.83458 -3.72026 5.67929 
-1.95823 -3.72249 5.79612 
-2.05851 -3.71085 5.69209 
-2.18279 -3.69864 5.59602 
-2.28128 -3.69904 5.66873 
-2.40677 -3.68797 5.59033 
-2.50543 -3.68508 5.61447 
-2.62924 -3.68086 5.63615 
-2.72533 -3.68287 5.73098 
-2.8513 -3.67407 5.68652 
-2.94425 -3.6805 5.84454 
-3.07182 -3.66663 5.72614 
-3.16762 -3.66648 5.78896 
-3.29084 -3.6585 5.75459 
-3.38372 -3.67638 6.08184 
-3.49845 -3.68605 6.3025 
-3.60826 -3.66561 6.07498 
-3.72636 -3.66382 6.12873 
-3.81626 -3.68001 6.42895 
-3.94614 -3.6583 6.19643 
-4.02942 -3.67878 6.55549 
-4.15961 -3.66351 6.41821 
-4.22923 -3.70017 7.00717 
-4.35721 -3.69248 6.98039 
-4.4463 -3.69905 7.13793 
-4.56912 -3.69543 7.16786 
-4.6566 -3.70346 7.34588 
-4.78425 -3.69458 7.30146 
-4.86002 -3.71708 7.68531 
-4.98516 -3.7128 7.70711 
-5.07878 -3.70769 7.69509 
-5.19594 -3.713 7.85327 
-5.28784 -3.71194 7.8999 
3.3109 -3.57354 0.58015 
3.06797 -3.58638 0.932513 
2.95056 -3.61271 1.39874 
2.82357 -3.60617 1.38818 
2.71572 -3.61671 1.61581 
2.59099 -3.60552 1.5353 
2.47647 -3.62177 1.85145 
1.81715 -3.85324 5.69865 
1.70794 -3.87203 6.04856 
1.59279 -3.85543 5.8822 
1.48692 -3.87016 6.17009 
1.36257 -3.87262 6.29016 
1.26474 -3.87854 6.44325 
1.14109 -3.865 6.32761 
1.04207 -3.86861 6.44747 
0.919862 -3.86135 6.4231 
0.820866 -3.86674 6.56913 
0.698858 -3.86538 6.63158 
0.600641 -3.85785 6.58707 
0.482968 -3.8549 6.62318 
0.381761 -3.84453 6.53904 
0.261838 -3.84018 6.55598 
0.161311 -3.83857 6.60016 
0.0397105 -3.82539 6.48847 
-0.0541409 -3.83917 6.75435 
-0.18033 -3.83107 6.72054 
-0.27794 -3.81054 6.48452 
-0.402955 -3.80882 6.54371 
-0.500765 -3.79609 6.42256 
-0.625492 -3.78774 6.38395 
-0.721602 -3.78432 6.39868 
-0.844308 -3.78744 6.52733 
-0.94229 -3.77283 6.37871 
-1.06596 -3.75915 6.26114 
-1.16639 -3.74346 6.09825 
-1.286 -3.73579 6.06628 
-1.38987 -3.71656 5.85375 
-1.50835 -3.71944 5.97613 
-1.61268 -3.7014 5.78128 
-1.73372 -3.70093 5.85612 
-1.83201 -3.68905 5.74796 
-1.95706 -3.68482 5.77026 
-2.05614 -3.67212 5.65036 
-2.18084 -3.66598 5.64436 
-2.28029 -3.65945 5.61552 
-2.40503 -3.65121 5.57869 
-2.50298 -3.6502 5.63003 
-2.6264 -3.64634 5.65675 
-2.72466 -3.6421 5.66088 
-2.84871 -3.6428 5.75504 
-2.94754 -3.62741 5.59552 
-3.07048 -3.62685 5.67034 
-3.1688 -3.62298 5.67991 
-3.28781 -3.62578 5.80154 
-3.3853 -3.62641 5.87685 
-3.50227 -3.637 6.11163 
-3.60127 -3.63853 6.20105 
-3.72798 -3.621 6.02901 
-3.8185 -3.63729 6.32971 
-3.94315 -3.62557 6.24182 
-4.02708 -3.64634 6.60392 
-4.15687 -3.63006 6.4523 
-4.23802 -3.64909 6.78706 
-4.36107 -3.64717 6.84216 
-4.42939 -3.68237 7.40598 
-4.57037 -3.65703 7.12883 
-4.65297 -3.67108 7.39138 
-4.78219 -3.66165 7.34005 
-4.8602 -3.67985 7.66061 
-4.99698 -3.65679 7.41402 
-5.19078 -3.68083 7.89881 
3.32279 -3.51878 0.316647 
3.07028 -3.55326 0.990654 
2.95081 -3.56172 1.19479 
2.82735 -3.56137 1.2726 
2.71818 -3.57994 1.61761 
1.71462 -3.82529 5.88221 
1.59358 -3.82185 5.91317 
1.48867 -3.83439 6.16722 
1.36863 -3.81952 6.03032 
1.26753 -3.83384 6.30787 
1.14206 -3.83416 6.3969 
1.04439 -3.83044 6.40821 
0.921603 -3.82368 6.39185 
0.824133 -3.82316 6.44978 
0.701215 -3.82185 6.51331 
0.603691 -3.80841 6.38216 
0.484088 -3.82125 6.65052 
0.383379 -3.80939 6.54461 
0.263243 -3.80836 6.61037 
0.162591 -3.80243 6.59134 
0.0424984 -3.79108 6.50603 
-0.0528687 -3.80696 6.80262 
-0.178677 -3.79965 6.78025 
-0.277567 -3.77099 6.42727 
-0.400053 -3.77121 6.51303 
-0.498953 -3.76076 6.42653 
-0.623216 -3.76198 6.52809 
-0.719026 -3.75185 6.44425 
-1.1644 -3.70668 6.08306 
-1.28454 -3.70311 6.11159 
-1.38742 -3.68698 5.94483 
-1.5082 -3.67927 5.91327 
-1.61031 -3.67539 5.92521 
-1.73078 -3.66968 5.92275 
-1.83059 -3.6519 5.72978 
-1.95443 -3.65226 5.81842 
-2.05534 -3.63771 5.67337 
-2.17992 -3.62525 5.575 
-2.27906 -3.62383 5.62101 
-2.40321 -3.61627 5.59397 
-2.50205 -3.61163 5.59258 
-2.62573 -3.6088 5.63449 
-2.72205 -3.61046 5.72369 
-2.84712 -3.60652 5.75021 
-2.94485 -3.59462 5.6419 
-3.07146 -3.581 5.52792 
-3.16466 -3.59311 5.76796 
-3.2862 -3.58848 5.78217 
-3.38475 -3.59528 5.94806 
-3.50319 -3.5921 5.98132 
-3.60472 -3.59236 6.05352 
-3.72443 -3.59057 6.10803 
-3.81938 -3.59694 6.26534 
-3.94605 -3.58294 6.1458 
-4.02804 -3.60498 6.52365 
-4.16122 -3.5845 6.31377 
-4.24051 -3.60763 6.70584 
-4.3612 -3.61009 6.82325 
-4.43145 -3.64219 7.34042 
-4.5663 -3.62656 7.20266 
-4.64728 -3.64113 7.47057 
-4.77385 -3.63559 7.47484 
-4.86189 -3.63937 7.58951 
-4.98707 -3.63317 7.58324 
-5.19145 -3.643 7.86515 
2.82856 -3.5301 1.35682 
2.71681 -3.53964 1.57055 
2.59927 -3.52648 1.45757 
2.48083 -3.5468 1.83287 
1.71906 -3.7851 5.81429 
1.59725 -3.78202 5.8511 
1.49303 -3.78892 6.02144 
1.36924 -3.78857 6.0992 
1.26984 -3.78525 6.1175 
1.14611 -3.78379 6.17916 
1.04611 -3.80074 6.49308 
0.825608 -3.79091 6.49766 
0.702827 -3.78654 6.51627 
0.604774 -3.77788 6.45584 
0.486161 -3.77658 6.51651 
0.384759 -3.76844 6.46581 
0.265547 -3.76403 6.48157 
0.163979 -3.76708 6.59411 
0.0446656 -3.79907 7.14011 
-0.0512669 -3.777 6.88294 
-0.17768 -3.77053 6.87346 
-0.275309 -3.73969 6.48955 
-0.399589 -3.72772 6.39852 
-0.497747 -3.72393 6.40918 
-0.622019 -3.72181 6.46159 
-0.718642 -3.71096 6.36835 
-0.841623 -3.71219 6.46883 
-1.16251 -3.66705 6.02639 
-1.28474 -3.65923 5.99453 
-1.38617 -3.64747 5.89123 
-1.50628 -3.64934 5.99906 
-1.60844 -3.63332 5.83416 
-1.72901 -3.63337 5.91592 
-1.82777 -3.62379 5.84255 
-1.95398 -3.61219 5.75822 
-2.05183 -3.60509 5.72058 
-2.17667 -3.59741 5.69235 
-2.27861 -3.58296 5.55034 
-2.40129 -3.58152 5.61168 
-2.50062 -3.57466 5.5784 
-2.71769 -3.58431 5.8648 
-2.84629 -3.56574 5.68058 
-2.9439 -3.55661 5.6131 
-3.06747 -3.55546 5.67936 
-3.16401 -3.55232 5.69835 
-3.28625 -3.54848 5.72455 
-3.38257 -3.56006 5.95806 
-3.60282 -3.55767 6.0711 
-3.72403 -3.54918 6.02888 
-3.82183 -3.55371 6.16066 
-3.93678 -3.55947 6.32172 
-4.02852 -3.56453 6.45716 
-4.15465 -3.55838 6.45227 
-4.2269 -3.58811 6.93405 
-4.3559 -3.57925 6.89169 
-4.44026 -3.58952 7.0981 
-4.56373 -3.59151 7.21004 
-4.65721 -3.58723 7.21059 
-4.77503 -3.59668 7.42754 
-4.86071 -3.60078 7.54486 
-4.98256 -3.60313 7.66101 
-5.1882 -3.61006 7.90035 
3.06306 -3.49855 1.2806 
2.95657 -3.50033 1.37745 
2.72525 -3.48949 1.37464 
2.59623 -3.50076 1.62406 
2.48486 -3.50784 1.80108 
2.36018 -3.50327 1.81798 
1.60536 -3.72942 5.60134 
1.49214 -3.76393 6.17742 
1.37058 -3.75269 6.0956 
1.27298 -3.75307 6.16629 
1.14677 -3.75124 6.22408 
1.04775 -3.75649 6.36625 
0.826907 -3.75537 6.49754 
0.703223 -3.75181 6.52852 
0.607594 -3.74764 6.53202 
0.487844 -3.74032 6.50582 
0.386081 -3.73297 6.46722 
0.265943 -3.72817 6.47787 
0.165824 -3.73154 6.59376 
-0.0495774 -3.73624 6.80578 
-0.175925 -3.73213 6.83069 
-0.273553 -3.70612 6.51878 
-0.397338 -3.69852 6.49124 
-0.49528 -3.68741 6.39552 
-0.619587 -3.6858 6.45539 
-0.715772 -3.68443 6.49983 
-0.840508 -3.67297 6.41696 
-0.934297 -3.68268 6.62046 
-1.05531 -3.67766 6.62865 
-1.15991 -3.63524 6.08338 
-1.28158 -3.62277 5.98388 
-1.38419 -3.60936 5.85803 
-1.50333 -3.61802 6.06334 
-1.60609 -3.60367 5.92383 
-1.72821 -3.5968 5.90597 
-1.82645 -3.5857 5.81058 
-1.95204 -3.57463 5.73416 
-2.05058 -3.56471 5.6561 
-2.17516 -3.55817 5.64471 
-2.27513 -3.55058 5.60149 
-2.39925 -3.54378 5.58594 
-2.49778 -3.54441 5.66093 
-2.71683 -3.54536 5.82133 
-2.84604 -3.52475 5.60892 
-2.94126 -3.52491 5.67493 
-3.06712 -3.51532 5.62009 
-3.16344 -3.51377 5.66213 
-3.28449 -3.51425 5.75003 
-3.38065 -3.5211 5.91386 
-3.60428 -3.51527 5.97892 
-3.71938 -3.51825 6.09934 
-3.81663 -3.52435 6.25295 
-3.94696 -3.49978 5.98373 
-4.02433 -3.5332 6.52044 
-4.15159 -3.52328 6.46179 
-4.23953 -3.52976 6.61459 
-4.3618 -3.53259 6.73764 
-4.43558 -3.56248 7.22067 
-4.56192 -3.55812 7.24202 
-4.64548 -3.56899 7.45578 
-4.77901 -3.55372 7.3237 
-4.85191 -3.57683 7.70788 
-4.98165 -3.56566 7.63267 
-5.07102 -3.57006 7.75654 
-5.18625 -3.57494 7.90447 
-5.27487 -3.57766 8.00345 
3.06884 -3.44639 1.05937 
1.49587 -3.71945 6.04758 
1.37551 -3.70769 5.95791 
1.27378 -3.72156 6.22589 
1.14755 -3.72325 6.33425 
1.04983 -3.71829 6.32771 
0.926765 -3.71511 6.3637 
0.828783 -3.72013 6.50153 
0.706161 -3.71552 6.51662 
0.609334 -3.71127 6.51964 
0.489606 -3.70536 6.51415 
0.38749 -3.70216 6.53589 
0.26945 -3.69891 6.56756 
0.168603 -3.69486 6.57628 
0.0465842 -3.68307 6.48734 
-0.0482485 -3.69197 6.67899 
-0.173269 -3.68721 6.69368 
-0.270227 -3.68318 6.70007 
-0.395582 -3.66569 6.53107 
-0.492863 -3.65826 6.48856 
-0.618898 -3.65079 6.46479 
-0.715132 -3.63944 6.36496 
-0.837238 -3.64546 6.53332 
-0.935271 -3.63022 6.37858 
-1.05938 -3.61562 6.25046 
-1.15735 -3.60231 6.12369 
-1.27676 -3.60442 6.23372 
-1.38335 -3.57052 5.81534 
-1.5023 -3.57744 5.99443 
-1.60457 -3.56274 5.85043 
-1.7265 -3.56123 5.90991 
-1.82489 -3.5493 5.80335 
-1.9498 -3.53941 5.74379 
-2.04882 -3.53237 5.70818 
-2.17374 -3.52336 5.66142 
-2.27358 -3.51252 5.57143 
-2.39762 -3.50967 5.61301 
-2.49614 -3.50624 5.62916 
-2.62013 -3.5032 5.66794 
-2.7171 -3.50093 5.69988 
-2.84723 -3.47826 5.45936 
-2.93992 -3.48731 5.6519 
-3.063 -3.48791 5.74269 
-3.16223 -3.4802 5.69761 
-3.28325 -3.47578 5.71446 
-3.3827 -3.47103 5.71235 
-3.49954 -3.48314 5.96512 
-3.60299 -3.47831 5.96441 
-3.72095 -3.47984 6.06521 
-3.81747 -3.48399 6.18962 
-3.94181 -3.47202 6.09981 
-4.02695 -3.49056 6.42429 
-4.15078 -3.48626 6.4449 
-4.23233 -3.50719 6.80162 
-4.35435 -3.50662 6.87491 
-4.43046 -3.53262 7.30116 
-4.56572 -3.51222 7.09687 
-4.6432 -3.5335 7.45588 
-4.77417 -3.52084 7.36065 
-4.84755 -3.54382 7.74153 
-4.98389 -3.52478 7.55762 
-5.18983 -3.53309 7.81522 
3.07132 -3.41068 1.07868 
2.95715 -3.43585 1.51601 
2.72815 -3.42152 1.46188 
2.59985 -3.42732 1.63022 
2.49825 -3.40987 1.4469 
2.3669 -3.42148 1.70082 
1.72468 -3.68149 5.86335 
1.50124 -3.67209 5.87647 
1.3792 -3.66489 5.85399 
1.2781 -3.6858 6.22153 
1.15251 -3.66971 6.07363 
1.05238 -3.68079 6.29927 
0.929833 -3.66506 6.1546 
0.830687 -3.68745 6.54215 
0.706557 -3.67492 6.4445 
0.610487 -3.6699 6.43612 
0.491323 -3.66764 6.48269 
0.389207 -3.66241 6.4753 
0.270856 -3.65934 6.5098 
0.170027 -3.66065 6.59546 
0.0486438 -3.64905 6.50942 
-0.0466573 -3.6512 6.60355 
-0.172114 -3.64773 6.63703 
-0.267654 -3.64378 6.64366 
-0.394472 -3.63403 6.5877 
-0.49269 -3.61606 6.39475 
-0.617596 -3.60556 6.32677 
-0.712346 -3.60796 6.42426 
-0.836609 -3.60604 6.47914 
-0.934255 -3.591 6.32776 
-1.05673 -3.58438 6.314 
-1.1565 -3.57006 6.17445 
-1.2777 -3.56085 6.1227 
-1.38031 -3.54433 5.95344 
-1.50022 -3.53829 5.9462 
-1.60321 -3.52729 5.8565 
-1.72495 -3.52429 5.89429 
-1.8227 -3.5144 5.81711 
-1.94806 -3.50796 5.80795 
-2.04757 -3.49607 5.70319 
-2.17254 -3.48462 5.62166 
-2.27269 -3.4749 5.54851 
-2.39573 -3.47375 5.6138 
-2.49566 -3.46674 5.57937 
-2.71752 -3.45641 5.57837 
-2.84229 -3.44969 5.56486 
-2.93729 -3.45473 5.7004 
-3.06206 -3.44955 5.70892 
-3.16124 -3.43821 5.6119 
-3.2805 -3.44366 5.76951 
-3.37606 -3.45599 6.01031 
-3.59897 -3.44556 6.00865 
-3.71859 -3.44308 6.05272 
-3.8071 -3.46421 6.41526 
-3.93943 -3.43936 6.14618 
-4.02261 -3.45899 6.48361 
-4.16117 -3.43009 6.16047 
-4.21797 -3.49066 7.06893 
-4.34433 -3.48421 7.0603 
-4.42825 -3.49695 7.29928 
-4.57131 -3.46333 6.91118 
-4.6527 -3.48215 7.23597 
-4.76205 -3.50301 7.60867 
-4.84596 -3.50839 7.7419 
-4.98591 -3.48586 7.51125 
-5.18326 -3.50433 7.90813 
3.20804 -3.36705 0.895842 
3.07656 -3.36343 0.930947 
2.96372 -3.38891 1.37003 
2.72199 -3.3971 1.64681 
2.60605 -3.37741 1.44171 
2.49838 -3.37533 1.4832 
2.36866 -3.3791 1.62287 
1.72985 -3.6324 5.66897 
1.50098 -3.64293 5.97092 
1.3824 -3.62663 5.8162 
1.27716 -3.65137 6.23972 
1.15328 -3.64091 6.17202 
1.05361 -3.64796 6.33886 
0.930209 -3.64194 6.3343 
0.833169 -3.64563 6.45139 
0.708519 -3.64272 6.49208 
0.613129 -3.63431 6.43499 
0.492751 -3.62959 6.4471 
0.391984 -3.62628 6.46632 
0.272734 -3.62324 6.50178 
0.171594 -3.62118 6.53918 
0.0507764 -3.60761 6.42503 
-0.0444504 -3.61624 6.61157 
-0.170464 -3.61326 6.65223 
-0.265252 -3.61407 6.72669 
-0.393047 -3.59318 6.5123 
-0.488755 -3.58724 6.49072 
-0.614835 -3.58053 6.47808 
-0.711111 -3.56576 6.33046 
-0.834647 -3.57374 6.52656 
-0.932469 -3.55413 6.31063 
-1.05397 -3.55375 6.38566 
-1.15576 -3.5321 6.14335 
-1.27542 -3.52894 6.17741 
-1.37876 -3.50715 5.93399 
-1.49912 -3.50264 5.94918 
-1.60155 -3.4873 5.79756 
-1.72322 -3.49343 5.96582 
-1.82143 -3.48138 5.85847 
-1.94675 -3.4719 5.8058 
-2.04509 -3.46073 5.71108 
-2.17071 -3.44939 5.63201 
-2.26994 -3.4451 5.63637 
-2.39403 -3.4385 5.62415 
-2.49293 -3.43604 5.65458 
-2.61693 -3.42967 5.64551 
-2.71586 -3.42051 5.58012 
-2.84025 -3.41415 5.57143 
-2.93539 -3.41909 5.70525 
-3.0608 -3.41201 5.68705 
-3.15614 -3.41535 5.79807 
-3.27991 -3.40439 5.72328 
-3.37947 -3.4032 5.77228 
-3.49806 -3.40736 5.91042 
-3.59995 -3.40484 5.94191 
-3.71762 -3.40448 6.01479 
-3.81491 -3.41023 6.16163 
-3.93586 -3.40561 6.17572 
-4.02246 -3.42124 6.45687 
-4.15495 -3.40196 6.26881 
-4.22963 -3.43307 6.7635 
-4.3619 -3.41724 6.62468 
-4.43942 -3.4393 6.99184 
-4.55846 -3.4462 7.16969 
-4.64263 -3.45762 7.38899 
-4.78156 -3.43413 7.1449 
-4.85912 -3.45488 7.4934 
-4.98264 -3.45152 7.52727 
-5.06422 -3.46686 7.80093 
-5.19364 -3.45146 7.66655 
-5.27964 -3.45925 7.83504 
3.07882 -3.32682 0.937962 
2.96807 -3.34485 1.26767 
2.73258 -3.34851 1.47494 
2.60141 -3.35258 1.61929 
2.49932 -3.34291 1.54885 
2.37884 -3.33919 1.57523 
2.26488 -3.34731 1.76585 
2.13477 -3.34698 1.8469 
1.73315 -3.59172 5.59749 
1.50657 -3.59684 5.81968 
1.3836 -3.59082 5.8151 
1.27806 -3.60574 6.09715 
1.15849 -3.59173 5.97647 
1.05586 -3.61007 6.30525 
0.932778 -3.59661 6.19468 
0.834849 -3.60798 6.42131 
0.71172 -3.60122 6.40615 
0.614996 -3.60203 6.48152 
0.494772 -3.59689 6.48752 
0.394252 -3.59093 6.46891 
0.274972 -3.58939 6.52576 
0.173185 -3.59165 6.62508 
0.0527189 -3.58483 6.60734 
-0.0425564 -3.58788 6.71362 
-0.168451 -3.58348 6.73397 
-0.264275 -3.57141 6.62525 
-0.391357 -3.5612 6.56378 
-0.488597 -3.54198 6.35405 
-0.612639 -3.54363 6.45941 
-0.708599 -3.53996 6.47047 
-0.833154 -3.53501 6.48223 
-0.930512 -3.52003 6.33307 
-1.05299 -3.51482 6.33963 
-1.15345 -3.49339 6.10069 
-1.27272 -3.49617 6.2191 
-1.37731 -3.46901 5.90113 
-1.49742 -3.46705 5.95253 
-1.59964 -3.45333 5.82456 
-1.72175 -3.45594 5.94241 
-1.82084 -3.4396 5.77502 
-1.94415 -3.43885 5.84578 
-2.04213 -3.42711 5.74321 
-2.16875 -3.41761 5.69155 
-2.26806 -3.40358 5.55726 
-2.39361 -3.39963 5.58395 
-2.49082 -3.3984 5.63056 
-2.61537 -3.39459 5.65864 
-2.71244 -3.39039 5.66292 
-2.83878 -3.3829 5.63961 
-2.93409 -3.38313 5.7059 
-3.0601 -3.37228 5.63457 
-3.15559 -3.37507 5.73735 
-3.27787 -3.36752 5.71065 
-3.3755 -3.37409 5.86877 
-3.49533 -3.37283 5.92998 
-3.59876 -3.37192 5.98538 
-3.71695 -3.36918 6.02451 
-3.8137 -3.37429 6.16129 
-3.93547 -3.3689 6.16503 
-4.02713 -3.37398 6.29795 
-4.15063 -3.37121 6.34012 
-4.23436 -3.38675 6.61697 
-4.35244 -3.39488 6.81081 
-4.43091 -3.41414 7.13716 
-4.56425 -3.39737 6.98638 
-4.65416 -3.40017 7.08581 
-4.77567 -3.40478 7.23186 
-4.84986 -3.43387 7.69542 
-4.97894 -3.41934 7.5738 
-5.18086 -3.43176 7.88431 
3.20794 -3.3055 1.07861 
3.07848 -3.29468 1.01011 
2.96929 -3.31128 1.31719 
2.73125 -3.31764 1.56362 
2.60377 -3.31621 1.62707 
2.50494 -3.29724 1.42297 
2.37946 -3.29884 1.528 
1.74133 -3.54124 5.3844 
1.61649 -3.54314 5.49337 
1.50694 -3.56268 5.84237 
1.38555 -3.55545 5.8196 
1.28254 -3.56789 6.06371 
1.15734 -3.56468 6.10058 
1.05824 -3.56187 6.12575 
0.933684 -3.56656 6.27416 
0.837225 -3.56481 6.31279 
0.712861 -3.57084 6.48 
0.616356 -3.5665 6.48186 
0.496429 -3.55955 6.4622 
0.395448 -3.55342 6.44161 
0.277304 -3.55476 6.53837 
0.173723 -3.5475 6.50341 
0.0534939 -3.54024 6.47957 
-0.0404548 -3.55388 6.73473 
-0.168523 -3.55052 6.7714 
-0.26302 -3.53071 6.5525 
-0.38991 -3.52394 6.54005 
-0.487715 -3.51147 6.42743 
-0.610663 -3.5103 6.49181 
-0.707936 -3.49796 6.38076 
-0.83076 -3.49761 6.45658 
-0.929021 -3.48057 6.27959 
-1.04926 -3.4887 6.47394 
-1.15116 -3.4587 6.11561 
-1.27047 -3.46227 6.24474 
-1.37523 -3.44053 6.00532 
-1.49644 -3.43444 5.99865 
-1.59893 -3.41451 5.78351 
-1.71911 -3.41765 5.90709 
-1.81865 -3.40789 5.83419 
-1.94202 -3.40494 5.87358 
-2.04035 -3.39682 5.82307 
-2.16713 -3.37868 5.64925 
-2.26554 -3.37322 5.63671 
-2.39068 -3.36664 5.62573 
-2.48858 -3.3645 5.6598 
-2.71002 -3.3585 5.72046 
-2.83664 -3.34533 5.61711 
-2.93256 -3.34672 5.70003 
-3.05815 -3.33729 5.64896 
-3.15389 -3.33696 5.7073 
-3.27516 -3.33477 5.7562 
-3.37437 -3.3332 5.7992 
-3.59539 -3.34045 6.04775 
-3.71581 -3.33079 5.99003 
-3.81132 -3.33982 6.18098 
-3.93292 -3.33454 6.1862 
-4.02476 -3.33931 6.31445 
-4.15274 -3.32845 6.24473 
-4.22453 -3.36639 6.83018 
-4.35355 -3.35476 6.75025 
-4.42512 -3.3858 7.23783 
-4.56206 -3.36404 7.0194 
-4.6357 -3.39155 7.45814 
-4.77454 -3.36743 7.20759 
-4.85757 -3.38404 7.49803 
-4.98007 -3.37904 7.50777 
-5.18134 -3.39423 7.85602 
3.54845 -3.2765 0.971116 
3.08592 -3.24865 0.880545 
2.96348 -3.28832 1.52063 
2.73009 -3.28663 1.64959 
2.60963 -3.27319 1.53856 
2.50919 -3.25187 1.30334 
2.3796 -3.26705 1.60246 
2.26855 -3.2808 1.86935 
2.13596 -3.27231 1.83622 
1.73952 -3.5132 5.49664 
1.51257 -3.51598 5.68446 
1.39139 -3.5118 5.70485 
1.28686 -3.52488 5.95799 
1.16438 -3.51213 5.85815 
1.06131 -3.5246 6.10181 
0.936846 -3.52357 6.16876 
0.838912 -3.52644 6.27343 
0.714651 -3.52347 6.313 
0.617497 -3.52835 6.4455 
0.498104 -3.5232 6.45101 
0.395994 -3.51742 6.43639 
0.277457 -3.52054 6.55813 
0.176333 -3.51426 6.53571 
0.0555374 -3.50885 6.53851 
-0.0398584 -3.51636 6.70701 
-0.165912 -3.51668 6.79417 
-0.258975 -3.4998 6.61691 
-0.388102 -3.48383 6.4761 
-0.48657 -3.47125 6.3629 
-0.608996 -3.47799 6.53836 
-0.706339 -3.46315 6.39275 
-0.830198 -3.46019 6.43217 
-0.926742 -3.45281 6.39126 
-1.04826 -3.45009 6.43257 
-1.15012 -3.4244 6.13653 
-1.27056 -3.41874 6.13572 
-1.37296 -3.39028 5.80104 
-1.49361 -3.40132 6.03604 
-1.59646 -3.38495 5.87232 
-1.7173 -3.38288 5.92232 
-1.81531 -3.37521 5.87835 
-1.94073 -3.3674 5.85045 
-2.03874 -3.35441 5.73131 
-2.16552 -3.34223 5.6425 
-2.26581 -3.33287 5.57607 
-2.38883 -3.33258 5.65283 
-2.48686 -3.33215 5.71106 
-2.61103 -3.32625 5.7092 
-2.70817 -3.32242 5.7189 
-2.83445 -3.31561 5.70568 
-2.93169 -3.30569 5.62944 
-3.05562 -3.3038 5.684 
-3.15097 -3.30547 5.77028 
-3.27343 -3.29886 5.75727 
-3.37246 -3.29942 5.83025 
-3.49344 -3.30081 5.92938 
-3.59391 -3.30593 6.06761 
-3.71566 -3.28947 5.91519 
-3.8143 -3.29266 6.02493 
-3.93357 -3.29458 6.13036 
-4.01495 -3.31805 6.5153 
-4.1455 -3.30271 6.38453 
-4.22147 -3.33341 6.86791 
-4.35389 -3.31378 6.67773 
-4.43481 -3.33499 7.03036 
-4.55644 -3.33598 7.12436 
-4.63579 -3.35601 7.45933 
-4.7766 -3.32638 7.13347 
-4.85112 -3.35261 7.55287 
-4.97982 -3.34519 7.53276 
-5.17359 -3.36651 7.96121 
3.21034 -3.23095 1.07398 
3.07882 -3.23009 1.14761 
2.96964 -3.24065 1.36722 
2.73854 -3.2424 1.54265 
2.60708 -3.2458 1.6762 
2.50389 -3.23214 1.55152 
2.38519 -3.22185 1.48434 
2.1392 -3.24038 1.90524 
1.98567 -3.42625 4.61793 
1.74289 -3.47316 5.43585 
1.62478 -3.45848 5.30661 
1.51929 -3.46765 5.50437 
1.39086 -3.47719 5.72224 
1.28849 -3.48817 5.94346 
1.16457 -3.48329 5.95575 
1.06353 -3.4842 6.03449 
0.937181 -3.49191 6.22537 
0.840601 -3.49243 6.29579 
0.716599 -3.49041 6.34842 
0.618707 -3.48731 6.36874 
0.499767 -3.48665 6.43713 
0.397639 -3.48487 6.47884 
0.279593 -3.48476 6.55449 
0.178844 -3.48106 6.56822 
0.0572788 -3.47709 6.59185 
-0.0384632 -3.47914 6.68325 
-0.163252 -3.47935 6.7678 
-0.261395 -3.4591 6.54718 
-0.385527 -3.45428 6.56058 
-0.482707 -3.44931 6.55431 
-0.607575 -3.44256 6.54092 
-0.703639 -3.4348 6.49465 
-0.828913 -3.4246 6.43318 
-0.925423 -3.41583 6.37303 
-1.04844 -3.40529 6.30516 
-1.1485 -3.38904 6.14223 
-1.26991 -3.38034 6.09928 
-1.37064 -3.36324 5.92483 
-1.49213 -3.35871 5.94049 
-1.59504 -3.34666 5.83838 
-1.71546 -3.34922 5.95322 
-1.8145 -3.33258 5.78401 
-1.93909 -3.33346 5.8779 
-2.03884 -3.31632 5.7021 
-2.16255 -3.3168 5.78982 
-2.26385 -3.29861 5.60036 
-2.38757 -3.29663 5.6535 
-2.48792 -3.28333 5.53205 
-2.70729 -3.2836 5.6794 
-2.83286 -3.27808 5.68401 
-2.92965 -3.27111 5.64938 
-3.05393 -3.26814 5.68898 
-3.15005 -3.26787 5.74801 
-3.27164 -3.26316 5.76141 
-3.37236 -3.2612 5.79973 
-3.59149 -3.26927 6.05675 
-3.71062 -3.26374 6.05696 
-3.80764 -3.26886 6.19242 
-3.93129 -3.25912 6.1364 
-4.01834 -3.27314 6.39052 
-4.14403 -3.26651 6.37972 
-4.20673 -3.31732 7.13509 
-4.35042 -3.28131 6.72296 
-4.43206 -3.30375 7.09191 
-4.55564 -3.29656 7.07176 
-4.63502 -3.32067 7.46285 
-4.77449 -3.2909 7.13563 
-4.8392 -3.33132 7.74642 
-4.97845 -3.30663 7.49041 
-5.05571 -3.32461 7.79395 
-5.18008 -3.31986 7.80858 
-5.26712 -3.32959 8.00247 
3.32894 -3.16731 0.626471 
2.96901 -3.20753 1.42323 
2.73435 -3.22021 1.75331 
2.60606 -3.20947 1.68637 
2.51183 -3.18031 1.33966 
2.37674 -3.19649 1.65391 
2.26985 -3.21171 1.93647 
2.13926 -3.20726 1.95914 
1.74159 -3.44779 5.58391 
1.52004 -3.43235 5.51199 
1.38817 -3.45606 5.92964 
1.29238 -3.44251 5.80237 
1.16845 -3.43869 5.82951 
1.0655 -3.44989 6.05324 
0.939344 -3.44833 6.11364 
0.842791 -3.451 6.2138 
0.718632 -3.45048 6.28739 
0.620645 -3.45152 6.36567 
0.501003 -3.45452 6.48569 
0.400659 -3.45338 6.53502 
0.282291 -3.44556 6.50272 
0.180376 -3.44995 6.63043 
0.0592084 -3.44243 6.60419 
-0.0361148 -3.44495 6.70155 
-0.161839 -3.44137 6.7333 
-0.259245 -3.42546 6.57402 
-0.384614 -3.41736 6.54241 
-0.481065 -3.40838 6.47948 
-0.606915 -3.39735 6.4071 
-0.7016 -3.40139 6.52546 
-0.922367 -3.38485 6.43776 
-1.04439 -3.38094 6.46253 
-1.14761 -3.34612 6.0424 
-1.26781 -3.34273 6.0733 
-1.37084 -3.32534 5.89708 
-1.49176 -3.31482 5.82862 
-1.59358 -3.31057 5.83558 
-1.81291 -3.30295 5.87192 
-1.93782 -3.29666 5.86527 
-2.03702 -3.284 5.75274 
-2.16151 -3.27316 5.68225 
-2.26232 -3.26577 5.64449 
-2.38709 -3.24862 5.48577 
-2.48444 -3.25468 5.63411 
-2.70675 -3.24297 5.6153 
-2.83153 -3.24327 5.70081 
-2.9289 -3.22998 5.57826 
-3.05351 -3.22786 5.62996 
-3.15028 -3.22446 5.64541 
-3.27098 -3.22415 5.71984 
-3.37265 -3.21948 5.72089 
-3.59052 -3.23363 6.06113 
-3.71185 -3.22043 5.9555 
-3.80866 -3.22727 6.1145 
-3.93347 -3.21389 6.00858 
-4.01521 -3.24004 6.42807 
-4.14765 -3.21978 6.23086 
-4.21929 -3.25962 6.83534 
-4.34866 -3.24802 6.75748 
-4.42637 -3.27 7.11593 
-4.55376 -3.26336 7.10616 
-4.6362 -3.27648 7.34358 
-4.76271 -3.27104 7.35017 
-4.84336 -3.28808 7.64131 
-4.97592 -3.27207 7.50378 
-5.06034 -3.28139 7.68945 
-5.17295 -3.29302 7.92585 
3.09872 -3.11902 0.622525 
2.97175 -3.16713 1.37523 
2.73257 -3.18119 1.72614 
2.61111 -3.16686 1.60523 
2.51028 -3.15413 1.49317 
2.38033 -3.15383 1.57329 
2.27388 -3.17475 1.93374 
2.14399 -3.16531 1.8864 
1.74523 -3.40675 5.50918 
1.61657 -3.42224 5.80841 
1.52354 -3.39344 5.46747 
1.39905 -3.39161 5.52274 
1.29276 -3.41111 5.86345 
1.16925 -3.40594 5.87163 
1.07089 -3.40299 5.89424 
0.943838 -3.40481 6.0021 
0.844065 -3.42024 6.28192 
0.718861 -3.40972 6.21657 
0.621538 -3.42059 6.4312 
0.502097 -3.42002 6.50069 
0.403015 -3.40825 6.40102 
0.28395 -3.41299 6.54446 
0.181088 -3.41187 6.59558 
0.0611397 -3.41024 6.65078 
-0.0344708 -3.41369 6.7609 
-0.160042 -3.41928 6.9204 
-0.257591 -3.38801 6.54791 
-0.382536 -3.38272 6.55532 
-0.479401 -3.37114 6.45685 
-0.605867 -3.36391 6.43833 
-0.70137 -3.35324 6.35159 
-0.8259 -3.35569 6.46673 
-0.921978 -3.34044 6.31658 
-1.04272 -3.34516 6.46083 
-1.14523 -3.31147 6.05791 
-1.26649 -3.30572 6.0565 
-1.36969 -3.28805 5.87738 
-1.49084 -3.28459 5.90781 
-1.59058 -3.28261 5.94509 
-1.71351 -3.26468 5.77517 
-1.81165 -3.26006 5.77457 
-1.93451 -3.26693 5.95013 
-2.03561 -3.24556 5.718 
-2.15977 -3.24121 5.73811 
-2.25989 -3.23082 5.65844 
-2.38345 -3.22551 5.66464 
-2.48305 -3.21772 5.62091 
-2.6059 -3.22065 5.74162 
-2.70384 -3.21315 5.70068 
-2.82975 -3.20342 5.64698 
-2.9256 -3.20238 5.69484 
-3.05143 -3.19322 5.64901 
-3.14768 -3.193 5.70851 
-3.26741 -3.19424 5.80373 
-3.36781 -3.19423 5.86891 
-3.48758 -3.19373 5.93976 
-3.59158 -3.18062 5.8248 
-3.70918 -3.18712 5.99181 
-3.80779 -3.18918 6.08469 
-3.92964 -3.18435 6.0967 
-4.01492 -3.20185 6.39615 
-4.1425 -3.19202 6.34216 
-4.23434 -3.19739 6.47677 
-4.34527 -3.21536 6.79942 
-4.42476 -3.23452 7.11825 
-4.55278 -3.23033 7.14318 
-4.62738 -3.25523 7.53883 
-4.76364 -3.23218 7.30622 
-4.84104 -3.25559 7.68295 
-4.97042 -3.24497 7.61911 
-5.17994 -3.24491 7.75475 
3.55525 -3.12316 0.902844 
3.33647 -3.09291 0.624587 
3.22612 -3.10371 0.845694 
2.7386 -3.13563 1.60344 
2.61108 -3.14308 1.78918 
2.51601 -3.10508 1.3235 
2.38706 -3.11009 1.47637 
2.27667 -3.13149 1.84453 
2.14631 -3.12735 1.87132 
2.04063 -3.13398 2.03161 
1.52468 -3.35748 5.46591 
1.40366 -3.34996 5.4399 
1.29583 -3.37422 5.84618 
1.17472 -3.35727 5.68935 
1.07068 -3.37475 5.99922 
0.94696 -3.35979 5.8717 
0.845283 -3.39301 6.39838 
0.720689 -3.37551 6.23622 
0.624127 -3.37477 6.28832 
0.504375 -3.37764 6.40572 
0.403688 -3.37817 6.47819 
0.283294 -3.37358 6.49239 
0.182726 -3.37468 6.57274 
-0.0331581 -3.37698 6.74443 
-0.157721 -3.38699 6.96401 
-0.25576 -3.35833 6.62978 
-0.380706 -3.34894 6.58033 
-0.478793 -3.33021 6.38397 
-0.602675 -3.33151 6.4823 
-0.697978 -3.33068 6.53238 
-0.919562 -3.31289 6.42917 
-1.04049 -3.31218 6.49752 
-1.14274 -3.28138 6.13649 
-1.26299 -3.27521 6.12865 
-1.36682 -3.25499 5.9154 
-1.48702 -3.2595 6.0559 
-1.5891 -3.24315 5.89512 
-1.71018 -3.23995 5.9292 
-1.80833 -3.2319 5.881 
-1.93374 -3.22449 5.8595 
-2.03444 -3.20999 5.72359 
-2.15784 -3.20471 5.73016 
-2.25863 -3.19429 5.65101 
-2.38189 -3.18926 5.66101 
-2.47979 -3.19051 5.74179 
-2.60522 -3.17609 5.62307 
-2.70089 -3.18189 5.76557 
-2.82755 -3.16888 5.66713 
-2.92357 -3.16808 5.71829 
-3.05053 -3.15431 5.60954 
-3.14543 -3.15567 5.68981 
-3.26849 -3.14896 5.6766 
-3.36535 -3.16046 5.89896 
-3.48581 -3.1593 5.96098 
-3.588 -3.14951 5.89143 
-3.70614 -3.15308 6.01754 
-3.80348 -3.15981 6.17406 
-3.92677 -3.15024 6.12126 
-4.01112 -3.16995 6.44952 
-4.14301 -3.15217 6.28833 
-4.2227 -3.1739 6.64152 
-4.34008 -3.18337 6.84909 
-4.42799 -3.19329 7.0439 
-4.55948 -3.17705 6.90382 
-4.63271 -3.20301 7.31161 
-4.76369 -3.19524 7.28873 
-4.84427 -3.21133 7.56443 
-4.97121 -3.20373 7.54129 
-5.18038 -3.20725 7.72598 
3.21564 -3.08649 1.12901 
2.85167 -3.08641 1.36237 
2.7416 -3.09382 1.53555 
2.61428 -3.10612 1.78751 
2.51294 -3.08304 1.53403 
2.39134 -3.07372 1.48362 
2.27896 -3.09651 1.87087 
2.15081 -3.08843 1.84176 
2.0453 -3.09229 1.96303 
1.91151 -3.09608 2.10169 
1.74118 -3.35379 5.77123 
1.53164 -3.30548 5.23901 
1.40149 -3.32636 5.61134 
1.2983 -3.33702 5.82514 
1.17625 -3.32282 5.70775 
1.07201 -3.33916 6.0007 
0.947678 -3.33477 6.02022 
