ply
format ascii 1.0
element vertex 1859
property float x
property float y
property float z
end_header
-4.45141 1.33561 6.98992 
-4.5791 1.35161 6.90828 
-4.67058 1.34363 7.02407 
-4.79498 1.35308 6.9996 
-4.88129 1.33106 7.23876 
-5.0099 1.34808 7.14848 
-5.09558 1.3299 7.35293 
-5.23123 1.35906 7.15717 
2.88239 1.70612 0.465929 
2.77778 1.68995 0.660808 
2.64934 1.69882 0.643264 
2.53294 1.64396 1.18952 
2.4052 1.66278 1.08279 
2.29224 1.6172 1.54444 
2.04175 1.54859 2.27808 
0.957408 1.22769 5.66787 
0.857848 1.21602 5.82008 
0.734858 1.23887 5.67514 
0.635537 1.23337 5.77214 
0.513387 1.23223 5.84115 
0.411422 1.23455 5.86956 
0.29117 1.25006 5.78887 
0.189479 1.24434 5.88899 
0.0676711 1.26676 5.7473 
-0.0309682 1.25945 5.86015 
-0.153849 1.28893 5.65596 
-0.254764 1.2914 5.68246 
-0.377909 1.31064 5.56984 
-0.477051 1.2982 5.72882 
-0.601522 1.31874 5.60522 
-0.69866 1.32274 5.61634 
-0.82584 1.35088 5.42616 
-0.922126 1.35925 5.39776 
-1.0465 1.37221 5.34186 
-1.14489 1.36676 5.43803 
-1.27139 1.4035 5.17063 
-1.37174 1.39438 5.30055 
-1.4957 1.42076 5.1245 
-1.59603 1.42827 5.10582 
-1.72274 1.45974 4.8856 
-1.82484 1.48014 4.7525 
-1.95003 1.48877 4.73577 
-2.05053 1.50157 4.66988 
-2.18 1.52957 4.48206 
-2.27655 1.51117 4.69303 
-2.50042 1.5193 4.72842 
-2.63092 1.54399 4.57067 
-2.7272 1.53531 4.69471 
-2.85397 1.54693 4.65203 
-2.94672 1.52296 4.91099 
-3.07439 1.53746 4.843 
-3.16548 1.50871 5.14398 
-3.37963 1.47263 5.56986 
-3.50536 1.49711 5.4117 
-3.60252 1.47522 5.65428 
-3.72859 1.50165 5.47886 
-3.81643 1.45347 5.952 
-3.93785 1.44465 6.08942 
-4.14797 1.40365 6.55744 
-4.23696 1.38419 6.77436 
-4.3613 1.38936 6.78815 
-4.45009 1.37172 6.98877 
-4.58229 1.40258 6.77673 
-4.66705 1.37522 7.06222 
-4.79457 1.39275 6.96718 
-4.87881 1.36672 7.24058 
-5.00842 1.38452 7.14402 
-5.09543 1.36939 7.32135 
-5.22863 1.394 7.16573 
2.78472 1.74191 0.529725 
2.63904 1.68669 1.0917 
2.5407 1.70269 0.99634 
2.41186 1.7188 0.914681 
2.28524 1.62618 1.80082 
2.15557 1.62511 1.87261 
2.03524 1.53964 2.69209 
1.80188 1.54976 2.714 
0.961983 1.27194 5.5935 
0.860658 1.25718 5.77377 
0.736172 1.26966 5.7224 
0.636812 1.2701 5.76627 
0.516742 1.27877 5.74674 
0.411405 1.26114 5.95453 
0.29372 1.2849 5.79936 
0.190689 1.26787 6.0007 
0.0695473 1.30227 5.75235 
-0.0308064 1.3007 5.8146 
-0.153214 1.31372 5.7575 
-0.252525 1.32852 5.67334 
-0.375065 1.3472 5.56583 
-0.475269 1.33396 5.73201 
-0.599336 1.36656 5.50119 
-0.697096 1.35377 5.66226 
-0.822902 1.38483 5.44596 
-0.919735 1.38774 5.46658 
-1.04512 1.41472 5.28646 
-1.14774 1.4387 5.12215 
-1.26778 1.43168 5.24249 
-1.37147 1.42979 5.30922 
-1.59406 1.45997 5.1474 
-1.7176 1.49176 4.92354 
-1.82227 1.51087 4.80363 
-1.94865 1.53224 4.67404 
-2.0487 1.53445 4.70251 
-2.17733 1.5599 4.53756 
-2.27479 1.55198 4.65513 
-2.50006 1.56228 4.67178 
-2.63048 1.5866 4.51786 
-2.7253 1.57125 4.70029 
-2.85552 1.59813 4.52342 
-2.94381 1.55103 4.98584 
-3.06866 1.55781 4.9855 
-3.16279 1.54172 5.17428 
-3.28518 1.5465 5.19065 
-3.37444 1.50054 5.64335 
-3.50243 1.52373 5.49824 
-3.59993 1.51245 5.64584 
-3.72711 1.54045 5.45751 
-3.81289 1.48147 6.02459 
-3.9351 1.47608 6.13158 
-4.15248 1.46441 6.34039 
-4.37084 1.4574 6.50815 
-4.44786 1.40507 7.01175 
-4.57461 1.42332 6.91017 
-4.66423 1.41043 7.06828 
-4.78738 1.41145 7.11854 
-4.87629 1.40069 7.25738 
-5.0063 1.41838 7.16241 
-5.08977 1.39787 7.38544 
-5.22822 1.43014 7.16463 
2.78112 1.7653 0.658293 
2.65194 1.76573 0.716367 
2.54311 1.75513 0.86273 
2.40131 1.71937 1.24846 
2.28884 1.67782 1.67166 
0.961943 1.30696 5.6038 
0.862711 1.29583 5.75036 
0.737891 1.30449 5.73332 
0.640075 1.30746 5.75387 
0.518958 1.31339 5.75932 
0.411986 1.30401 5.894 
0.294181 1.31514 5.85168 
0.191578 1.30594 5.98266 
0.0708268 1.33615 5.7722 
-0.0283483 1.3511 5.68697 
-0.150906 1.36005 5.66623 
-0.250875 1.36131 5.70307 
-0.374038 1.37445 5.64548 
-0.472596 1.3722 5.71277 
-0.599308 1.40128 5.51517 
-0.695081 1.39542 5.61328 
-0.821817 1.40992 5.5453 
-0.918525 1.42139 5.48981 
-1.04316 1.44725 5.31987 
-1.14299 1.45532 5.29612 
-1.26646 1.47483 5.18206 
-1.36873 1.47611 5.2198 
-1.59548 1.5098 5.02934 
-1.71956 1.53111 4.89954 
-1.8192 1.53772 4.88872 
-1.94456 1.55736 4.77441 
-2.04573 1.57366 4.67813 
-2.17422 1.58531 4.63635 
-2.27325 1.58559 4.68149 
-2.49869 1.59509 4.70545 
-2.62592 1.6126 4.61091 
-2.72702 1.6223 4.57332 
-2.85099 1.62034 4.65035 
-2.94052 1.58321 5.02342 
-3.06749 1.59644 4.96696 
-3.16079 1.58086 5.15031 
-3.37401 1.54279 5.59118 
-3.50313 1.57087 5.4037 
-3.59518 1.53651 5.75346 
-3.72006 1.552 5.67582 
-3.8101 1.51293 6.0664 
-3.93505 1.51924 6.07044 
-4.14696 1.48468 6.47962 
-4.23535 1.45808 6.75859 
-4.36356 1.47917 6.63281 
-4.44169 1.43532 7.06019 
-4.57309 1.45671 6.93335 
-4.66162 1.44263 7.10115 
-4.79146 1.46357 6.97747 
-4.87136 1.42876 7.32538 
-5.00469 1.45617 7.14593 
-5.08606 1.42936 7.42348 
-5.22422 1.46257 7.1948 
2.77063 1.74895 1.14163 
2.64611 1.7751 0.969505 
2.5333 1.73506 1.37831 
2.40497 1.77276 1.10563 
2.28836 1.68929 1.90109 
2.04355 1.63189 2.52698 
0.963098 1.33687 5.65886 
0.865987 1.33924 5.68431 
0.739718 1.34084 5.7307 
0.639552 1.32706 5.90079 
0.519279 1.34523 5.79744 
0.41566 1.34455 5.8531 
0.296858 1.35666 5.80269 
0.193785 1.33875 6.01085 
0.0728187 1.37603 5.73845 
-0.0267917 1.36994 5.84017 
-0.149595 1.39496 5.6773 
-0.248869 1.39717 5.70523 
-0.372702 1.41929 5.56863 
-0.472101 1.40262 5.76403 
-0.596271 1.43672 5.52132 
-0.693569 1.42896 5.63674 
-0.820347 1.45768 5.44302 
-0.916166 1.4713 5.36821 
-1.04028 1.46863 5.45143 
-1.14096 1.48968 5.3132 
-1.26363 1.49438 5.33035 
-1.36676 1.50106 5.32062 
-1.49057 1.52941 5.12877 
-1.59164 1.53167 5.15717 
-1.71587 1.55974 4.96796 
-1.81611 1.56342 4.98345 
-1.94381 1.59663 4.75041 
-2.04559 1.61515 4.63507 
-2.17356 1.62825 4.58038 
-2.2691 1.61522 4.74169 
-2.39834 1.64303 4.5573 
-2.49487 1.61742 4.83062 
-2.62506 1.6502 4.60257 
-2.72063 1.64065 4.73303 
-2.84924 1.6561 4.65781 
-2.93949 1.62284 4.99594 
-3.06573 1.63267 4.96942 
-3.15761 1.61278 5.18981 
-3.28261 1.61906 5.19418 
-3.36747 1.55089 5.8392 
-3.48989 1.54917 5.9132 
-3.59344 1.56673 5.80729 
-3.71649 1.57479 5.79492 
-3.80834 1.5488 6.06941 
-3.93546 1.56632 5.97522 
-4.14602 1.52421 6.4496 
-4.23113 1.4919 6.77691 
-4.3556 1.49666 6.79451 
-4.44829 1.49024 6.89599 
-4.57261 1.49732 6.89294 
-4.6604 1.47937 7.09426 
-4.78751 1.49503 7.01649 
-4.86582 1.45819 7.38071 
-4.99906 1.48101 7.24246 
-5.08711 1.47083 7.37508 
-5.22076 1.49687 7.20844 
2.76396 1.74904 1.47528 
2.64407 1.80032 1.07935 
2.5459 1.81514 0.995313 
2.4199 1.84096 0.827335 
2.29448 1.73555 1.81871 
2.05815 1.73322 1.95227 
0.964946 1.38175 5.58094 
0.864442 1.35868 5.83287 
0.741912 1.38139 5.69075 
0.640108 1.35894 5.93784 
0.519553 1.37189 5.88107 
0.416695 1.36835 5.96158 
0.297685 1.39124 5.81622 
0.196344 1.38647 5.90685 
0.0742157 1.40505 5.80111 
-0.0237861 1.40611 5.8386 
-0.147263 1.43485 5.64371 
-0.246541 1.4352 5.68815 
-0.370096 1.4611 5.51839 
-0.469908 1.45433 5.62596 
-0.59367 1.47492 5.50323 
-0.691922 1.46296 5.65593 
-0.818603 1.49433 5.43941 
-0.914352 1.49034 5.52046 
-1.03821 1.50313 5.46676 
-1.13953 1.52882 5.28816 
-1.26219 1.53429 5.29858 
-1.36473 1.52785 5.4046 
-1.48887 1.56995 5.09194 
-1.58939 1.57635 5.08356 
-1.71472 1.59462 4.98204 
-1.81477 1.60223 4.9627 
-1.94383 1.63171 4.76396 
-2.04161 1.64337 4.70777 
-2.16984 1.64743 4.73328 
-2.2687 1.65867 4.68132 
-2.40018 1.69012 4.46636 
-2.49512 1.66891 4.69926 
-2.62342 1.69211 4.5557 
-2.71748 1.6759 4.74405 
-2.8472 1.69541 4.63378 
-2.93795 1.66037 4.98693 
-3.06268 1.65985 5.05132 
-3.14887 1.61741 5.46778 
-3.27291 1.62888 5.42586 
-3.3583 1.53128 6.32944 
-3.48076 1.54614 6.25683 
-3.58796 1.58819 5.93657 
-3.71487 1.61387 5.77039 
-3.80427 1.57267 6.17739 
-3.93032 1.58708 6.11049 
-4.14609 1.56727 6.38908 
-4.22191 1.51297 6.9054 
-4.35409 1.53463 6.77733 
-4.44089 1.51095 7.02831 
-4.56519 1.51921 7.01495 
-4.65674 1.50977 7.14228 
-4.78661 1.53068 7.01978 
-4.86621 1.49704 7.35531 
-5.00238 1.52959 7.13296 
-5.0789 1.49126 7.50844 
-5.2204 1.53551 7.1852 
2.79429 1.91916 0.291016 
2.64861 1.85044 0.966105 
2.53939 1.83268 1.17465 
2.42192 1.87633 0.84606 
2.29889 1.79732 1.60096 
1.82281 1.75311 2.21767 
0.966696 1.41151 5.63671 
0.86763 1.40008 5.78481 
0.743075 1.40784 5.77581 
0.644096 1.41083 5.79675 
0.523348 1.42281 5.74888 
0.418247 1.40022 5.99813 
0.197538 1.41765 5.94989 
0.0758403 1.43901 5.81982 
-0.0196293 1.45676 5.70897 
-0.145539 1.46788 5.67109 
-0.244993 1.47455 5.65981 
-0.369523 1.47942 5.67645 
-0.468458 1.4883 5.64545 
-0.690203 1.50199 5.63075 
-0.816553 1.51857 5.54502 
-0.91285 1.52714 5.51551 
-1.03679 1.54293 5.43552 
-1.13636 1.54633 5.45317 
-1.25992 1.56187 5.37525 
-1.36383 1.57653 5.29574 
-1.58766 1.60883 5.11807 
-1.71343 1.64165 4.88895 
-1.81285 1.63441 5.00023 
-1.94049 1.66599 4.78294 
-2.03973 1.67026 4.79275 
-2.16803 1.69068 4.67412 
-2.26507 1.70172 4.62323 
-2.39716 1.71661 4.55517 
-2.4914 1.69418 4.7979 
-2.61948 1.71652 4.66233 
-2.71363 1.70013 4.85178 
-2.84306 1.72212 4.71985 
-2.9427 1.72806 4.7152 
-3.05824 1.68932 5.11198 
-3.14791 1.65675 5.44194 
-3.27722 1.688 5.22837 
-3.58544 1.61433 6.02521 
-3.70933 1.63046 5.94233 
-3.80479 1.62052 6.07566 
-4.14541 1.60497 6.37575 
-4.22027 1.54897 6.90527 
-4.35274 1.5696 6.78678 
-4.43852 1.54488 7.04582 
-4.565 1.55848 6.98647 
-4.65363 1.54349 7.16107 
-4.78055 1.55681 7.10441 
-4.86579 1.53527 7.33515 
-4.99794 1.56058 7.17533 
-5.07396 1.52036 7.56631 
-5.22139 1.57669 7.1404 
2.7704 1.83757 1.35123 
2.65162 1.88634 0.979113 
2.54478 1.86834 1.18817 
2.42139 1.904 0.933565 
2.29582 1.82745 1.66604 
0.968643 1.44386 5.66944 
0.868953 1.43263 5.81561 
0.745782 1.45481 5.6794 
0.646111 1.44105 5.84781 
0.523629 1.44847 5.84106 
0.42047 1.43576 6.0019 
0.19941 1.4586 5.90655 
0.0795641 1.47925 5.78224 
-0.0214125 1.47353 5.88064 
-0.143064 1.51325 5.58955 
-0.243471 1.49445 5.80269 
-0.367193 1.52369 5.60476 
-0.467289 1.51353 5.7418 
-0.68839 1.53969 5.6173 
-0.814562 1.56771 5.43128 
-0.910522 1.56271 5.52099 
-1.03498 1.5803 5.42576 
-1.13508 1.60114 5.29035 
-1.2598 1.60872 5.28321 
-1.36461 1.62011 5.23313 
-1.58639 1.64267 5.1407 
-1.71242 1.67707 4.89851 
-1.8154 1.67453 4.96994 
-1.93984 1.70616 4.75132 
-2.26617 1.72764 4.71837 
-2.48926 1.72682 4.83207 
-2.62377 1.77508 4.47205 
-2.71729 1.76744 4.58389 
-2.84111 1.7537 4.76377 
-2.93158 1.72695 5.04217 
-3.05866 1.73385 5.04217 
-3.15105 1.70808 5.31279 
-3.27313 1.713 5.32787 
-3.3635 1.66342 5.80692 
-3.70597 1.66068 5.99457 
-4.14102 1.63009 6.4714 
-4.22327 1.58899 6.87199 
-4.35235 1.60984 6.75045 
-4.43514 1.57431 7.10232 
-4.57176 1.61702 6.79218 
-4.65358 1.58478 7.11474 
-4.7764 1.58557 7.16648 
-4.86404 1.57019 7.34356 
-4.99257 1.585 7.27482 
-5.07202 1.5538 7.5871 
-5.21047 1.59153 7.32167 
2.66099 1.95167 0.731163 
2.5438 1.9107 1.14596 
2.41351 1.90494 1.25838 
2.29837 1.86063 1.70136 
0.968657 1.46829 5.77228 
0.870596 1.469 5.8127 
0.746106 1.47837 5.78981 
0.648882 1.48161 5.80771 
0.524101 1.47472 5.92745 
0.42216 1.47883 5.93993 
0.201488 1.49192 5.93031 
0.0795076 1.51037 5.82662 
-0.0177382 1.52187 5.77216 
-0.142745 1.54127 5.66162 
-0.242889 1.52864 5.82002 
-0.36557 1.55819 5.61942 
-0.465007 1.55192 5.72167 
-0.686986 1.56384 5.72298 
-0.813161 1.60483 5.42378 
-0.908769 1.59076 5.59264 
-1.03357 1.62042 5.39208 
-1.13369 1.63098 5.34724 
-1.25706 1.63858 5.33935 
-1.36059 1.65691 5.22807 
-1.48225 1.67813 5.10002 
-1.58356 1.67486 5.17694 
-1.70881 1.70588 4.96473 
-1.81333 1.71313 4.95094 
-2.48799 1.77215 4.7552 
-2.6169 1.79207 4.64198 
-2.71309 1.78012 4.7926 
-2.84018 1.78909 4.77454 
-2.93141 1.76709 5.0109 
-3.05588 1.76571 5.08233 
-3.14661 1.73038 5.43526 
-3.36342 1.71608 5.66409 
-3.48911 1.72929 5.6082 
-3.57879 1.6709 6.16278 
-3.70134 1.67851 6.15454 
-4.13732 1.65675 6.55327 
-4.35105 1.64692 6.74145 
-4.45111 1.65508 6.71767 
-4.56716 1.64349 6.87469 
-4.65134 1.61554 7.15985 
-4.77744 1.62826 7.10854 
-4.85972 1.59894 7.40482 
-4.9922 1.62531 7.23693 
-5.07662 1.60648 7.44232 
-5.21192 1.63415 7.26431 
2.78118 1.9405 1.10067 
2.64587 1.91949 1.34843 
2.546 1.94764 1.14981 
2.4164 1.94015 1.27672 
2.30031 1.8978 1.702 
0.971713 1.50498 5.76594 
0.871716 1.50046 5.85292 
0.748437 1.51417 5.79166 
0.648265 1.50546 5.91543 
0.527693 1.51947 5.85021 
0.424052 1.51441 5.94373 
0.202609 1.53057 5.9077 
0.0808625 1.54707 5.82132 
-0.0166313 1.54675 5.87046 
-0.14068 1.57038 5.72285 
-0.240358 1.58143 5.67369 
-0.363116 1.59777 5.58923 
-0.463616 1.58191 5.77566 
-0.685585 1.59672 5.75168 
-0.811196 1.62918 5.52772 
-0.908474 1.63925 5.4859 
-1.03163 1.65648 5.39385 
-1.1317 1.66702 5.34931 
-1.25373 1.66677 5.40953 
-1.35903 1.71057 5.0768 
-1.58078 1.7006 5.26937 
-1.70769 1.73963 4.98864 
-1.80781 1.75012 4.94452 
-1.9358 1.77469 4.79064 
-2.0351 1.77958 4.79518 
-2.15434 1.73773 5.21769 
-2.26409 1.81053 4.63355 
-2.48582 1.80253 4.80901 
-2.61822 1.84079 4.53757 
-2.71219 1.82538 4.71699 
-2.83877 1.8345 4.69753 
-2.9301 1.79895 5.0517 
-3.0525 1.7941 5.15236 
-3.14429 1.77115 5.39668 
-3.35804 1.73344 5.82806 
-3.49022 1.77435 5.53343 
-3.5828 1.73396 5.93059 
-3.70923 1.76449 5.72384 
-3.79721 1.71636 6.18653 
-4.12845 1.67286 6.72457 
-4.22319 1.66632 6.82686 
-4.35221 1.69058 6.67624 
-4.43374 1.65222 7.05043 
-4.5595 1.6645 7.003 
-4.65099 1.65436 7.13527 
-4.78087 1.676 7.00797 
-4.86548 1.65104 7.26647 
-4.99125 1.6652 7.20262 
-5.06948 1.62673 7.57619 
-5.20714 1.66275 7.32691 
2.64687 1.95391 1.37423 
2.55844 2.02571 0.790315 
2.41634 1.97568 1.29366 
0.972316 1.53627 5.80798 
0.872227 1.52774 5.92974 
0.748371 1.53889 5.89133 
0.650117 1.54105 5.9191 
0.528458 1.55387 5.86506 
0.426428 1.55097 5.93868 
0.305279 1.56032 5.91468 
0.204307 1.56179 5.94981 
0.0844659 1.59627 5.70609 
-0.0136973 1.59841 5.73401 
-0.138122 1.615 5.64839 
-0.236749 1.61459 5.69881 
-0.362028 1.62867 5.63552 
-0.461608 1.6263 5.70347 
-0.682788 1.64691 5.62872 
-0.810153 1.6741 5.45218 
-0.906087 1.6714 5.52132 
-1.03028 1.69245 5.39678 
-1.13002 1.69733 5.40158 
-1.25274 1.7061 5.38336 
-1.35847 1.73926 5.14455 
-1.57949 1.7492 5.1628 
-1.70639 1.7815 4.94149 
-1.80627 1.77943 5.00698 
-1.93399 1.81925 4.72051 
-2.03396 1.82843 4.688 
-2.15794 1.81694 4.84701 
-2.2604 1.84625 4.64021 
-2.39298 1.88052 4.4044 
-2.48529 1.84824 4.72963 
-2.61421 1.8654 4.64128 
-2.71106 1.86985 4.64851 
-2.83556 1.85408 4.84514 
-2.9278 1.83349 5.06845 
-3.04997 1.82789 5.17536 
-3.14132 1.80121 5.45139 
-3.26585 1.80918 5.44103 
-3.3583 1.77482 5.78453 
-3.48516 1.79535 5.66588 
-3.58466 1.78926 5.76625 
-3.70439 1.78257 5.88146 
-3.79468 1.74733 6.23162 
-3.92051 1.76047 6.17691 
-4.13584 1.73755 6.47913 
-4.21185 1.67869 7.02838 
-4.34788 1.72004 6.73261 
-4.43121 1.68762 7.05486 
-4.55909 1.70318 6.97999 
-4.65126 1.69615 7.08514 
-4.77278 1.69871 7.12062 
-4.85927 1.67618 7.35819 
-4.98368 1.6842 7.34747 
-5.06686 1.65872 7.60921 
-5.21001 1.70547 7.26977 
2.65562 2.01718 1.14549 
2.5514 2.02848 1.09654 
2.42502 2.04766 0.989651 
2.30361 1.96543 1.76175 
0.973606 1.57737 5.76413 
0.875856 1.57614 5.82111 
0.752066 1.5909 5.75136 
0.653637 1.5859 5.84143 
0.530922 1.58421 5.91429 
0.427262 1.58166 5.98553 
0.306789 1.5979 5.90137 
0.206774 1.60019 5.92886 
0.0851634 1.62937 5.73277 
-0.0113916 1.63732 5.70943 
-0.136704 1.64815 5.67461 
-0.235524 1.6483 5.72013 
-0.361324 1.6589 5.68764 
-0.459845 1.65633 5.7566 
-0.680987 1.67654 5.6857 
-0.807917 1.71452 5.4157 
-0.904973 1.73063 5.32162 
-1.02989 1.74905 5.22069 
-1.12767 1.73271 5.40913 
-1.25194 1.76329 5.20218 
-1.35852 1.81586 4.79566 
-1.57662 1.76476 5.3433 
-1.70221 1.80531 5.05031 
-1.80532 1.82245 4.95023 
-1.92952 1.84572 4.80681 
-2.02899 1.85365 4.78504 
-2.15992 1.86759 4.72588 
-2.25568 1.87824 4.67875 
-2.39201 1.9195 4.38472 
-2.48203 1.87265 4.83469 
-2.61226 1.90207 4.64068 
-2.70928 1.90741 4.6403 
-2.83803 1.91407 4.64346 
-2.92412 1.86235 5.13393 
-3.0503 1.87314 5.09996 
-3.1376 1.82746 5.53849 
-3.26294 1.8399 5.48979 
-3.35823 1.81907 5.71613 
-3.48378 1.84089 5.58598 
-3.57997 1.81755 5.83455 
-3.70208 1.81854 5.88391 
-3.79324 1.78418 6.22589 
-3.92061 1.80511 6.10436 
-4.12913 1.7557 6.63297 
-4.2086 1.71012 7.06691 
-4.34216 1.74463 6.83027 
-4.42861 1.71997 7.08575 
-4.55747 1.74074 6.96634 
-4.6458 1.72285 7.16389 
-4.77224 1.73713 7.09976 
-4.85563 1.71054 7.37054 
-4.98107 1.71918 7.35498 
-5.06611 1.69854 7.57486 
-5.20322 1.73184 7.3504 
2.65197 2.04451 1.23542 
2.5474 2.03837 1.33802 
2.42444 2.07201 1.10444 
2.31469 2.03475 1.47918 
2.18094 2.01442 1.7186 
0.97563 1.61201 5.77618 
0.876782 1.60636 5.87188 
0.754 1.63023 5.72299 
0.654476 1.61509 5.90132 
0.53348 1.6226 5.89337 
0.430858 1.62483 5.92259 
0.208258 1.63262 5.96028 
0.0865299 1.65891 5.78991 
-0.0104457 1.66319 5.79873 
-0.13638 1.67424 5.76247 
-0.236018 1.67253 5.82439 
-0.358414 1.69376 5.69824 
-0.45859 1.68787 5.79666 
-0.678873 1.71542 5.66208 
-0.806356 1.74088 5.50165 
-0.903679 1.77102 5.28634 
-1.03103 1.81321 4.98091 
-1.12526 1.75858 5.49908 
-1.25018 1.79628 5.23132 
-1.35792 1.8473 4.83999 
-1.57435 1.79669 5.38121 
-1.69998 1.85445 4.93991 
-1.80337 1.86793 4.87195 
-1.92761 1.87473 4.87182 
-2.02789 1.90058 4.6952 
-2.15665 1.90268 4.7379 
-2.25356 1.92403 4.59865 
-2.47762 1.90282 4.88862 
-2.61075 1.93539 4.66931 
-2.70554 1.9298 4.76262 
-2.83328 1.94068 4.72881 
-2.92058 1.88807 5.22624 
-3.04685 1.90209 5.16449 
-3.13692 1.86692 5.51209 
-3.26213 1.87726 5.48174 
-3.35731 1.85762 5.69709 
-3.48179 1.8713 5.63749 
-3.57206 1.82195 6.10814 
-3.70079 1.85714 5.86402 
-3.79306 1.8296 6.14646 
-3.91743 1.83422 6.16535 
-4.13163 1.80452 6.52436 
-4.21733 1.77152 6.85115 
-4.3444 1.79012 6.75012 
-4.42573 1.75454 7.09717 
-4.55515 1.77365 6.99281 
-4.64256 1.75455 7.1998 
-4.77172 1.77458 7.08739 
-4.84853 1.7304 7.50691 
-4.98487 1.7671 7.25329 
-5.06914 1.74621 7.47443 
-5.20317 1.77195 7.3148 
2.6561 2.1054 1.0311 
2.56 2.11628 0.98235 
2.4285 2.12073 1.00577 
2.31332 2.06832 1.51317 
0.978426 1.65297 5.73324 
0.87768 1.63943 5.89785 
0.754767 1.65003 5.8642 
0.655087 1.64602 5.94586 
0.53334 1.64954 5.97294 
0.430483 1.65003 6.0172 
0.210614 1.67369 5.91649 
0.0881617 1.69073 5.82693 
-0.00894002 1.70751 5.7277 
-0.133493 1.72148 5.66571 
-0.233838 1.71224 5.79298 
-0.357629 1.72722 5.72191 
-0.455617 1.73343 5.7145 
-0.677405 1.75046 5.67198 
-0.804414 1.76954 5.56703 
-0.901903 1.82467 5.13644 
-1.02954 1.85333 4.94897 
-1.12422 1.80095 5.44649 
-1.24934 1.83561 5.20596 
-1.35235 1.83409 5.26777 
-1.57437 1.86341 5.11919 
-1.7003 1.89536 4.90241 
-1.80091 1.90028 4.90743 
-1.92821 1.92249 4.77557 
-2.02498 1.92801 4.77356 
-2.15527 1.94309 4.70472 
-2.25438 1.95562 4.64323 
-2.38755 1.98668 4.43761 
-2.47964 1.94897 4.80723 
-2.6105 1.98928 4.52056 
-2.70459 1.9791 4.65301 
-2.83366 1.986 4.65433 
-2.91838 1.92384 5.23184 
-3.04602 1.94233 5.13234 
-3.13047 1.88468 5.67075 
-3.25988 1.91385 5.47973 
-3.35156 1.87385 5.86891 
-3.4791 1.9011 5.69363 
-3.57759 1.88639 5.86742 
-3.69788 1.88401 5.94485 
-3.79028 1.86019 6.19453 
-3.91715 1.87558 6.12146 
-4.12424 1.82251 6.67835 
-4.20866 1.78923 7.00603 
-4.34646 1.83668 6.66095 
-4.42829 1.79886 7.02674 
-4.55866 1.82537 6.85919 
-4.64247 1.79332 7.17597 
-4.76571 1.79945 7.18133 
-4.85031 1.77418 7.43989 
-4.98111 1.79801 7.29573 
-5.06556 1.77603 7.52576 
-5.20347 1.81416 7.26131 
2.66442 2.15559 0.918136 
2.55697 2.13917 1.11025 
2.43416 2.16385 0.955241 
0.978502 1.67975 5.81403 
0.879782 1.67763 5.87883 
0.75714 1.69834 5.75806 
0.656815 1.67403 6.01488 
0.534636 1.68381 5.98818 
0.431569 1.68187 6.05343 
0.211452 1.70311 5.97401 
0.0903637 1.72903 5.8076 
-0.00884629 1.73702 5.78547 
-0.132072 1.75291 5.70657 
-0.231727 1.75629 5.7244 
-0.35509 1.77467 5.62407 
-0.453492 1.76623 5.74319 
-0.675827 1.78891 5.65253 
-0.801655 1.80161 5.60236 
-0.900578 1.84318 5.29056 
-1.02508 1.86783 5.13674 
-1.12299 1.85273 5.31305 
-1.24697 1.86174 5.29385 
-1.34832 1.87284 5.24595 
-1.47129 1.89348 5.12593 
-1.57402 1.89756 5.13926 
-1.7007 1.93705 4.85848 
-1.79993 1.94028 4.87742 
-1.92538 1.94869 4.86414 
-2.02714 1.95018 4.8993 
-2.1531 1.97233 4.76771 
-2.25505 2.00036 4.57411 
-2.38176 2.01096 4.54253 
-2.4773 1.98499 4.81152 
-2.60888 2.0224 4.55101 
-2.69961 1.9946 4.83352 
-2.83144 2.01038 4.75969 
-2.91602 1.95548 5.27302 
-3.04198 1.9698 5.20897 
-3.13587 1.95147 5.41142 
-3.25709 1.94673 5.5095 
-3.35027 1.90853 5.88286 
-3.47674 1.93864 5.6829 
-3.57382 1.91117 5.96567 
-3.69557 1.92418 5.91096 
-3.78629 1.88446 6.29628 
-3.91302 1.90212 6.20383 
-4.12391 1.86319 6.63919 
-4.20363 1.81536 7.08929 
-4.34016 1.85894 6.77798 
-4.42668 1.83773 7.00177 
-4.55621 1.85717 6.89528 
-4.63572 1.81579 7.28971 
-4.77197 1.8549 7.01683 
-4.85378 1.82342 7.32693 
-4.98208 1.84158 7.23094 
-5.06641 1.81796 7.47452 
-5.19893 1.84399 7.31265 
2.65716 2.14825 1.30774 
2.5533 2.14567 1.37875 
2.43297 2.18326 1.11205 
1.94015 2.06285 2.37886 
0.980781 1.72285 5.75314 
0.882039 1.71664 5.85291 
0.758563 1.7296 5.7996 
0.657167 1.70763 6.03616 
0.537355 1.72249 5.96476 
0.433549 1.72112 6.02536 
0.21397 1.73693 5.99274 
0.0914434 1.76529 5.80649 
-0.00698906 1.78395 5.69238 
-0.129988 1.78904 5.70645 
-0.229776 1.78808 5.76167 
-0.354077 1.79418 5.76774 
-0.453097 1.79437 5.81269 
-0.674438 1.81947 5.701 
-0.799051 1.84836 5.51131 
-0.897949 1.86119 5.4475 
-1.02127 1.87948 5.34828 
-1.12133 1.88338 5.36187 
-1.24598 1.91165 5.17747 
-1.34801 1.91063 5.23425 
-1.47037 1.92056 5.20644 
-1.57217 1.94166 5.07294 
-1.69664 1.94647 5.09024 
-1.79904 1.97312 4.90928 
-1.92282 1.98223 4.88925 
-2.02434 2.00388 4.75091 
-2.15028 2.00106 4.83447 
-2.25027 2.02428 4.6819 
-2.38098 2.04915 4.52956 
-2.47594 2.0269 4.76563 
-2.60401 2.0408 4.70644 
-2.69937 2.03352 4.81398 
-2.83008 2.05139 4.72192 
-2.91451 1.99073 5.28334 
-3.04649 2.03191 4.99134 
-3.13075 1.97105 5.55445 
-3.25695 1.98797 5.46843 
-3.34966 1.94865 5.85029 
-3.47447 1.9657 5.76245 
-3.56985 1.93905 6.03662 
-3.69248 1.94662 6.02932 
-3.78668 1.93134 6.20515 
-3.91011 1.92896 6.28383 
-4.12508 1.90821 6.56359 
-4.21355 1.88293 6.82269 
-4.34171 1.90449 6.69772 
-4.42577 1.87171 7.01929 
-4.55017 1.88261 6.98421 
-4.63531 1.8553 7.25928 
-4.7611 1.86733 7.21513 
-4.85121 1.85718 7.34496 
-4.98006 1.87596 7.24421 
-5.06321 1.85123 7.49618 
-5.20193 1.8879 7.24623 
2.66148 2.19028 1.26659 
2.56299 2.19898 1.23812 
2.43101 2.20892 1.21483 
2.32016 2.17777 1.53388 
0.982771 1.75268 5.80645 
0.884898 1.75773 5.80903 
0.761162 1.77257 5.73994 
0.657317 1.73501 6.11078 
0.537544 1.75512 5.99452 
0.436259 1.75532 6.04038 
0.314736 1.77175 5.95653 
0.215086 1.76945 6.02307 
0.0936327 1.80529 5.77282 
-0.00472227 1.79783 5.88301 
-0.129652 1.81599 5.78591 
-0.228977 1.82372 5.76633 
-0.352296 1.83362 5.73934 
-0.451237 1.83256 5.79492 
-0.574661 1.84999 5.70346 
-0.672459 1.85485 5.70772 
-0.798808 1.88596 5.50032 
-0.895504 1.8931 5.48449 
-1.02234 1.9405 5.13768 
-1.11931 1.91413 5.40939 
-1.24315 1.93083 5.32433 
-1.34677 1.94188 5.27827 
-1.5699 1.9692 5.14892 
-1.69473 1.98675 5.0571 
-1.79658 2.00859 4.91766 
-1.92312 2.03119 4.78332 
-2.01894 2.02978 4.84051 
-2.1502 2.05633 4.67452 
-2.25113 2.06681 4.63208 
-2.47228 2.05896 4.80345 
-2.60358 2.092 4.58185 
-2.69846 2.07106 4.80607 
-2.8261 2.08476 4.74858 
-2.91323 2.03223 5.24003 
-3.04267 2.05913 5.07027 
-3.12575 1.99508 5.65866 
-3.25483 2.02395 5.47178 
-3.34868 1.98943 5.81205 
-3.47376 2.01268 5.67146 
-3.56833 1.97548 6.03503 
-3.68875 1.97298 6.11314 
-3.78221 1.95226 6.33479 
-3.90681 1.95698 6.353 
-4.12037 1.93491 6.64283 
-4.20806 1.91032 6.89499 
-4.33465 1.92575 6.82229 
-4.41652 1.89101 7.15878 
-4.54696 1.91228 7.03779 
-4.63395 1.89093 7.26182 
-4.76068 1.90717 7.18224 
-4.84698 1.88592 7.40513 
-4.9787 1.91049 7.25643 
-5.05803 1.87639 7.58629 
-5.18865 1.89867 7.4567 
2.79601 2.23663 1.12766 
2.66932 2.25115 1.06284 
2.55181 2.19624 1.58738 
2.42727 2.23479 1.31601 
0.985432 1.79445 5.75706 
0.886838 1.79358 5.81069 
0.762673 1.80803 5.74529 
0.657819 1.76219 6.18648 
0.537505 1.78247 6.06945 
0.437106 1.7845 6.09916 
0.21687 1.80647 6.01458 
0.0942816 1.83403 5.83633 
-0.000847384 1.85157 5.7309 
-0.127289 1.85351 5.77365 
-0.22706 1.8598 5.76668 
-0.350321 1.86552 5.77556 
-0.449509 1.86761 5.80422 
-0.671336 1.88914 5.72412 
-0.797644 1.92177 5.50432 
-0.893871 1.93948 5.39801 
-1.01831 1.94722 5.39013 
-1.11854 1.95125 5.40275 
-1.24088 1.96537 5.33941 
-1.34313 1.96781 5.36646 
-1.46587 1.9999 5.14968 
-1.56738 1.9999 5.19732 
-1.69372 2.03484 4.95776 
-1.7944 2.04403 4.92637 
-1.92224 2.06805 4.78096 
-2.01973 2.07693 4.75078 
-2.14852 2.09423 4.66326 
-2.25061 2.10983 4.57782 
-2.38015 2.12807 4.48256 
-2.47221 2.10747 4.70198 
-2.60224 2.12479 4.6149 
-2.69574 2.1012 4.86059 
-2.82286 2.11693 4.78574 
-2.91357 2.07755 5.16519 
-3.03892 2.08684 5.14459 
-3.12864 2.05022 5.49993 
-3.25269 2.06303 5.44868 
-3.34406 2.01334 5.91656 
-3.46997 2.04067 5.74201 
-3.5657 2.00922 6.05598 
-3.68902 2.02225 6.00245 
-3.782 1.99687 6.2632 
-3.90678 2.00239 6.27465 
-4.12086 1.97767 6.58668 
-4.20546 1.942 6.93153 
-4.33226 1.96042 6.83364 
-4.41926 1.93602 7.08325 
-4.54827 1.95686 6.9656 
-4.63499 1.93346 7.20655 
-4.76286 1.95306 7.09903 
-4.845 1.92046 7.41645 
-4.97075 1.93059 7.38899 
-5.05653 1.90991 7.60618 
-5.18502 1.92942 7.49972 
2.66483 2.26462 1.27025 
2.56094 2.26864 1.28453 
2.43037 2.27546 1.28738 
2.18845 2.23631 1.73434 
0.989552 1.83877 5.6855 
0.887674 1.82198 5.87638 
0.765409 1.85105 5.68567 
0.662227 1.80481 6.12834 
0.538963 1.81559 6.09407 
0.438326 1.82461 6.06423 
0.219771 1.85223 5.93097 
0.0968172 1.86785 5.8553 
-0.00119917 1.87749 5.81897 
-0.125867 1.89321 5.74329 
-0.225594 1.89568 5.76892 
-0.347412 1.9148 5.66289 
-0.447209 1.91103 5.74179 
-0.669322 1.92432 5.73244 
-0.795498 1.95856 5.49946 
-0.891855 1.9648 5.49135 
-1.01575 1.97484 5.4638 
-1.11665 2.00021 5.29463 
-1.23789 2.00039 5.34989 
-1.33906 2.01559 5.26769 
-1.56686 2.04555 5.11886 
-1.69136 2.05904 5.06213 
-1.79206 2.07828 4.9452 
-1.92015 2.1153 4.6894 
-2.02002 2.11185 4.76563 
-2.14787 2.12534 4.71056 
-2.24617 2.13392 4.68344 
-2.47008 2.13786 4.75473 
-2.59961 2.15252 4.69046 
-2.69347 2.14024 4.83917 
-2.82297 2.15416 4.78117 
-2.91142 2.11914 5.12134 
-3.03689 2.12278 5.14916 
-3.13104 2.10117 5.37758 
-3.24985 2.08789 5.54665 
-3.34343 2.0527 5.89069 
-3.46858 2.07854 5.72895 
-3.5638 2.04106 6.09333 
-3.68728 2.058 6.00677 
-3.77943 2.02768 6.3086 
-3.90859 2.05955 6.09735 
-4.12055 2.01752 6.55531 
-4.1998 1.96719 7.02186 
-4.33415 2.00591 6.75461 
-4.41406 1.96244 7.16293 
-4.54135 1.98083 7.06579 
-4.63347 1.97249 7.1802 
-4.75801 1.98046 7.17062 
-4.84459 1.95892 7.39507 
-4.97348 1.97782 7.29433 
-5.05952 1.95829 7.50135 
-5.19425 1.98536 7.3337 
2.79338 2.29965 1.23109 
2.66366 2.30477 1.24803 
2.56253 2.30626 1.28261 
2.43624 2.33201 1.12251 
2.32174 2.29258 1.51124 
0.989221 1.86661 5.75661 
0.8906 1.86585 5.80916 
0.7663 1.87968 5.74959 
0.663683 1.84112 6.12559 
0.541352 1.85589 6.05709 
0.438853 1.85326 6.12731 
0.220322 1.87894 6.01105 
0.0991916 1.91231 5.78383 
0.00148323 1.90888 5.85867 
-0.125447 1.91434 5.87156 
-0.22328 1.93008 5.78333 
-0.34608 1.95315 5.64457 
-0.445709 1.93799 5.82004 
-0.667554 1.96403 5.70226 
-0.7942 1.99586 5.49072 
-0.891015 1.99625 5.5327 
-1.01378 2.00924 5.47957 
-1.11515 2.02198 5.41865 
-1.2387 2.04137 5.31149 
-1.33895 2.0496 5.28836 
-1.4637 2.07417 5.13767 
-1.56626 2.08116 5.12621 
-1.69111 2.11201 4.92215 
-1.79033 2.11563 4.93781 
-1.91708 2.13334 4.84641 
-2.0186 2.15874 4.67783 
-2.14596 2.17229 4.62221 
-2.24541 2.1745 4.64993 
-2.3758 2.19567 4.53081 
-2.46685 2.16032 4.87416 
-2.59645 2.18773 4.70162 
-2.69229 2.18561 4.76457 
-2.81764 2.18067 4.86527 
-2.91122 2.15718 5.10888 
-3.03531 2.15904 5.15111 
-3.12721 2.13052 5.43678 
-3.24802 2.12487 5.54144 
-3.34265 2.09211 5.8644 
-3.46783 2.11395 5.73726 
-3.56414 2.08595 6.0206 
-3.68544 2.09017 6.04146 
-3.77624 2.05663 6.36937 
-3.90107 2.06435 6.36212 
-4.11616 2.04555 6.6228 
-4.19787 2.00268 7.02581 
-4.32813 2.02997 6.85471 
-4.41735 2.01291 7.04163 
-4.5409 2.01867 7.05053 
-4.63509 2.01313 7.14179 
-4.75699 2.01437 7.18838 
-4.84069 1.9888 7.44513 
-4.9695 2.00901 7.33356 
-5.05363 1.9859 7.56962 
-5.19507 2.02789 7.27868 
2.66538 2.3178 1.45473 
2.56161 2.33936 1.32018 
2.43729 2.35812 1.21896 
2.32366 2.33479 1.46983 
0.989108 1.89664 5.8087 
0.889394 1.87968 5.99914 
0.767974 1.91061 5.7934 
0.667899 1.89754 5.95095 
0.543813 1.89175 6.05795 
0.442124 1.89259 6.09829 
0.222455 1.91501 6.01056 
0.10008 1.93707 5.88052 
0.00291231 1.93842 5.91436 
-0.121957 1.96443 5.75196 
-0.221147 1.97758 5.68674 
-0.344762 1.98463 5.68462 
-0.443539 1.98448 5.73199 
-0.666436 1.99724 5.72779 
-0.791521 2.0247 5.55319 
-0.888029 2.01866 5.64953 
-1.01308 2.05983 5.35858 
-1.11203 2.0636 5.37287 
-1.23679 2.07763 5.31208 
-1.3381 2.0843 5.30278 
-1.46195 2.10524 5.18293 
-1.5659 2.12554 5.05924 
-1.69102 2.16338 4.79669 
-1.78998 2.16473 4.83139 
-1.91564 2.1799 4.76142 
-2.01498 2.19946 4.64188 
-2.14517 2.2094 4.61838 
-2.24513 2.21071 4.65393 
-2.37363 2.23619 4.49782 
-2.46825 2.2112 4.75399 
-2.60049 2.24648 4.51645 
-2.68744 2.19886 4.96113 
-2.8205 2.23135 4.74769 
-2.9112 2.2 5.05605 
-3.03362 2.19524 5.15368 
-3.12352 2.15807 5.51103 
-3.24821 2.17034 5.46517 
-3.34062 2.13957 5.76948 
-3.4647 2.14638 5.76969 
-3.56378 2.14806 5.80177 
-3.68596 2.14444 5.88961 
-3.77505 2.09537 6.34765 
-3.89995 2.10383 6.3342 
-4.11666 2.09016 6.55161 
-4.19472 2.03733 7.03634 
-4.32938 2.07362 6.79145 
-4.41089 2.03617 7.1473 
-4.54686 2.07562 6.87614 
-4.63026 2.04122 7.20711 
-4.75475 2.05174 7.1761 
-4.84152 2.03167 7.38699 
-4.97075 2.05108 7.28273 
-5.05616 2.02869 7.5127 
-5.18774 2.0559 7.34334 
2.66982 2.36297 1.38719 
2.55832 2.32723 1.74141 
2.43551 2.39075 1.26113 
2.32552 2.3542 1.62147 
0.99258 1.94464 5.70683 
0.892492 1.92618 5.90965 
0.769865 1.95128 5.75435 
0.668852 1.92893 5.99053 
0.549541 1.9534 5.83907 
0.44298 1.92679 6.11382 
0.2237 1.94864 6.0311 
0.102028 1.97637 5.85318 
0.00431066 1.97382 5.92028 
-0.120309 1.99748 5.77815 
-0.220116 1.99863 5.81489 
-0.343142 2.00945 5.78067 
-0.44249 2.00718 5.84618 
-0.663064 2.04476 5.63101 
-0.787748 2.0585 5.57291 
-0.888028 2.07937 5.44302 
-1.01004 2.07947 5.49905 
-1.11112 2.10498 5.33031 
-1.23504 2.12113 5.25144 
-1.33762 2.13443 5.18675 
-1.45949 2.13489 5.23966 
-1.56226 2.15036 5.1567 
-1.68824 2.1958 4.83092 
-1.78734 2.18634 4.95722 
-1.9146 2.21703 4.75688 
-2.01355 2.21395 4.82905 
-2.14236 2.24683 4.61091 
-2.24083 2.24671 4.65783 
-2.46643 2.25165 4.72128 
-2.59487 2.26483 4.66971 
-2.68828 2.24414 4.8883 
-2.82075 2.2744 4.69407 
-2.91248 2.25688 4.88515 
-3.03631 2.25272 4.97812 
-3.1215 2.19321 5.52145 
-3.34041 2.17284 5.79599 
-3.46531 2.19063 5.70368 
-3.56468 2.18115 5.83027 
-3.68394 2.17569 5.93222 
-3.77138 2.12054 6.43972 
-3.89868 2.1408 6.32767 
-4.1082 2.10353 6.74093 
-4.19169 2.06992 7.06431 
-4.32392 2.09738 6.89366 
-4.41889 2.09364 6.96966 
-4.53894 2.09553 7.00976 
-4.62474 2.06897 7.27455 
-4.75809 2.09986 7.07551 
-4.83987 2.06699 7.39187 
-4.96612 2.08303 7.31506 
-5.04987 2.05365 7.60287 
-5.18366 2.08668 7.38585 
2.80282 2.42436 1.12343 
2.67689 2.43148 1.12179 
2.56633 2.37514 1.64847 
2.43539 2.4162 1.36282 
2.32647 2.38599 1.66835 
0.994718 1.98339 5.68422 
0.895225 1.97133 5.8322 
0.772479 1.99016 5.7304 
0.669082 1.95737 6.05515 
0.547728 1.97329 5.97724 
0.443727 1.96048 6.1337 
0.224854 1.98361 6.0403 
0.103423 2.00476 5.91836 
0.00573493 2.00561 5.95658 
-0.119059 2.02945 5.8135 
-0.217357 2.0451 5.7271 
-0.341712 2.04259 5.8062 
-0.439605 2.06198 5.68806 
-0.661543 2.0776 5.65957 
-0.786926 2.10245 5.50817 
-0.886153 2.11464 5.45146 
-1.00813 2.11561 5.5001 
-1.10902 2.13846 5.35422 
-1.23315 2.1531 5.28842 
-1.33514 2.17429 5.1571 
-1.45836 2.18216 5.14801 
-1.56021 2.19558 5.08219 
-1.68675 2.23727 4.78926 
-1.78635 2.22987 4.89807 
-1.91511 2.26391 4.67075 
-2.01401 2.26691 4.69145 
-2.13876 2.27705 4.66401 
-2.24089 2.29048 4.59818 
-2.46264 2.27442 4.83706 
-2.593 2.30777 4.61625 
-2.68968 2.30059 4.72189 
-2.81563 2.29672 4.81326 
-2.90329 2.25435 5.21165 
-3.03251 2.27846 5.06835 
-3.12084 2.23742 5.4559 
-3.33593 2.19578 5.90751 
-3.46433 2.23697 5.61971 
-3.55643 2.18187 6.12767 
-3.68021 2.20105 6.02347 
-3.7754 2.18727 6.18416 
-3.89792 2.18479 6.26214 
-4.10986 2.14842 6.6679 
-4.18943 2.10405 7.07946 
-4.32589 2.14379 6.80769 
-4.4181 2.13134 6.95575 
-4.5357 2.1273 7.04475 
-4.62755 2.11647 7.17899 
-4.75869 2.14303 7.01595 
-4.83972 2.10817 7.34794 
-4.96495 2.11689 7.3328 
-5.04748 2.09073 7.5921 
-5.18063 2.11538 7.44612 
2.66234 2.41786 1.55902 
2.5716 2.43895 1.4236 
2.33925 2.47865 1.19724 
0.995073 2.00933 5.7703 
0.896661 2.00312 5.86831 
0.774871 2.03263 5.67647 
0.668519 1.9865 6.11403 
0.549227 1.99913 6.06316 
0.447083 1.99807 6.11952 
0.230853 2.01276 6.09622 
0.106087 2.04895 5.84963 
0.0072223 2.04586 5.92148 
-0.116946 2.06815 5.79161 
-0.216162 2.06736 5.84428 
-0.339143 2.10004 5.62641 
-0.438608 2.07453 5.88729 
-0.660499 2.10875 5.70236 
-0.78528 2.14491 5.45601 
-0.882519 2.14965 5.46132 
-1.00656 2.15058 5.51113 
-1.10628 2.15455 5.52402 
-1.23131 2.18833 5.29783 
-1.33328 2.20982 5.16436 
-1.55858 2.22675 5.12651 
-1.68251 2.25365 4.95774 
-1.78627 2.28163 4.77048 
-1.9101 2.28397 4.80832 
-2.00875 2.30255 4.69782 
-2.13984 2.31764 4.63173 
-2.23859 2.32101 4.64926 
-2.46204 2.31403 4.81194 
-2.59224 2.34575 4.60543 
-2.6855 2.32188 4.8497 
-2.8144 2.3341 4.8068 
-2.90451 2.30909 5.05924 
-3.02755 2.29789 5.21076 
-3.11643 2.26187 5.55526 
-3.24345 2.28101 5.45323 
-3.33383 2.23869 5.85147 
-3.46258 2.26778 5.66652 
-3.55622 2.23213 6.01016 
-3.67748 2.22828 6.099 
-3.77308 2.22027 6.21089 
-3.8943 2.21267 6.33126 
-4.10839 2.18584 6.65674 
-4.19428 2.15828 6.92877 
-4.32448 2.17973 6.80877 
-4.41007 2.15294 7.07411 
-4.53955 2.17754 6.92731 
-4.62725 2.15505 7.15752 
-4.75795 2.18148 6.99588 
-4.83554 2.13567 7.41758 
-4.96343 2.1535 7.32704 
-5.04623 2.1263 7.59457 
-5.18129 2.1577 7.39313 
2.79438 2.45169 1.52785 
2.66863 2.46384 1.48411 
2.56867 2.48762 1.33076 
2.44287 2.5081 1.21714 
2.33393 2.48128 1.49261 
0.996907 2.04765 5.75147 
0.898202 2.04061 5.85624 
0.775465 2.06 5.7504 
0.671087 2.02209 6.11695 
0.550444 2.03727 6.04546 
0.448843 2.03585 6.1045 
0.326618 2.04844 6.05549 
0.228416 2.0592 6.01064 
0.106156 2.07939 5.89787 
0.0113889 2.09589 5.80335 
-0.11523 2.10781 5.762 
-0.213968 2.10096 5.86527 
-0.337462 2.12812 5.69455 
-0.437742 2.10646 5.92286 
-0.562083 2.13701 5.72407 
-0.658815 2.14126 5.7333 
-0.784457 2.17388 5.51777 
-0.880149 2.17229 5.57545 
-1.00485 2.191 5.47623 
-1.10627 2.20641 5.39399 
-1.22959 2.23207 5.23579 
-1.33088 2.23126 5.28958 
-1.45461 2.25852 5.11812 
-1.55871 2.27089 5.06257 
-1.68105 2.29578 4.91046 
-1.7838 2.30885 4.84837 
-1.90935 2.32095 4.80511 
-2.00644 2.33763 4.71014 
-2.13976 2.36477 4.54419 
-2.23701 2.35625 4.66087 
-2.36588 2.37797 4.53832 
-2.459 2.34682 4.84308 
-2.58929 2.38096 4.61694 
-2.68278 2.35493 4.87885 
-2.81125 2.36742 4.83366 
-2.89994 2.32773 5.20804 
-3.03056 2.35987 4.9989 
-3.11864 2.31851 5.387 
-3.23889 2.3118 5.49914 
-3.33294 2.27802 5.82642 
-3.45877 2.29832 5.71441 
-3.55529 2.26513 6.03791 
-3.67679 2.26971 6.05586 
-3.76813 2.23863 6.35926 
-3.8913 2.23695 6.43062 
-4.10996 2.23202 6.57358 
-4.18884 2.18288 7.02277 
-4.3181 2.20502 6.89699 
-4.40916 2.18863 7.07685 
-4.53456 2.2036 7.00949 
-4.62822 2.19505 7.12484 
-4.75025 2.20112 7.13058 
-4.83796 2.18296 7.3238 
-4.96391 2.19432 7.28696 
-5.04451 2.16008 7.61196 
-5.17528 2.18468 7.46618 
2.57032 2.51117 1.44666 
2.33486 2.50552 1.60268 
2.091 2.46271 2.07378 
0.999256 2.07775 5.80117 
0.899131 2.0693 5.91831 
0.776477 2.09011 5.80085 
0.674034 2.0584 6.11369 
0.553194 2.07692 6.01454 
0.451308 2.07032 6.11699 
0.230333 2.087 6.07959 
0.108256 2.11395 5.91051 
0.0127771 2.11975 5.90608 
-0.111061 2.15961 5.62971 
-0.213476 2.14202 5.82439 
-0.335993 2.15952 5.7346 
-0.43453 2.15674 5.80349 
-0.657138 2.17709 5.73624 
-0.783023 2.21271 5.49633 
-0.879198 2.21129 5.55277 
-1.00312 2.22724 5.4766 
-1.10429 2.24952 5.33694 
-1.22816 2.26464 5.26776 
-1.32834 2.27065 5.26385 
-1.55602 2.30607 5.07274 
-1.67937 2.32823 4.9444 
-1.78086 2.34152 4.88014 
-1.90729 2.36845 4.71323 
-2.00476 2.37392 4.71256 
-2.13759 2.39674 4.58312 
-2.23597 2.39225 4.66627 
-2.45983 2.3974 4.72687 
-2.5856 2.41328 4.65223 
-2.67918 2.37915 4.98136 
-2.8106 2.4102 4.78234 
-2.90262 2.38652 5.02328 
-3.0224 2.36451 5.26309 
-3.11661 2.35288 5.40407 
-3.23614 2.33091 5.64348 
-3.33166 2.31521 5.81926 
-3.45885 2.33923 5.67709 
-3.55012 2.28543 6.16989 
-3.67782 2.32382 5.90766 
-3.76659 2.27458 6.36112 
-3.89223 2.28588 6.32477 
-4.10832 2.27042 6.55444 
-4.19231 2.23136 6.92054 
-4.32048 2.25189 6.80809 
-4.40442 2.21602 7.14734 
-4.53224 2.23819 7.02103 
-4.62686 2.23253 7.11237 
-4.75187 2.24612 7.05658 
-4.83515 2.21359 7.36759 
-4.9638 2.23024 7.28788 
-5.04598 2.20355 7.54957 
-5.17933 2.23342 7.36133 
2.81154 2.57105 1.14804 
2.67443 2.54094 1.46267 
2.57559 2.55817 1.36447 
2.44678 2.56874 1.33564 
2.33487 2.52438 1.7576 
1.00207 2.11838 5.76261 
0.901301 2.10455 5.92464 
0.777221 2.11799 5.8697 
0.67614 2.09479 6.1101 
0.555603 2.1121 6.02132 
0.4517 2.10363 6.14007 
0.231803 2.12603 6.05459 
0.111362 2.15589 5.86093 
0.0122643 2.16034 5.86963 
-0.110387 2.18383 5.73014 
-0.211537 2.17463 5.85367 
-0.335898 2.18658 5.81145 
-0.432783 2.20519 5.70078 
-0.654415 2.21099 5.75486 
-0.781259 2.24391 5.53859 
-0.876867 2.24539 5.57049 
-1.00123 2.26164 5.49229 
-1.10233 2.28616 5.33424 
-1.22506 2.28564 5.39542 
-1.32881 2.31457 5.20182 
-1.55534 2.35229 4.99157 
-1.6767 2.34728 5.08958 
-1.77969 2.38165 4.85019 
-1.90569 2.40222 4.7367 
-2.00282 2.40626 4.74791 
-2.13657 2.4433 4.50053 
-2.23384 2.42947 4.66102 
-2.45805 2.43064 4.75499 
-2.58443 2.44609 4.68444 
-2.67707 2.41209 5.0112 
-2.81102 2.45782 4.69135 
-2.90018 2.41686 5.07467 
-3.02254 2.41168 5.17457 
-3.11309 2.37774 5.49992 
-3.2372 2.3874 5.47664 
-3.33126 2.35646 5.77856 
-3.45514 2.36679 5.7497 
-3.55233 2.342 6.00169 
-3.67398 2.3482 6.00627 
-3.76715 2.32375 6.25357 
-3.88926 2.31627 6.37258 
-4.09977 2.28278 6.74977 
-4.19624 2.27864 6.82903 
-4.31471 2.27534 6.91147 
-4.40438 2.2596 7.08444 
-4.52873 2.2708 7.04857 
-4.62717 2.27592 7.05137 
-4.75279 2.28698 7.01725 
-4.82769 2.23727 7.46705 
-4.96337 2.27312 7.23059 
-5.04813 2.25048 7.45889 
-5.17624 2.26647 7.38478 
2.6818 2.59715 1.30294 
2.57628 2.58668 1.43875 
2.35136 2.63615 1.13045 
2.10215 2.55847 1.89204 
1.00338 2.15423 5.76473 
0.900943 2.13042 6.01029 
0.777671 2.14355 5.95775 
0.677718 2.1312 6.10668 
0.556529 2.14712 6.03008 
0.453676 2.14239 6.11687 
0.233544 2.15842 6.08497 
0.113273 2.19479 5.83752 
0.0162729 2.19413 5.88778 
-0.108932 2.21896 5.73878 
-0.21032 2.2181 5.79273 
-0.332369 2.23907 5.67445 
-0.433032 2.21484 5.92267 
-0.653029 2.25392 5.69874 
-0.779418 2.28559 5.49341 
-0.875333 2.27822 5.59902 
-1.00007 2.30254 5.45406 
-1.1028 2.33044 5.26918 
-1.22357 2.33473 5.28919 
-1.32584 2.35352 5.17994 
-1.44995 2.36722 5.12315 
-1.55309 2.38073 5.05828 
-1.67724 2.40968 4.87449 
-1.77919 2.42994 4.75283 
-1.90484 2.44214 4.70924 
-2.00515 2.45838 4.62032 
-2.13289 2.4671 4.60672 
-2.22985 2.46787 4.64509 
-2.45341 2.45138 4.88569 
-2.58311 2.48621 4.6555 
-2.6757 2.45914 4.92382 
-2.80406 2.46898 4.90116 
-2.89614 2.44168 5.17105 
-3.02445 2.46363 5.04757 
-3.10563 2.38778 5.71682 
-3.32752 2.37318 5.94096 
-3.4549 2.41147 5.68093 
-3.54653 2.35375 6.20402 
-3.67169 2.3844 6.00664 
-3.7645 2.35351 6.30683 
-3.88717 2.35039 6.38954 
-3.97219 2.3079 6.7827 
-4.10183 2.33047 6.65465 
-4.18771 2.30189 6.93248 
-4.32208 2.33694 6.70262 
-4.40064 2.28928 7.13594 
-4.53011 2.31258 7.00175 
-4.61911 2.29422 7.19587 
-4.75005 2.32129 7.03099 
-4.82998 2.2838 7.38023 
-4.9614 2.30897 7.23137 
-5.04055 2.27177 7.57789 
-5.17506 2.30016 7.40361 
2.82441 2.67351 0.91458 
2.68376 2.63402 1.30723 
2.57367 2.59574 1.67578 
2.44341 2.62609 1.48361 
2.33485 2.60461 1.71189 
1.0015 2.17738 5.87383 
0.904448 2.17672 5.924 
0.779214 2.17301 6.01243 
0.678634 2.16782 6.10185 
0.557887 2.17972 6.05865 
0.454888 2.17368 6.15624 
0.235091 2.19915 6.04598 
0.114294 2.22433 5.89248 
0.0159384 2.23168 5.87673 
-0.106282 2.2602 5.69612 
-0.209327 2.24463 5.87291 
-0.331063 2.26229 5.78235 
-0.429806 2.26457 5.80895 
-0.651455 2.28288 5.75898 
-0.777705 2.31309 5.56624 
-0.874446 2.32988 5.47139 
-0.999587 2.35651 5.30787 
-1.0982 2.3547 5.36833 
-1.22155 2.35757 5.40137 
-1.32625 2.38444 5.22647 
-1.55072 2.41895 5.04323 
-1.67671 2.45918 4.76721 
-1.77949 2.48237 4.62195 
-1.90477 2.48639 4.64632 
-2.00575 2.50174 4.56535 
-2.13515 2.52511 4.43095 
-2.22714 2.50031 4.67938 
-2.45446 2.50548 4.74126 
-2.58339 2.53277 4.57408 
-2.67382 2.48761 4.9909 
-2.80847 2.52651 4.7299 
-2.89007 2.45354 5.37371 
-3.01749 2.47623 5.24397 
-3.10346 2.41997 5.75102 
-3.23186 2.45094 5.55297 
-3.32357 2.40749 5.95629 
-3.45095 2.43279 5.80491 
-3.54976 2.41629 5.98754 
-3.668 2.41201 6.07769 
-3.76466 2.40108 6.21309 
-3.88773 2.40006 6.27841 
-4.10231 2.37258 6.60576 
-4.18668 2.33804 6.93166 
-4.31487 2.35885 6.81795 
-4.40837 2.34784 6.95258 
-4.52969 2.35249 6.96999 
-4.6198 2.33898 7.12388 
-4.75405 2.37104 6.91955 
-4.83003 2.32369 7.34798 
-4.95263 2.32635 7.38251 
-5.03747 2.30447 7.60347 
-5.1748 2.33896 7.38039 
2.6781 2.62668 1.68117 
2.58322 2.67984 1.28439 
2.44847 2.65358 1.56378 
2.32777 2.59656 2.09154 
1.00577 2.22224 5.79965 
0.905866 2.20963 5.95006 
0.780647 2.21021 6.00286 
0.680437 2.20379 6.10207 
0.56028 2.21957 6.02662 
0.458343 2.21638 6.09992 
0.23707 2.2338 6.05738 
0.11583 2.26051 5.89186 
0.0191628 2.26982 5.85921 
-0.106103 2.28056 5.82784 
-0.206612 2.28171 5.86453 
-0.329634 2.30331 5.74223 
-0.428913 2.29458 5.86023 
-0.649893 2.31168 5.82024 
-0.7749 2.34462 5.60483 
-0.872803 2.36843 5.45268 
-0.995143 2.35957 5.58236 
-1.09692 2.38791 5.39439 
-1.22073 2.4057 5.304 
-1.32272 2.422 5.21587 
-1.44784 2.45122 5.03144 
-1.54925 2.46323 4.97863 
-1.67479 2.49888 4.74102 
-1.77658 2.50794 4.71286 
-1.9013 2.51553 4.70739 
-1.9996 2.53261 4.61116 
-2.1336 2.55697 4.47101 
-2.22937 2.54297 4.63108 
-2.35771 2.55862 4.56054 
-2.45104 2.54275 4.73502 
-2.57967 2.55691 4.67695 
-2.67984 2.56488 4.65699 
-2.80706 2.55919 4.7628 
-2.89144 2.50831 5.22321 
-3.02113 2.53621 5.0518 
-3.10616 2.48461 5.51842 
-3.23255 2.49318 5.5057 
-3.32421 2.45849 5.83533 
-3.45138 2.48289 5.69175 
-3.54799 2.45252 5.98795 
-3.66808 2.45351 6.03506 
-3.75949 2.41773 6.37364 
-3.88512 2.4299 6.33069 
-4.09715 2.39869 6.68705 
-4.1748 2.34697 7.15137 
-4.31573 2.4016 6.76367 
-4.40532 2.37941 6.98886 
-4.52602 2.3832 7.01314 
-4.61881 2.37473 7.12606 
-4.74735 2.39252 7.03793 
-4.82238 2.34624 7.45604 
-4.9594 2.38481 7.19963 
-5.04153 2.35336 7.49816 
-5.17711 2.38721 7.28017 
2.80712 2.67613 1.52227 
2.67941 2.67328 1.60432 
2.56715 2.64767 1.86741 
2.44962 2.6973 1.51124 
2.3428 2.68349 1.67426 
1.00884 2.25806 5.80116 
0.908402 2.24822 5.92858 
0.783095 2.25219 5.95332 
0.682113 2.23488 6.14271 
0.561774 2.25095 6.0651 
0.4597 2.25491 6.07932 
0.240481 2.27249 6.03466 
0.119359 2.30118 5.85325 
0.0181734 2.29696 5.93459 
-0.104661 2.31887 5.80993 
-0.204141 2.32039 5.84312 
-0.3283 2.33381 5.78927 
-0.427096 2.32912 5.87334 
-0.647894 2.35123 5.79208 
-0.774452 2.39172 5.51567 
-0.870316 2.38038 5.65346 
-0.99681 2.43615 5.25075 
-1.09577 2.43475 5.30776 
-1.22175 2.46474 5.11786 
-1.32191 2.45881 5.21285 
-1.44517 2.49428 4.97641 
-1.54827 2.499 4.98482 
-1.67154 2.51563 4.90409 
-1.77495 2.54855 4.67958 
-1.90013 2.55982 4.644 
-1.99862 2.56291 4.66376 
-2.13037 2.59447 4.46349 
-2.22732 2.58109 4.61866 
-2.44969 2.57891 4.73886 
-2.58141 2.60095 4.61731 
-2.67301 2.57667 4.86009 
-2.79867 2.58341 4.86215 
-2.89113 2.55541 5.13609 
-3.01876 2.57014 5.0731 
-3.10293 2.51093 5.60106 
-3.22784 2.52529 5.53983 
-3.32399 2.49844 5.80596 
-3.44763 2.5048 5.81029 
-3.54381 2.47943 6.06419 
-3.66746 2.4947 5.99488 
-3.75938 2.46249 6.30336 
-3.88029 2.44935 6.46766 
-4.10091 2.45179 6.54897 
-4.1821 2.40983 6.93313 
-4.30886 2.42216 6.88961 
-4.40551 2.42104 6.94331 
-4.52838 2.43041 6.92243 
-4.62229 2.42336 7.02393 
-4.7437 2.42522 7.06445 
-4.83429 2.41143 7.22016 
-4.95404 2.40565 7.32304 
-5.04119 2.39242 7.47258 
-5.17641 2.4251 7.26472 
2.68742 2.73794 1.37606 
2.5823 2.74575 1.35981 
2.45896 2.77295 1.19214 
2.34638 2.73315 1.57161 
1.00849 2.2912 5.8263 
0.910098 2.28632 5.91161 
0.784326 2.27953 6.02523 
0.684444 2.27446 6.11282 
0.564124 2.28934 6.04536 
0.460569 2.28436 6.13381 
0.241051 2.3104 6.01985 
0.118943 2.32883 5.92394 
0.0184209 2.33765 5.89737 
-0.103759 2.3542 5.817 
-0.202499 2.35625 5.84537 
-0.326059 2.37487 5.74864 
-0.42498 2.36903 5.84212 
-0.64643 2.38323 5.82666 
-0.77244 2.42363 5.55152 
-0.868722 2.42367 5.59529 
-0.994154 2.46064 5.34821 
-1.09658 2.5016 5.05762 
-1.21752 2.48195 5.27505 
-1.31982 2.50825 5.10525 
-1.44269 2.52374 5.03393 
-1.54461 2.51761 5.13126 
-1.67067 2.55987 4.84078 
-1.77206 2.57185 4.7886 
-1.89961 2.60375 4.58424 
-2.0035 2.62043 4.49442 
-2.12972 2.63438 4.43735 
-2.22727 2.62238 4.58108 
-2.45108 2.62623 4.65207 
-2.58188 2.65456 4.47863 
-2.66687 2.5881 5.06539 
-2.79838 2.621 4.85464 
-2.88945 2.58942 5.15675 
-3.01236 2.58498 5.24978 
-3.10498 2.55554 5.5349 
-3.32346 2.53495 5.805 
-3.44741 2.55295 5.71358 
-3.54016 2.49878 6.20271 
-3.66499 2.5296 6.00598 
-3.75659 2.49298 6.34988 
-3.88412 2.51606 6.21826 
-4.09712 2.48187 6.59795 
-4.18457 2.45355 6.8716 
-4.30999 2.46627 6.82442 
-4.39917 2.44489 7.0416 
-4.52528 2.46267 6.95304 
-4.62247 2.46258 6.9984 
-4.73982 2.45504 7.11448 
-4.83042 2.44224 7.26169 
-4.95379 2.44963 7.25748 
-5.03463 2.41674 7.56578 
-5.17372 2.45877 7.28332 
2.81634 2.76683 1.3877 
2.68403 2.75131 1.57572 
2.58004 2.76242 1.53192 
2.34795 2.77038 1.57259 
2.10835 2.73723 1.95452 
1.00874 2.32019 5.8852 
0.913013 2.32872 5.8589 
0.787259 2.32493 5.94763 
0.686536 2.31122 6.10638 
0.565808 2.33132 5.99643 
0.463965 2.31909 6.14352 
0.342473 2.34352 5.9984 
0.243205 2.34629 6.021 
0.120693 2.36746 5.90311 
0.0221733 2.38177 5.83058 
-0.100658 2.39708 5.76092 
-0.199712 2.39113 5.85523 
-0.322665 2.41951 5.67822 
-0.423986 2.39733 5.90694 
-0.545876 2.41937 5.7816 
-0.644407 2.42597 5.77244 
-0.769866 2.45783 5.56804 
-0.868426 2.48571 5.38397 
-0.991087 2.47816 5.50223 
-1.09269 2.50754 5.30731 
-1.21699 2.53175 5.16525 
-1.31767 2.52503 5.26656 
-1.44279 2.56051 5.03228 
-1.54357 2.57181 4.98556 
-1.66888 2.60784 4.74679 
-1.7734 2.63532 4.56876 
-1.89692 2.63086 4.66201 
-1.99907 2.65451 4.51441 
-2.13011 2.68147 4.35285 
-2.22522 2.66227 4.55424 
-2.3509 2.65925 4.63674 
-2.44649 2.64326 4.81193 
-2.57946 2.684 4.53802 
-2.66757 2.63884 4.94962 
-2.79889 2.66656 4.78196 
-2.88868 2.63447 5.08693 
-3.01303 2.63353 5.15166 
-3.10202 2.59358 5.52093 
-3.23215 2.62743 5.30229 
-3.31839 2.54726 6.0009 
-3.44272 2.57888 5.79803 
-3.54115 2.55621 6.02948 
-3.66657 2.58899 5.81751 
-3.75525 2.53084 6.33632 
-3.88071 2.5434 6.29056 
-4.09739 2.52635 6.53016 
-4.18012 2.4776 6.96894 
-4.31351 2.51825 6.69593 
-4.40108 2.48987 6.9694 
-4.52109 2.48998 7.02358 
-4.61714 2.48937 7.07274 
-4.74265 2.50369 7.01257 
-4.82412 2.46615 7.3586 
-4.95208 2.4813 7.2928 
-5.03779 2.46377 7.47631 
-5.16905 2.48497 7.36226 
4.23153 2.51001 3.15468 
2.8242 2.82236 1.23605 
2.67641 2.76032 1.812 
2.58388 2.76761 1.79449 
2.45471 2.8086 1.51745 
2.35233 2.81191 1.53699 
1.01217 2.36632 5.80187 
0.913331 2.35643 5.92808 
0.788857 2.35994 5.95621 
0.687942 2.34623 6.11472 
0.565651 2.36001 6.05761 
0.463381 2.35207 6.16944 
0.244188 2.37595 6.07384 
0.12229 2.39958 5.9358 
0.0228156 2.40503 5.93662 
