ply
format ascii 1.0
element vertex 1846
property float x
property float y
property float z
end_header
-4.9602 2.26106 4.55721 
-5.08639 2.26818 4.55567 
-5.16998 2.2313 4.91043 
-5.29812 2.24125 4.88553 
-5.39159 2.235 4.98297 
-5.52643 2.26265 4.80985 
-5.61491 2.24317 5.0181 
-5.74247 2.25354 4.98934 
-6.48201 2.22766 5.55864 
-6.71932 2.26454 5.35481 
1.75753 2.46326 0.000257165 
1.65855 2.53391 -0.556031 
1.43193 2.59634 -0.982524 
0.106019 2.09361 3.92545 
0.00119222 2.11961 3.75279 
-0.124888 2.12897 3.73198 
-0.219834 2.08884 4.11872 
-0.353124 2.14777 3.67845 
-0.445316 2.10639 4.07459 
-0.578016 2.14027 3.84772 
-0.674895 2.12386 4.03306 
-0.80872 2.1557 3.82414 
-0.904561 2.13936 4.00847 
-1.03402 2.1845 3.68404 
-1.13624 2.19085 3.67775 
-1.25907 2.21693 3.51284 
-1.36286 2.21386 3.58769 
-1.48646 2.2149 3.63667 
-1.59198 2.23438 3.51994 
-1.71686 2.25725 3.38342 
-1.81628 2.25265 3.46922 
-1.94597 2.2661 3.41525 
-2.04841 2.29432 3.22252 
-2.17795 2.30336 3.20614 
-2.28094 2.31769 3.13214 
-2.51211 2.34676 2.99253 
-2.64504 2.38346 2.74178 
-2.75039 2.40079 2.64333 
-2.8759 2.41438 2.58632 
-2.97854 2.40272 2.73385 
-3.11576 2.46607 2.2578 
-3.2135 2.45517 2.39663 
-3.43995 2.4575 2.48293 
-3.56984 2.46415 2.48713 
-3.66319 2.43966 2.73975 
-3.79543 2.45874 2.63907 
-3.88866 2.4398 2.8443 
-4.00523 2.39942 3.24344 
-4.09956 2.3927 3.34498 
-4.22473 2.38658 3.45599 
-4.32321 2.38623 3.50517 
-4.44488 2.3686 3.71261 
-4.54632 2.38115 3.65314 
-4.66194 2.35665 3.91638 
-4.75548 2.34579 4.05295 
-4.8762 2.33455 4.20544 
-5.08859 2.31604 4.46302 
-5.17851 2.29291 4.70257 
-5.2906 2.26285 5.01161 
-5.38652 2.26136 5.06934 
-5.51956 2.28788 4.9056 
-5.60819 2.26726 5.12315 
-5.73981 2.28796 5.00834 
-6.48407 2.27069 5.50524 
-6.71286 2.2917 5.4334 
1.76706 2.57282 -0.613489 
1.6643 2.58946 -0.707018 
1.53544 2.61565 -0.869645 
1.42616 2.58158 -0.528873 
1.18637 2.55059 -0.153289 
0.107382 2.16043 3.66938 
0.00272545 2.16937 3.64224 
-0.121504 2.16424 3.74396 
-0.218456 2.12548 4.119 
-0.347271 2.15475 3.93017 
-0.443041 2.14368 4.06917 
-0.675079 2.16184 4.02316 
-0.804294 2.1832 3.90189 
-0.904339 2.1804 3.97241 
-1.03275 2.22892 3.61978 
-1.13393 2.24012 3.57175 
-1.25501 2.2291 3.72213 
-1.36036 2.24546 3.63228 
-1.5895 2.25974 3.6179 
-1.71691 2.29305 3.39415 
-1.81407 2.28739 3.48778 
-1.94673 2.3176 3.29282 
-2.0456 2.3289 3.24296 
-2.18189 2.36506 2.99911 
-2.28055 2.3707 2.99731 
-2.40848 2.36717 3.08721 
-2.51388 2.39303 2.9165 
-2.64163 2.40895 2.84088 
-2.74153 2.40588 2.91371 
-2.8774 2.4771 2.37141 
-2.9747 2.43906 2.7406 
-3.1094 2.49041 2.36681 
-3.21137 2.48473 2.46284 
-3.34068 2.50687 2.335 
-3.4348 2.47662 2.63645 
-3.56835 2.50873 2.4258 
-3.66356 2.49111 2.62025 
-3.79298 2.48838 2.70406 
-3.89527 2.50159 2.63962 
-4.01459 2.47638 2.9099 
-4.10684 2.46042 3.08889 
-4.23086 2.45015 3.23433 
-4.31965 2.4116 3.60394 
-4.43474 2.39044 3.83781 
-4.53501 2.39001 3.88847 
-4.66018 2.39253 3.92567 
-4.75844 2.39398 3.95933 
-4.87815 2.37986 4.13555 
-4.96228 2.34547 4.46755 
-5.0833 2.34143 4.55864 
-5.16563 2.30094 4.94176 
-5.28872 2.30204 4.9901 
-5.39749 2.33189 4.78712 
-5.5163 2.31788 4.96198 
-5.60444 2.2999 5.15623 
-5.74292 2.33496 4.92283 
-6.48101 2.30364 5.53543 
-6.71651 2.33951 5.3407 
1.91226 2.68493 -1.30871 
1.76295 2.59056 -0.438586 
1.66061 2.59351 -0.415906 
1.52959 2.6001 -0.410783 
1.43251 2.66093 -0.881565 
0.10892 2.19179 3.71548 
0.00683497 2.20208 3.67577 
-0.11708 2.20258 3.72932 
-0.219129 2.16903 4.06161 
-0.345661 2.20142 3.84582 
-0.44443 2.18128 4.06284 
-0.573088 2.21084 3.87205 
-0.67398 2.20493 3.96928 
-0.798837 2.21282 3.96062 
-0.903435 2.23181 3.84837 
-1.03051 2.26108 3.65936 
-1.13005 2.2617 3.7006 
-1.25314 2.26976 3.68965 
-1.36099 2.2862 3.60052 
-1.58788 2.29641 3.61986 
-1.71248 2.32496 3.43583 
-1.81356 2.32871 3.45125 
-1.94221 2.34909 3.33842 
-2.04711 2.36853 3.2225 
-2.17826 2.39637 3.04756 
-2.28188 2.41424 2.94429 
-2.5096 2.42114 2.99213 
-2.63993 2.452 2.79121 
-2.73993 2.44772 2.87421 
-2.87291 2.49207 2.56009 
-2.97988 2.50696 2.48371 
-3.10787 2.53582 2.29872 
-3.20924 2.52333 2.452 
-3.3374 2.53655 2.39979 
-3.43783 2.53205 2.48488 
-3.5676 2.54001 2.47796 
-3.65954 2.52645 2.63604 
-3.79414 2.53278 2.64521 
-3.88646 2.51067 2.87593 
-4.00523 2.4879 3.12474 
-4.0974 2.46431 3.36793 
-4.22637 2.47373 3.34833 
-4.31567 2.45049 3.5873 
-4.43842 2.44305 3.7078 
-4.53291 2.42397 3.91392 
-4.65741 2.42887 3.9305 
-4.74881 2.41168 4.11916 
-4.87445 2.41284 4.16807 
-5.08475 2.38538 4.49946 
-5.16831 2.34757 4.85937 
-5.28873 2.345 4.9375 
-5.38469 2.33851 5.03751 
-5.51782 2.36463 4.87812 
-5.6024 2.33387 5.17875 
-5.73969 2.36762 4.95659 
-6.48346 2.34946 5.45889 
-6.71653 2.3805 5.30462 
1.76374 2.59897 -0.188034 
1.66997 2.66849 -0.732511 
1.54237 2.71089 -1.03185 
1.43571 2.70837 -0.960923 
1.18953 2.63313 -0.209834 
0.108497 2.22718 3.72806 
0.00658589 2.23662 3.6957 
-0.117585 2.24648 3.6701 
-0.217118 2.21042 4.02158 
-0.343659 2.23131 3.90378 
-0.442335 2.22132 4.03425 
-0.671613 2.23907 3.99094 
-0.798031 2.25375 3.92565 
-0.90137 2.26323 3.89359 
-1.0286 2.29219 3.70786 
-1.12672 2.29283 3.74817 
-1.25344 2.32492 3.53573 
-1.35638 2.30411 3.75975 
-1.58382 2.3352 3.60268 
-1.7134 2.37949 3.28835 
-1.81354 2.37642 3.36103 
-1.94457 2.39782 3.24105 
-2.04522 2.41857 3.11238 
-2.17736 2.44078 2.98614 
-2.2798 2.45095 2.94786 
-2.4069 2.45045 3.0113 
-2.50855 2.46999 2.89339 
-2.63705 2.48387 2.83591 
-2.74245 2.51106 2.65502 
-2.8685 2.52763 2.57357 
-2.97953 2.54706 2.46094 
-3.10534 2.56769 2.34506 
-3.20899 2.57039 2.37057 
-3.33189 2.5636 2.48535 
-3.43361 2.55628 2.59475 
-3.56086 2.55691 2.6488 
-3.6519 2.5304 2.91563 
-3.79247 2.57528 2.60145 
-3.88142 2.54042 2.93799 
-4.01229 2.55208 2.90039 
-4.09005 2.49098 3.45374 
-4.21769 2.49244 3.50092 
-4.30844 2.47091 3.72554 
-4.4377 2.47732 3.73162 
-4.52834 2.45591 3.95513 
-4.65244 2.45589 4.01323 
-4.74459 2.44191 4.17458 
-4.87138 2.44764 4.18528 
-5.07996 2.41647 4.5465 
-5.16641 2.38383 4.86311 
-5.2946 2.39922 4.79275 
-5.38636 2.3841 4.96352 
-5.52064 2.41079 4.80044 
-5.60572 2.38338 5.07213 
-5.73394 2.39745 5.01295 
-6.47568 2.37355 5.56191 
-6.71811 2.42169 5.26775 
1.90836 2.71092 -0.879159 
1.77167 2.69226 -0.658238 
1.67598 2.75029 -1.10347 
1.42968 2.71273 -0.672108 
0.111874 2.28545 3.54583 
0.00792843 2.2872 3.57943 
-0.117002 2.27946 3.70279 
-0.21284 2.23268 4.14215 
-0.343112 2.26543 3.92635 
-0.439289 2.25095 4.09331 
-0.576339 2.28323 3.88462 
-0.669386 2.2706 4.03455 
-0.797039 2.30513 3.8025 
-0.896723 2.29193 3.96029 
-1.0282 2.34805 3.54789 
-1.125 2.32482 3.78895 
-1.25172 2.3522 3.61691 
-1.35639 2.35974 3.60197 
-1.58489 2.38061 3.53221 
-1.70992 2.40323 3.39955 
-1.81376 2.41465 3.35152 
-1.94022 2.4206 3.36012 
-2.03889 2.43746 3.26379 
-2.17512 2.46566 3.08928 
-2.27245 2.46653 3.12724 
-2.5054 2.49883 2.9631 
-2.63509 2.51893 2.85384 
-2.74309 2.54623 2.67374 
-2.86783 2.56726 2.55437 
-2.97659 2.58795 2.43046 
-3.1027 2.60761 2.32321 
-3.20775 2.6081 2.36802 
-3.33344 2.6117 2.3962 
-3.43204 2.59957 2.54448 
-3.56225 2.61149 2.50456 
-3.65094 2.57144 2.88388 
-3.78614 2.60143 2.69376 
-3.88882 2.60827 2.6839 
-4.02023 2.61213 2.71257 
-4.08958 2.53296 3.41303 
-4.22519 2.55536 3.28716 
-4.30694 2.50908 3.7159 
-4.44751 2.55007 3.4355 
-4.5357 2.51784 3.74856 
-4.65392 2.50265 3.93186 
-4.74494 2.47993 4.1661 
-4.87075 2.48809 4.15585 
-4.9503 2.44249 4.5778 
-5.07541 2.44615 4.60525 
-5.16556 2.42641 4.81397 
-5.28768 2.42248 4.90407 
-5.38273 2.4151 5.01065 
-5.5138 2.43683 4.88842 
-5.60318 2.41789 5.08992 
-5.73619 2.44311 4.93913 
-6.48024 2.42095 5.47334 
-6.71185 2.44962 5.33946 
1.90452 2.72888 -0.706985 
1.66797 2.7281 -0.590745 
1.54184 2.76768 -0.865271 
1.43572 2.77815 -0.90424 
1.19719 2.69106 -0.0606641 
0.340449 2.28845 3.72516 
0.112799 2.30445 3.69617 
0.00999908 2.30202 3.76438 
-0.114574 2.33053 3.58228 
-0.21143 2.28777 3.98711 
-0.34037 2.29849 3.9568 
-0.438591 2.29272 4.05095 
-0.667461 2.31267 3.98939 
-0.799569 2.36174 3.63771 
-0.892825 2.32685 3.97472 
-1.02291 2.35967 3.75891 
-1.12604 2.36507 3.76138 
-1.24914 2.3779 3.71059 
-1.35167 2.37121 3.81455 
-1.58387 2.42906 3.43553 
-1.70577 2.43344 3.45529 
-1.80929 2.441 3.43981 
-1.93873 2.4561 3.37287 
-2.0382 2.47405 3.26805 
-2.17222 2.50295 3.08711 
-2.27343 2.50952 3.07884 
-2.50644 2.54784 2.86461 
-2.63399 2.56175 2.80686 
-2.73967 2.57581 2.73765 
-2.87209 2.62149 2.41473 
-2.97167 2.61067 2.55206 
-3.10297 2.64825 2.29685 
-3.20397 2.64568 2.36545 
-3.43106 2.63628 2.55014 
-3.55961 2.63949 2.58291 
-3.65664 2.63916 2.63087 
-3.78234 2.63536 2.72131 
-3.88093 2.6196 2.89984 
-4.00337 2.60948 3.04195 
-4.09019 2.57216 3.39652 
-4.22078 2.58629 3.33836 
-4.31045 2.56068 3.59562 
-4.43137 2.54438 3.78908 
-4.5201 2.51938 4.04083 
-4.65612 2.55006 3.84588 
-4.74072 2.51113 4.21296 
-4.86562 2.51606 4.22961 
-4.95372 2.48942 4.49489 
-5.07484 2.48589 4.58097 
-5.16413 2.46066 4.8349 
-5.28703 2.46321 4.87066 
-5.38686 2.46822 4.875 
-5.51441 2.47506 4.87678 
-5.59915 2.44828 5.14173 
-5.73682 2.48104 4.93003 
-6.47599 2.4522 5.51719 
-6.70672 2.48024 5.38861 
1.90681 2.76611 -0.700252 
1.78712 2.81457 -1.05159 
1.67001 2.75978 -0.537481 
1.43024 2.77497 -0.553993 
1.19643 2.71654 0.0447494 
0.118332 2.32641 3.81882 
0.0121011 2.31925 3.92811 
-0.112545 2.34869 3.73885 
-0.212077 2.34302 3.83251 
-0.338858 2.32331 4.05681 
-0.437637 2.32521 4.08663 
-0.664435 2.3464 4.0139 
-0.797 2.38974 3.71158 
-0.893161 2.37748 3.85915 
-1.02406 2.41159 3.63347 
-1.12358 2.41152 3.68025 
-1.2469 2.41808 3.68243 
-1.35161 2.42502 3.67276 
-1.58019 2.44209 3.63547 
-1.70541 2.46718 3.48298 
-1.80565 2.46844 3.5189 
-1.93528 2.49133 3.38689 
-2.03224 2.4949 3.40196 
-2.17238 2.54469 3.04899 
-2.27023 2.54207 3.11637 
-2.50455 2.58401 2.87313 
-2.63302 2.60585 2.74939 
-2.73693 2.61007 2.76219 
-2.87116 2.66419 2.37017 
-2.97161 2.66087 2.44471 
-3.09925 2.67822 2.3583 
-3.20201 2.68038 2.38789 
-3.42952 2.6711 2.57146 
-3.56023 2.6882 2.48858 
-3.65708 2.67033 2.68361 
-3.78075 2.67573 2.69569 
-3.86709 2.62137 3.19215 
-4.0079 2.66995 2.84968 
-4.09398 2.6245 3.27127 
-4.22229 2.63444 3.24742 
-4.30994 2.59828 3.59166 
-4.43238 2.58444 3.76478 
-4.52769 2.58171 3.83198 
-4.66099 2.60251 3.71925 
-4.73704 2.54305 4.25383 
-4.87479 2.5775 4.02862 
-5.08511 2.55041 4.3538 
-5.16499 2.50492 4.77281 
-5.28863 2.50699 4.81296 
-5.37887 2.48699 5.02277 
-5.51072 2.50996 4.89122 
-5.59773 2.48695 5.12485 
-5.73245 2.51138 4.98239 
-6.47263 2.48537 5.54506 
-6.70898 2.52401 5.33057 
1.77741 2.7908 -0.527697 
1.6731 2.81059 -0.645125 
1.54644 2.859 -0.99181 
1.43617 2.82956 -0.694398 
1.19936 2.7739 -0.119034 
0.120022 2.37192 3.74542 
0.0156973 2.3918 3.62727 
-0.111384 2.37773 3.80385 
-0.210167 2.3671 3.93862 
-0.340421 2.37749 3.9119 
-0.437565 2.37136 4.00816 
-0.663271 2.38545 3.9947 
-0.796537 2.42454 3.7292 
-0.890355 2.4072 3.91777 
-1.01951 2.43351 3.7573 
-1.12364 2.46004 3.58348 
-1.24669 2.46667 3.58488 
-1.34632 2.44658 3.79924 
-1.57976 2.4942 3.50867 
-1.70252 2.50494 3.47563 
-1.80507 2.51705 3.42178 
-1.93658 2.54641 3.23685 
-2.03515 2.54608 3.28533 
-2.17293 2.60551 2.85157 
-2.26969 2.58757 3.04661 
-2.4995 2.60417 3.01414 
-2.63199 2.64196 2.75913 
-2.73873 2.67603 2.52333 
-2.86398 2.68331 2.52049 
-2.97258 2.69997 2.4313 
-3.09598 2.71413 2.37 
-3.19726 2.70232 2.51579 
-3.33036 2.72919 2.35251 
-3.43096 2.73359 2.36232 
-3.55269 2.70673 2.64365 
-3.65327 2.71325 2.63566 
-3.7746 2.69246 2.86605 
-3.87261 2.68389 2.98322 
-4.00497 2.70737 2.84803 
-4.09314 2.6703 3.19926 
-4.21376 2.65159 3.41184 
-4.29134 2.59192 3.94746 
-4.43178 2.63182 3.67858 
-4.5292 2.62421 3.78741 
-4.65035 2.61643 3.90879 
-4.73177 2.5702 4.33369 
-4.86522 2.59447 4.19236 
-4.94988 2.56094 4.5124 
-5.07418 2.56398 4.5446 
-5.15854 2.53435 4.8319 
-5.28744 2.54862 4.77222 
-5.38322 2.54025 4.88674 
-5.50089 2.5265 5.05651 
-5.59816 2.52726 5.09529 
-5.72769 2.54464 5.00993 
-6.47617 2.5333 5.45245 
-6.70322 2.55235 5.39839 
1.91546 2.87348 -0.963446 
1.77294 2.7933 -0.228286 
1.6811 2.87336 -0.854365 
1.55017 2.88472 -0.888789 
1.43937 2.87011 -0.715609 
1.1998 2.81735 -0.16455 
0.117059 2.42022 3.65124 
0.0159493 2.40752 3.804 
-0.110092 2.42576 3.70999 
-0.206418 2.40076 3.96325 
-0.337328 2.42045 3.8593 
-0.43508 2.40642 4.02169 
-0.661269 2.41098 4.08816 
-0.791771 2.4504 3.81931 
-0.889781 2.45204 3.85091 
-1.021 2.4914 3.58294 
-1.12328 2.48382 3.69353 
-1.24308 2.49245 3.67682 
-1.34679 2.50098 3.65355 
-1.57601 2.50783 3.70241 
-1.70313 2.55188 3.39337 
-1.80244 2.54579 3.49018 
-1.93108 2.56225 3.41223 
-2.03444 2.5851 3.26922 
-2.17305 2.64022 2.87303 
-2.2651 2.61748 3.10558 
-2.40252 2.66928 2.73659 
-2.50234 2.65614 2.89249 
-2.63448 2.70331 2.55973 
-2.74319 2.72718 2.41074 
-2.86332 2.72884 2.45239 
-2.96748 2.71883 2.58424 
-3.09972 2.76435 2.26529 
-3.20086 2.75909 2.356 
-3.32601 2.75555 2.4435 
-3.42903 2.76896 2.37923 
-3.55206 2.74366 2.64743 
-3.64761 2.73457 2.76757 
-3.77684 2.73695 2.80756 
-3.86874 2.71156 3.06213 
-4.00519 2.74961 2.80753 
-4.09202 2.70416 3.22726 
-4.21868 2.70802 3.25367 
-4.30789 2.67806 3.5452 
-4.42916 2.66413 3.7177 
-4.51776 2.63441 4.00693 
-4.6448 2.64308 3.99338 
-4.73632 2.62625 4.17627 
-4.8643 2.63476 4.1645 
-4.94623 2.59338 4.54808 
-5.0657 2.58723 4.65477 
-5.16239 2.58332 4.73219 
-5.28476 2.57854 4.82887 
-5.37987 2.57314 4.91802 
-5.50631 2.58227 4.90033 
-5.59681 2.56566 5.08101 
-5.73123 2.58994 4.94056 
-6.38124 2.57743 5.34638 
-6.46764 2.55608 5.56476 
-6.70462 2.59641 5.33781 
1.77398 2.83675 -0.27395 
1.67737 2.86184 -0.438411 
1.55975 2.95766 -1.18209 
1.44135 2.90456 -0.685326 
0.803629 2.50742 2.91566 
0.349056 2.45125 3.59308 
0.122495 2.44205 3.77416 
0.0176037 2.4409 3.83215 
-0.105933 2.45579 3.76513 
-0.205301 2.43473 3.98638 
-0.334278 2.45292 3.89444 
-0.43136 2.43894 4.05568 
-0.661299 2.45906 3.99421 
-0.790138 2.48806 3.81221 
-0.888129 2.48471 3.88533 
-1.01929 2.52847 3.58142 
-1.11448 2.49873 3.87304 
-1.24238 2.54247 3.56778 
-1.3468 2.53121 3.70975 
-1.57604 2.56702 3.51736 
-1.69888 2.56813 3.56485 
-1.80204 2.58059 3.50876 
-1.93238 2.60923 3.33039 
-2.03216 2.62558 3.24032 
-2.16722 2.66003 3.01581 
-2.2656 2.66626 3.00932 
-2.49778 2.69444 2.88191 
-2.63165 2.74183 2.54906 
-2.73834 2.75089 2.52292 
-2.86357 2.78737 2.27691 
-2.96824 2.76477 2.51353 
-3.09755 2.79807 2.29588 
-3.20076 2.80151 2.31494 
-3.42426 2.79095 2.5062 
-3.55246 2.79273 2.55061 
-3.6474 2.78188 2.68487 
-3.78021 2.79058 2.67375 
-3.8667 2.75017 3.05028 
-4.00113 2.77236 2.92762 
-4.09313 2.75559 3.10981 
-4.21274 2.72995 3.37872 
-4.30679 2.7138 3.55667 
-4.42806 2.70752 3.66507 
-4.52101 2.68673 3.88126 
-4.65485 2.71201 3.73255 
-4.74045 2.67566 4.07494 
-4.86448 2.68055 4.09153 
-4.95113 2.65 4.38605 
-5.06276 2.61835 4.70131 
-5.1593 2.61449 4.77819 
-5.28246 2.61188 4.85684 
-5.38008 2.6119 4.90189 
-5.5091 2.62719 4.83424 
-5.5934 2.59708 5.12406 
-5.72713 2.62159 4.98177 
-6.47485 2.61083 5.41745 
-6.69186 2.60903 5.53293 
1.91976 2.94838 -0.95224 
1.77508 2.84577 -0.0334529 
1.68529 2.95626 -0.909829 
1.55572 2.96314 -0.907383 
1.43953 2.91676 -0.468706 
1.19949 2.86022 0.111327 
0.125741 2.48503 3.72185 
0.0187082 2.48606 3.76263 
-0.103374 2.49821 3.71788 
-0.204178 2.47976 3.91757 
-0.332219 2.48381 3.94291 
-0.429583 2.48021 4.01773 
-0.559843 2.49267 3.97425 
-0.659228 2.49281 4.01886 
-0.787661 2.52799 3.78583 
-0.887311 2.52256 3.87687 
-1.0172 2.5611 3.61663 
-1.11805 2.55541 3.71032 
-1.24008 2.56608 3.67796 
-1.34249 2.5634 3.74742 
-1.47106 2.58658 3.61413 
-1.57232 2.5835 3.68645 
-1.70069 2.62479 3.40266 
-1.80119 2.62698 3.43082 
-1.93159 2.65812 3.23227 
-2.02801 2.64801 3.36069 
-2.16764 2.69676 3.02014 
-2.26343 2.69714 3.06113 
-2.49879 2.74909 2.73813 
-2.63002 2.77325 2.59799 
-2.73339 2.77713 2.61344 
-2.85396 2.77381 2.69659 
-2.96918 2.82459 2.32798 
-3.09687 2.84834 2.18963 
-3.19785 2.83349 2.35951 
-3.32338 2.83614 2.39546 
-3.42469 2.84382 2.37836 
-3.5506 2.83392 2.51866 
-3.64439 2.80869 2.77157 
-3.78322 2.84698 2.51755 
-3.88127 2.83413 2.66957 
-3.99804 2.80736 2.94579 
-4.08285 2.76116 3.3688 
-4.21382 2.77249 3.33513 
-4.30593 2.7503 3.56195 
-4.42864 2.74833 3.635 
-4.5149 2.71506 3.9512 
-4.64042 2.71227 4.03231 
-4.73921 2.71261 4.0751 
-4.85794 2.70236 4.2151 
-5.06899 2.67362 4.55128 
-5.15804 2.6522 4.77037 
-5.28523 2.66347 4.73553 
-5.37996 2.65515 4.8484 
-5.50863 2.6683 4.79862 
-5.59958 2.65446 4.95554 
-5.73407 2.67822 4.82032 
-6.1596 2.6493 5.25725 
-6.38286 2.65902 5.27966 
-6.47696 2.65397 5.36515 
-6.70367 2.67284 5.31317 
1.78067 2.90883 -0.243922 
1.55535 2.99999 -0.895531 
1.44436 2.97048 -0.600145 
1.20107 2.89031 0.17574 
0.126751 2.50774 3.83875 
0.0207559 2.51 3.86878 
-0.101995 2.52505 3.80051 
-0.202121 2.52427 3.85301 
-0.331472 2.52406 3.9143 
-0.428112 2.51316 4.04907 
-0.657322 2.53692 3.95763 
-0.787027 2.55456 3.87116 
-0.883628 2.55315 3.92727 
-1.01387 2.57952 3.76874 
-1.11381 2.58497 3.76961 
-1.24144 2.60633 3.65136 
-1.34506 2.61749 3.60661 
-1.57223 2.63721 3.54784 
-1.69561 2.64776 3.51716 
-1.79991 2.66999 3.38107 
-1.92811 2.68464 3.31872 
-2.02843 2.68644 3.34999 
-2.1648 2.72967 3.05461 
-2.26622 2.75501 2.89136 
-2.39749 2.78139 2.73321 
-2.49804 2.78296 2.76657 
-2.62664 2.80696 2.6269 
-2.73024 2.81086 2.64235 
-2.85521 2.83095 2.53344 
-2.96235 2.83774 2.52647 
-3.09619 2.88722 2.17818 
-3.19787 2.88206 2.2678 
-3.32378 2.8771 2.36684 
-3.41823 2.85627 2.58296 
-3.54784 2.86594 2.56254 
-3.6474 2.86596 2.60824 
-3.77762 2.87276 2.61191 
-3.86558 2.82277 3.06665 
-3.99948 2.85097 2.89468 
-4.08575 2.81307 3.24846 
-4.21141 2.81117 3.32215 
-4.30293 2.78685 3.56578 
-4.42866 2.79026 3.59547 
-4.5211 2.76928 3.81193 
-4.64352 2.76281 3.92201 
-4.73589 2.74811 4.08634 
-4.8587 2.74549 4.16465 
-4.94286 2.71027 4.49529 
-5.07577 2.72948 4.39747 
-5.15816 2.69287 4.73878 
-5.27889 2.68696 4.84345 
-5.37745 2.68835 4.87734 
-5.50595 2.70567 4.79315 
-5.59569 2.68564 5.00048 
-5.73211 2.71621 4.81015 
-6.47288 2.6873 5.39145 
-6.69674 2.69971 5.39195 
1.91891 2.99116 -0.673323 
1.78142 2.97249 -0.456004 
1.67709 2.98067 -0.475769 
1.55677 3.02995 -0.827691 
1.44199 3.00029 -0.530042 
0.128913 2.55456 3.75531 
0.0235799 2.54165 3.91036 
-0.100949 2.54928 3.90444 
-0.199751 2.55898 3.86969 
-0.327644 2.55849 3.93248 
-0.427119 2.55311 4.02258 
-0.655253 2.57141 3.97621 
-0.78546 2.6028 3.77664 
-0.881933 2.5938 3.89533 
-1.01261 2.62142 3.72713 
-1.11262 2.61283 3.84404 
-1.23802 2.64855 3.60652 
-1.34007 2.64719 3.66467 
-1.56899 2.66088 3.65671 
-1.69409 2.68659 3.50177 
-1.79997 2.72223 3.25591 
-1.92906 2.73663 3.19631 
-2.0286 2.73081 3.29011 
-2.16228 2.77603 2.97789 
-2.26313 2.78222 2.97313 
-2.4949 2.807 2.87491 
-2.62531 2.83894 2.67093 
-2.7285 2.85706 2.56864 
-2.85437 2.86364 2.57215 
-2.96255 2.89245 2.38382 
-3.09304 2.9166 2.24425 
-3.19394 2.90928 2.35119 
-3.41806 2.8998 2.53258 
-3.54687 2.90355 2.56085 
-3.64726 2.90409 2.60257 
-3.77908 2.92689 2.47476 
-3.86051 2.85716 3.08844 
-3.99999 2.90352 2.76957 
-4.0868 2.86172 3.15489 
-4.2157 2.86674 3.17271 
-4.30612 2.84847 3.36534 
-4.42288 2.81152 3.7244 
-4.51978 2.80879 3.79157 
-4.64144 2.80187 3.90477 
-4.73344 2.78422 4.09292 
-4.85817 2.78561 4.1389 
-4.94247 2.7499 4.4728 
-5.07142 2.76177 4.43403 
-5.15731 2.73303 4.71116 
-5.27855 2.72842 4.80502 
-5.37352 2.72175 4.90387 
-5.48949 2.7041 5.10316 
-5.59447 2.72402 4.9869 
-5.72403 2.73971 4.91687 
-6.37611 2.72633 5.32785 
-6.47251 2.72634 5.37223 
-6.70028 2.74662 5.30954 
1.93701 3.12498 -1.46982 
1.78312 2.99183 -0.302179 
1.68083 3.01635 -0.457409 
1.55028 3.03951 -0.588474 
1.45171 3.08467 -0.915474 
1.20807 2.99204 -0.0405543 
0.356274 2.59592 3.61405 
0.129581 2.60391 3.65215 
0.0242691 2.59048 3.81109 
-0.0983493 2.60102 3.78046 
-0.196699 2.58543 3.95397 
-0.326762 2.60017 3.89215 
-0.425362 2.58192 4.08779 
-0.654338 2.61277 3.93857 
-0.782087 2.63842 3.78578 
-0.882106 2.62692 3.9264 
-1.01166 2.67172 3.61657 
-1.1127 2.67637 3.62467 
-1.23596 2.69473 3.52991 
-1.33673 2.65655 3.89072 
-1.56766 2.70481 3.59895 
-1.69166 2.72967 3.45102 
-1.79503 2.73085 3.48867 
-1.92499 2.77265 3.20386 
-2.02659 2.76837 3.28576 
-2.16351 2.83009 2.83989 
-2.25977 2.81686 2.99307 
-2.38946 2.83797 2.87867 
-2.49938 2.88357 2.55329 
-2.62641 2.9001 2.47533 
-2.72922 2.89819 2.5383 
-2.85618 2.92569 2.36989 
-2.96373 2.93934 2.30677 
-3.08952 2.95434 2.24093 
-3.18894 2.93258 2.46593 
-3.31444 2.9425 2.44182 
-3.41791 2.93933 2.51545 
-3.54684 2.94708 2.51078 
-3.64546 2.94258 2.59313 
-3.77364 2.94184 2.65812 
-3.85227 2.86702 3.31088 
-3.99059 2.90942 3.02502 
-4.0819 2.88315 3.2835 
-4.21598 2.91094 3.11599 
-4.30187 2.86374 3.54451 
-4.42593 2.8678 3.56801 
-4.5203 2.85295 3.73378 
-4.64372 2.84764 3.83433 
-4.72854 2.81309 4.15803 
-4.85173 2.80855 4.25208 
-4.94075 2.78516 4.48584 
-5.05672 2.76683 4.69023 
-5.15381 2.76359 4.76155 
-5.27535 2.76336 4.81935 
-5.3689 2.75135 4.96136 
-5.50221 2.77767 4.80569 
-5.58833 2.74829 5.08741 
-5.72453 2.78339 4.86073 
-6.46861 2.75904 5.40373 
-6.7009 2.78816 5.27054 
1.94414 3.1789 -1.60052 
1.78574 3.03742 -0.365313 
1.68121 3.05549 -0.466042 
1.55346 3.07583 -0.574764 
1.44875 3.06715 -0.455527 
1.20823 2.99717 0.229627 
0.131061 2.61418 3.87037 
0.0258202 2.63327 3.76161 
-0.0923758 2.63428 3.8074 
-0.194741 2.61955 3.97536 
-0.325372 2.63384 3.9177 
-0.423919 2.61625 4.10738 
-0.550569 2.64043 3.96663 
-0.65232 2.65026 3.93243 
-0.781295 2.67557 3.78347 
-0.881184 2.66653 3.90354 
-1.00904 2.71319 3.57853 
-1.10831 2.6956 3.76861 
-1.2336 2.72775 3.56165 
-1.33794 2.72309 3.64774 
-1.46004 2.72899 3.6552 
-1.56678 2.74412 3.57977 
-1.68831 2.76149 3.4926 
-1.79169 2.76752 3.4904 
-1.92151 2.79393 3.33276 
-2.02643 2.82002 3.16645 
-2.15341 2.81749 3.24542 
-2.25702 2.84161 3.09459 
-2.49477 2.90396 2.69103 
-2.62145 2.91253 2.6786 
-2.72812 2.93466 2.54563 
-2.85433 2.96901 2.32107 
-2.96026 2.97139 2.35009 
-3.08789 2.99692 2.1987 
-3.18634 2.97175 2.45078 
-3.41734 2.97546 2.52619 
-3.54533 2.99163 2.45195 
-3.63952 2.96846 2.68561 
-3.77275 2.97949 2.65601 
-3.85924 2.93662 3.04807 
-3.98814 2.94906 3.00496 
-4.08371 2.93056 3.20089 
-4.21031 2.93489 3.22331 
-4.29586 2.895 3.59049 
-4.41704 2.87986 3.77061 
-4.51661 2.88546 3.77025 
-4.63426 2.86276 4.01082 
-4.73028 2.85765 4.09689 
-4.85252 2.85258 4.19471 
-4.94491 2.83503 4.38136 
-5.06825 2.83662 4.42491 
-5.15358 2.80416 4.73093 
-5.27592 2.80471 4.78253 
-5.37242 2.79882 4.87528 
-5.50576 2.82439 4.72628 
-5.59291 2.80162 4.95347 
-5.71832 2.80658 4.97028 
-6.46844 2.79904 5.37682 
-6.69335 2.81169 5.37606 
2.04834 3.20222 -1.52392 
1.92375 3.10497 -0.669904 
1.78806 3.08722 -0.462436 
1.67635 3.02665 0.0850733 
1.55868 3.12535 -0.670339 
1.45341 3.11958 -0.574953 
1.32235 3.13888 -0.673349 
1.20979 3.04766 0.125887 
0.133003 2.66644 3.74306 
0.0278414 2.66181 3.82907 
-0.0946425 2.67435 3.78222 
-0.193076 2.65391 3.9948 
-0.322522 2.67372 3.89159 
-0.423657 2.65801 4.06656 
-0.649779 2.67044 4.06807 
-0.782627 2.72509 3.68074 
-0.877451 2.70433 3.89427 
-1.00583 2.72288 3.80088 
-1.10998 2.74956 3.62977 
-1.23222 2.75927 3.60607 
-1.33769 2.74472 3.77362 
-1.5618 2.76897 3.67732 
-1.69163 2.80506 3.44078 
-1.78992 2.80423 3.49252 
-1.92372 2.84274 3.23798 
-2.02595 2.86495 3.10269 
-2.15569 2.89361 2.92704 
-2.25828 2.90568 2.87505 
-2.48861 2.92429 2.82783 
-2.62223 2.95736 2.61787 
-2.73269 2.99378 2.36976 
-2.85231 3.00474 2.33461 
-2.95986 2.99366 2.47468 
-3.08524 3.02433 2.28066 
-3.18939 3.02325 2.33717 
-3.31527 3.01058 2.49865 
-3.41418 3.01886 2.47606 
-3.53852 3.01227 2.58699 
-3.64111 3.01834 2.58422 
-3.77182 3.02331 2.60335 
-3.85919 2.98038 2.99531 
-3.99443 3.01876 2.74258 
-4.08345 2.97745 3.12205 
-4.20059 2.94893 3.40952 
-4.29528 2.94403 3.49306 
-4.42236 2.94057 3.57972 
-4.51323 2.91658 3.81799 
-4.62919 2.89275 4.06658 
-4.72225 2.87481 4.25626 
-4.85185 2.89494 4.15062 
-4.94413 2.87663 4.34299 
-5.06658 2.8741 4.41986 
-5.1506 2.83778 4.75622 
-5.27154 2.8324 4.85574 
-5.36658 2.82448 4.96427 
-5.49823 2.84602 4.84798 
-5.59282 2.84156 4.92788 
-5.71792 2.84869 4.9268 
-6.46915 2.83906 5.35021 
-6.69783 2.85896 5.29189 
1.92697 3.14121 -0.655548 
1.78978 3.12021 -0.421299 
1.6879 3.14328 -0.563521 
1.56341 3.19041 -0.892181 
1.45655 3.16061 -0.599767 
1.32264 3.16999 -0.615457 
0.133351 2.70922 3.69464 
0.0301483 2.6952 3.8564 
-0.094118 2.70908 3.79961 
-0.191873 2.69718 3.94149 
-0.321339 2.71618 3.84522 
-0.420088 2.7049 3.98256 
-0.649192 2.71462 4.00765 
-0.778073 2.73513 3.89873 
-0.876796 2.74267 3.88214 
-1.00465 2.76012 3.79782 
-1.10277 2.76186 3.82841 
-1.22944 2.79372 3.62571 
-1.33676 2.80877 3.5516 
-1.56074 2.81436 3.60815 
-1.68648 2.81617 3.65079 
-1.78938 2.85183 3.40617 
-1.92364 2.89936 3.07881 
-2.02217 2.90007 3.11801 
-2.15684 2.93358 2.90545 
-2.25865 2.94088 2.89231 
-2.49048 2.98674 2.62316 
-2.62206 3.01749 2.43184 
-2.72648 3.03014 2.37611 
-2.84701 3.01857 2.52576 
-2.95386 3.03947 2.4037 
-3.08757 3.08053 2.12895 
-3.1874 3.05978 2.34434 
-3.31427 3.05956 2.40407 
-3.41335 3.05828 2.45983 
-3.53746 3.04573 2.61917 
-3.63984 3.05497 2.59045 
-3.77093 3.05878 2.61919 
-3.85696 3.01557 3.01197 
-3.98833 3.03917 2.87899 
-4.08439 3.03152 2.98546 
-4.20341 2.99596 3.33072 
-4.30073 3.00309 3.31692 
-4.42217 2.98105 3.55273 
-4.49978 2.92245 4.06746 
-4.62408 2.91833 4.15801 
-4.72604 2.93032 4.10659 
-4.85164 2.93266 4.14497 
-4.93474 2.89249 4.51147 
-5.05934 2.89507 4.54741 
-5.15152 2.88373 4.68234 
-5.28369 2.90622 4.55886 
-5.37063 2.87744 4.83406 
-5.49738 2.89037 4.78632 
-5.58691 2.868 5.01026 
-5.71928 2.88512 4.93078 
-6.46451 2.8689 5.40467 
-6.69659 2.89777 5.27482 
1.93053 3.17708 -0.638445 
1.797 3.18062 -0.606566 
1.68721 3.13096 -0.151601 
1.56086 3.18692 -0.550523 
1.45517 3.19167 -0.541168 
0.134826 2.75607 3.61279 
0.0317938 2.71844 3.96662 
-0.0934742 2.72956 3.93305 
-0.192099 2.74409 3.85945 
-0.319723 2.74803 3.8855 
-0.417063 2.73601 4.0279 
-0.645182 2.73822 4.11379 
-0.775997 2.77775 3.85103 
-0.873557 2.77507 3.91737 
-1.00491 2.8314 3.51775 
-1.10279 2.79217 3.88238 
-1.22972 2.82793 3.64852 
-1.33255 2.81851 3.77226 
-1.55895 2.84262 3.67885 
-1.68281 2.85193 3.65941 
-1.78878 2.89457 3.35994 
-1.92046 2.92342 3.18462 
-2.0175 2.92454 3.21974 
-2.15509 2.97484 2.87218 
-2.25333 2.97589 2.90843 
-2.38419 2.99082 2.84639 
-2.49104 3.02102 2.64877 
-2.62103 3.05799 2.40647 
-2.7284 3.07319 2.3315 
-2.85242 3.0893 2.25668 
-2.95728 3.10471 2.17881 
-3.08774 3.12141 2.10209 
-3.1823 3.08693 2.42652 
-3.31327 3.09849 2.39195 
-3.4103 3.09087 2.49844 
-3.5376 3.08272 2.62298 
-3.63972 3.09416 2.57633 
-3.77256 3.1165 2.45466 
-3.85511 3.05656 2.98135 
-3.995 3.10337 2.66334 
-4.07597 3.04491 3.17718 
-4.20724 3.05455 3.1585 
-4.29905 3.03374 3.37015 
-4.42293 3.02304 3.51406 
-4.62645 2.96657 4.06766 
-4.72003 2.95259 4.22444 
-4.84721 2.96526 4.17917 
-4.93625 2.93876 4.43604 
-5.06365 2.9493 4.4082 
-5.15201 2.92543 4.64329 
-5.27808 2.93419 4.62948 
-5.36609 2.90664 4.89438 
-5.4947 2.92497 4.80367 
-5.58888 2.91432 4.93353 
-5.71776 2.92818 4.87937 
-6.46106 2.90305 5.42418 
-6.69638 2.93841 5.24331 
1.92665 3.20323 -0.538937 
1.7957 3.18866 -0.360954 
1.69219 3.19445 -0.361062 
1.56245 3.22487 -0.549513 
1.46283 3.26847 -0.858963 
1.21838 3.15551 0.171 
1.0807 3.19625 -0.0978071 
0.137925 2.78655 3.6638 
0.0330611 2.79745 3.62285 
-0.0905369 2.7957 3.69329 
-0.190016 2.77486 3.90811 
-0.320116 2.78946 3.84849 
-0.416849 2.7848 3.93044 
-0.644632 2.78395 4.04098 
-0.774549 2.81481 3.84909 
-0.872469 2.81755 3.87132 
-1.00127 2.83704 3.77138 
-1.10366 2.84721 3.73528 
-1.22705 2.87808 3.54031 
-1.33306 2.86549 3.69098 
-1.55781 2.87968 3.67783 
-1.68317 2.91193 3.47252 
-1.78513 2.9136 3.50542 
-1.91666 2.9438 3.31954 
-2.01991 2.9821 3.05495 
-2.15118 3.01139 2.87647 
-2.25127 3.00194 2.99889 
-2.4876 3.04269 2.77505 
-2.61772 3.08234 2.51165 
-2.724 3.10488 2.37672 
-2.85256 3.14247 2.12942 
-2.9507 3.11819 2.37173 
-3.08112 3.13223 2.31687 
-3.18353 3.13191 2.36615 
-3.31035 3.12716 2.46256 
-3.41295 3.1471 2.34709 
-3.53937 3.1413 2.45185 
-3.64141 3.13636 2.53854 
-3.77191 3.16194 2.38994 
-3.85983 3.10668 2.87965 
-3.98657 3.11501 2.8696 
-4.07589 3.07566 3.23051 
-4.2013 3.07646 3.28113 
-4.29134 3.04894 3.54615 
-4.4232 3.0672 3.45769 
-4.49924 3.00145 4.02733 
-4.62645 3.00867 4.02662 
-4.72184 3.00302 4.11606 
-4.85503 3.02425 4.00404 
-5.06292 2.98643 4.40665 
-5.14051 2.93535 4.85768 
-5.26926 2.95024 4.79525 
-5.36773 2.95308 4.81703 
-5.4914 2.95739 4.8384 
-5.58556 2.94649 4.97001 
-5.71844 2.97224 4.82113 
-6.46345 2.94777 5.36029 
-6.69163 2.96948 5.28782 
1.93212 3.25466 -0.649355 
1.79512 3.20119 -0.153322 
1.68767 3.1724 0.129032 
1.56367 3.24454 -0.400054 
1.45533 3.25361 -0.424489 
1.33071 3.27224 -0.519129 
1.218 3.19362 0.169927 
1.08554 3.22309 -0.00912506 
0.141102 2.82648 3.63786 
0.0349763 2.80585 3.85353 
-0.0864732 2.82193 3.77815 
-0.188022 2.80462 3.96475 
-0.318848 2.83028 3.81597 
-0.414098 2.81025 4.02181 
-0.642917 2.83831 3.89805 
-0.77023 2.84121 3.93232 
-0.874639 2.86698 3.7707 
-1.00043 2.87815 3.73719 
-1.10009 2.88218 3.74978 
-1.22646 2.92582 3.45312 
-1.33033 2.90121 3.70001 
-1.55901 2.94008 3.48856 
-1.68414 2.95971 3.38611 
-1.78857 2.98423 3.23463 
-1.91714 3.00476 3.12645 
-2.01589 3.00437 3.17456 
-2.14741 3.04071 2.93943 
-2.24924 3.03579 3.02565 
-2.38794 3.09292 2.62515 
-2.4828 3.07716 2.79613 
-2.61612 3.12018 2.50765 
-2.72349 3.14495 2.35545 
-2.84718 3.15305 2.34601 
-2.95093 3.1586 2.34814 
-3.07991 3.17238 2.29495 
-3.17931 3.15831 2.45437 
-3.31221 3.18486 2.29937 
-3.40626 3.16047 2.54012 
-3.53567 3.17197 2.50564 
-3.63896 3.18022 2.48574 
-3.75397 3.1439 2.83283 
-3.85732 3.14306 2.88669 
-3.99119 3.17409 2.69579 
-4.07514 3.11651 3.20122 
-4.21017 3.14672 3.01759 
-4.29541 3.10727 3.37655 
-4.42368 3.11225 3.39446 
-4.5047 3.05815 3.87044 
-4.63131 3.06139 3.90177 
-4.71562 3.02576 4.22939 
-4.84915 3.05346 4.06536 
-4.93262 3.01209 4.43914 
-5.05126 2.99924 4.59743 
-5.12999 2.94404 5.08128 
-5.27432 3.00596 4.64446 
-5.36102 2.97657 4.92249 
-5.49519 3.00334 4.7664 
-5.5886 2.99339 4.88966 
-5.71396 3.00274 4.87087 
-6.46212 2.98679 5.34134 
-6.69175 3.01078 5.25126 
1.94277 3.3596 -1.19451 
1.69672 3.2943 -0.554578 
1.56882 3.32589 -0.752349 
1.2173 3.24572 0.0557755 
1.08576 3.27183 -0.096 
0.140443 2.87009 3.58407 
0.0364357 2.86051 3.70874 
-0.086703 2.85908 3.77615 
-0.187632 2.84167 3.96286 
-0.315688 2.85908 3.88002 
-0.409662 2.84849 4.00838 
-0.638654 2.86705 3.96204 
-0.769202 2.88068 3.91094 
-0.869293 2.88911 3.88808 
-0.999426 2.93029 3.61382 
-1.09867 2.9081 3.83847 
-1.22269 2.94435 3.6014 
-1.32521 2.92515 3.80331 
-1.55619 2.96693 3.56995 
-1.68384 3.00836 3.29251 
-1.78331 3.01431 3.28956 
-1.9153 3.04118 3.13196 
-2.0175 3.05605 3.05802 
-2.14873 3.09924 2.76794 
-2.24845 3.09048 2.88415 
-2.38156 3.11819 2.72026 
-2.48225 3.1201 2.75058 
-2.61359 3.15533 2.525 
-2.71889 3.15986 2.53615 
-2.84731 3.20343 2.24184 
-2.95049 3.20626 2.26579 
-3.07993 3.22862 2.1436 
-3.17645 3.18877 2.50999 
-3.30989 3.21142 2.38727 
-3.40854 3.20751 2.46374 
-3.5336 3.20629 2.53039 
-3.62476 3.17624 2.81506 
-3.76626 3.22728 2.46623 
-3.84965 3.15788 3.06584 
-3.97397 3.15496 3.146 
-4.08328 3.18706 2.93582 
-4.20152 3.16214 3.1913 
-4.29497 3.14504 3.37215 
-4.42127 3.14564 3.42477 
-4.50542 3.10065 3.82719 
-4.62324 3.08211 4.03081 
-4.71605 3.06984 4.17233 
-4.85301 3.10213 3.97326 
-4.93148 3.04825 4.44512 
-5.055 3.04975 4.48911 
-5.14409 3.02904 4.69725 
-5.2717 3.03922 4.67289 
-5.36342 3.02289 4.8468 
-5.49159 3.03619 4.79744 
-5.59102 3.04232 4.79306 
-5.71173 3.03593 4.89971 
-6.46328 3.02855 5.30137 
-6.68679 3.03933 5.31584 
1.79805 3.30658 -0.391551 
1.69193 3.30678 -0.345106 
1.56814 3.35118 -0.647581 
1.4626 3.34523 -0.551782 
1.33199 3.34072 -0.456329 
1.2204 3.27983 0.0857177 
1.09334 3.34482 -0.381476 
0.98978 3.29556 0.063038 
0.14195 2.9019 3.62478 
0.0373801 2.89698 3.71183 
-0.0854738 2.89545 3.77983 
-0.183355 2.87813 3.96401 
-0.312986 2.90886 3.77464 
-0.410708 2.875 4.09224 
-0.63871 2.90762 3.93213 
-0.771061 2.9274 3.83244 
-0.866632 2.92963 3.85771 
-0.997104 2.95527 3.70983 
-1.09908 2.96332 3.69102 
-1.22151 2.9731 3.66757 
-1.32794 2.97522 3.69862 
-1.55439 3.00346 3.57331 
-1.68133 3.04732 3.27667 
-1.78275 3.06022 3.2185 
-1.91571 3.08943 3.04293 
-2.01966 3.1176 2.86263 
-2.14763 3.13666 2.76675 
-2.24417 3.1188 2.95475 
-2.38084 3.15594 2.7168 
-2.48372 3.18271 2.54729 
-2.61376 3.20296 2.4428 
-2.71883 3.21486 2.39434 
-2.84609 3.24293 2.22543 
-2.94916 3.24006 2.29529 
-3.07743 3.25972 2.19478 
-3.17358 3.22139 2.54783 
-3.30908 3.25832 2.31108 
-3.40327 3.23408 2.54952 
-3.53358 3.24674 2.50643 
-3.63405 3.24098 2.59853 
-3.7588 3.24253 2.64258 
-3.85181 3.2114 2.93616 
-3.97675 3.20475 3.0465 
-4.07426 3.19969 3.13166 
-4.19135 3.17437 3.38923 
-4.28515 3.1539 3.59703 
-4.41055 3.1571 3.62818 
-4.5011 3.14217 3.78979 
-4.61887 3.11685 4.04769 
-4.7261 3.13884 3.91884 
-4.84924 3.13379 4.01551 
-4.93397 3.09831 4.34047 
-5.05059 3.08133 4.53049 
-5.14182 3.06483 4.70516 
-5.26506 3.06344 4.77237 
-5.35887 3.05387 4.89223 
-5.4847 3.06068 4.89438 
-5.58375 3.06595 4.89679 
-5.71327 3.08375 4.81196 
-6.46455 3.07242 5.24473 
-6.69115 3.08824 5.21995 
1.94383 3.4189 -1.05493 
1.69399 3.34184 -0.321638 
1.57598 3.40676 -0.791122 
1.4741 3.42425 -0.885943 
1.33724 3.41658 -0.762358 
1.2242 3.31207 0.130233 
1.09896 3.36192 -0.214592 
0.989539 3.34464 -0.0260248 
0.143368 2.9387 3.62523 
0.0403696 2.92209 3.80549 
-0.0829853 2.93775 3.73516 
-0.181309 2.92538 3.87925 
-0.31105 2.9373 3.84192 
-0.408681 2.91575 4.05965 
-0.637665 2.94 3.96793 
-0.769503 2.95743 3.88722 
-0.862508 2.94986 3.99023 
-0.995781 2.99822 3.66105 
-1.09335 2.98086 3.84502 
-1.21898 3.01632 3.61631 
-1.32477 3.00303 3.77116 
-1.55379 3.04878 3.5064 
-1.67796 3.06347 3.44429 
-1.77865 3.07902 3.36462 
-1.91493 3.13058 3.01108 
-2.01273 3.12155 3.12806 
-2.15098 3.19746 2.57931 
-2.24596 3.16437 2.88876 
-2.37911 3.21064 2.57641 
-2.47834 3.20066 2.70169 
-2.61204 3.23386 2.49486 
-2.71306 3.22972 2.57393 
-2.84575 3.28069 2.22355 
-2.9488 3.27726 2.29783 
-3.07312 3.28419 2.29827 
-3.16974 3.25393 2.58575 
-3.30514 3.29844 2.28857 
-3.40261 3.27897 2.48956 
-3.53172 3.28047 2.5359 
-3.62956 3.2799 2.58484 
-3.75789 3.28156 2.62958 
-3.85433 3.26342 2.81934 
-3.98539 3.27552 2.78127 
-4.07182 3.23606 3.13826 
-4.19808 3.23551 3.19989 
-4.2937 3.22032 3.36554 
-4.40955 3.19573 3.61614 
-4.50314 3.17809 3.80057 
-4.62222 3.16379 3.96973 
-4.71962 3.16163 4.03126 
-4.84383 3.1595 4.1047 
-4.93228 3.13265 4.36111 
-5.05473 3.1321 4.42103 
-5.14308 3.10895 4.64758 
-5.2698 3.11734 4.63743 
-5.36001 3.09575 4.85219 
-5.49066 3.11996 4.7165 
-5.58393 3.10873 4.84922 
-5.70709 3.10742 4.9156 
-6.46084 3.10429 5.28273 
-6.68541 3.11532 5.2958 
1.80173 3.37256 -0.311018 
1.69579 3.3731 -0.267568 
1.5699 3.38881 -0.336996 
1.22584 3.34655 0.157553 
1.09922 3.38188 -0.0691063 
0.991953 3.39522 -0.127862 
0.375462 3.00725 3.26651 
0.148102 2.95499 3.78884 
0.0419313 2.97431 3.68162 
-0.0819907 2.975 3.73206 
-0.181678 2.97147 3.80537 
-0.312915 2.99892 3.64415 
-0.407464 2.95996 3.9998 
-0.635178 2.97881 3.95117 
-0.767761 2.99803 3.85671 
-0.863952 2.99841 3.89713 
-0.991652 3.02487 3.74223 
-1.0954 3.03021 3.74621 
-1.21744 3.05493 3.60279 
-1.32368 3.05418 3.65675 
-1.5508 3.07726 3.57404 
-1.67689 3.11179 3.35361 
-1.77995 3.12534 3.29131 
-1.91254 3.17061 2.98758 
-2.01326 3.16918 3.04461 
-2.14721 3.21849 2.70903 
-2.37687 3.24519 2.59835 
-2.48025 3.2567 2.55259 
-2.60809 3.27091 2.49627 
-2.71304 3.30339 2.28281 
-2.84356 3.32 2.20838 
-2.94423 3.30887 2.34326 
-3.07032 3.31312 2.36614 
-3.16989 3.29479 2.55842 
-3.30219 3.32867 2.34606 
-3.39977 3.31259 2.51939 
-3.52595 3.30219 2.65998 
-3.62253 3.30984 2.64219 
-3.75575 3.3167 2.64738 
-3.84871 3.28963 2.90687 
-3.97569 3.29347 2.93343 
-4.06853 3.27179 3.14964 
-4.20223 3.29372 3.03392 
-4.28495 3.23829 3.51664 
-4.41635 3.25936 3.40683 
-4.49917 3.21132 3.83024 
-4.62522 3.21996 3.81787 
-4.72252 3.21168 3.9284 
-4.84502 3.20655 4.02507 
-4.93012 3.16889 4.36619 
-5.04684 3.15413 4.53757 
-5.13694 3.13389 4.74098 
-5.2577 3.12746 4.84732 
-5.36244 3.14442 4.75848 
-5.48705 3.1503 4.76762 
-5.57917 3.13639 4.92108 
-5.70979 3.15157 4.85828 
-6.46474 3.15284 5.19002 
-6.68999 3.16633 5.18368 
1.80411 3.3976 -0.207585 
1.69826 3.39565 -0.144351 
1.57338 3.4135 -0.231093 
1.46529 3.41388 -0.185514 
1.33918 3.47831 -0.644874 
1.22692 3.39412 0.0801068 
1.09614 3.41462 -0.0252162 
0.862939 3.42456 0.000160691 
0.153138 3.01041 3.63813 
0.0439211 3.00518 3.72926 
-0.0819339 3.01482 3.70869 
-0.179018 2.99853 3.88303 
-0.305985 3.01368 3.81888 
-0.406206 3.00595 3.92598 
-0.634479 3.01589 3.94924 
-0.76559 3.04885 3.74434 
-0.861962 3.05208 3.76186 
-0.988159 3.05877 3.76518 
-1.08972 3.05982 3.80256 
-1.21589 3.08243 3.67834 
-1.31946 3.08212 3.72751 
-1.5492 3.13012 3.44661 
-1.67587 3.14908 3.35178 
-1.78038 3.18988 3.07207 
-1.91187 3.21846 2.90239 
-2.01079 3.21194 2.99924 
-2.14523 3.27864 2.52549 
-2.24378 3.26095 2.71174 
-2.37665 3.29242 2.51952 
-2.47881 3.30888 2.43372 
-2.60777 3.31779 2.42055 
-2.71103 3.3265 2.39737 
-2.84075 3.35995 2.18788 
-2.94371 3.36006 2.23348 
-3.07123 3.35546 2.32793 
-3.17173 3.34803 2.43283 
-3.29829 3.35031 2.47165 
-3.39914 3.35816 2.45436 
-3.52701 3.35877 2.50722 
-3.62572 3.3559 2.57472 
-3.74786 3.32762 2.85652 
-3.85187 3.34681 2.74969 
-3.97524 3.33444 2.90459 
-4.07653 3.34207 2.88917 
-4.1996 3.32999 3.0416 
-4.28752 3.29818 3.33617 
-4.40781 3.27149 3.60441 
-4.50093 3.26018 3.7371 
-4.62289 3.25189 3.85864 
-4.7131 3.22819 4.08935 
-4.8395 3.2338 4.10153 
-4.92905 3.20591 4.36547 
-5.04979 3.20081 4.46092 
-5.13942 3.18048 4.6643 
-5.26609 3.19111 4.63638 
-5.35688 3.16881 4.85615 
-5.48296 3.17783 4.84085 
-5.57818 3.17329 4.92032 
-5.71947 3.21466 4.65264 
-6.4627 3.1879 5.20325 
-6.68498 3.19575 5.24089 
1.80967 3.46483 -0.443327 
1.70443 3.4822 -0.5348 
1.5817 3.49998 -0.621694 
1.47087 3.48989 -0.491216 
1.338 3.48695 -0.408006 
1.22917 3.42826 0.109923 
1.09834 3.42545 0.191229 
0.995973 3.45636 -0.00979412 
0.15119 3.04576 3.65165 
0.04588 3.02127 3.89473 
-0.0811698 3.05251 3.70227 
-0.175771 3.03344 3.89724 
-0.30627 3.06093 3.73628 
-0.404926 3.04729 3.88968 
-0.631392 3.0376 4.06908 
-0.760564 3.07766 3.80711 
-0.86046 3.07325 3.88736 
-0.991955 3.1067 3.6792 
-1.08845 3.09766 3.79496 
-1.21431 3.1263 3.62269 
-1.31805 3.11895 3.72817 
-1.54736 3.15615 3.53419 
-1.67397 3.19049 3.31677 
-1.77864 3.22725 3.07011 
-1.90744 3.22792 3.1228 
-2.00603 3.2545 2.95473 
-2.1461 3.30567 2.6089 
-2.24423 3.28958 2.7817 
-2.37574 3.3234 2.57068 
-2.47427 3.31576 2.67617 
-2.60573 3.35522 2.42002 
-2.71015 3.36694 2.3734 
-2.84009 3.40411 2.1349 
-2.94149 3.38819 2.30782 
-3.06892 3.39574 2.30487 
-3.16707 3.38176 2.46089 
-3.29395 3.38922 2.45843 
-3.39497 3.37539 2.61456 
-3.52381 3.38939 2.5607 
-3.6212 3.3681 2.77485 
-3.75612 3.40569 2.53517 
-3.84831 3.38563 2.73715 
-3.97774 3.38762 2.77955 
-4.06976 3.3604 3.03868 
-4.19433 3.35825 3.11199 
-4.28665 3.33816 3.31421 
-4.40819 3.3214 3.50306 
-4.5049 3.31134 3.6271 
-4.63349 3.32495 3.57628 
-4.71991 3.28811 3.90973 
-4.84013 3.27409 4.07604 
-4.92524 3.24096 4.37928 
-5.05563 3.26048 4.2821 
-5.14336 3.22987 4.56634 
-5.2629 3.21994 4.69972 
-5.36662 3.23734 4.60746 
-5.48657 3.22948 4.72438 
-5.57423 3.2046 4.96282 
-5.7038 3.22077 4.89212 
-6.36592 3.22888 5.12628 
-6.4595 3.22208 5.2229 
-6.68853 3.24411 5.15025 
1.94532 3.52908 -0.712379 
1.71649 3.55443 -0.811756 
1.57514 3.48166 -0.168269 
1.47009 3.51316 -0.372166 
1.34127 3.54687 -0.583107 
1.23064 3.4661 0.110422 
1.10038 3.46784 0.155032 
0.997357 3.48267 0.0831075 
0.865677 3.51846 -0.143028 
0.27473 3.07789 3.63437 
0.154293 3.09141 3.58068 
0.0478074 3.10252 3.54002 
-0.0781304 3.12109 3.44854 
-0.178634 3.06851 3.9129 
-0.306368 3.09445 3.76352 
-0.405463 3.07899 3.9313 
-0.631973 3.09447 3.9097 
-0.76141 3.10695 3.86842 
-0.859544 3.11329 3.86205 
-0.987348 3.13229 3.76798 
-1.08821 3.14514 3.71092 
-1.21275 3.15057 3.7236 
-1.31348 3.1369 3.87793 
-1.54316 3.18476 3.59972 
-1.67059 3.22093 3.36862 
-1.77774 3.26704 3.04929 
-1.90846 3.29268 2.90366 
-2.00852 3.2999 2.89113 
-2.14158 3.35247 2.53186 
-2.24408 3.33828 2.69112 
-2.36942 3.34845 2.66644 
-2.47367 3.36253 2.6011 
-2.60495 3.39451 2.40521 
-2.70713 3.40338 2.38051 
-2.83419 3.41787 2.3221 
-2.93989 3.42713 2.2959 
-3.06416 3.43622 2.27935 
-3.16841 3.42735 2.39697 
-3.29031 3.42561 2.4657 
-3.39426 3.41681 2.58265 
-3.52607 3.44895 2.38579 
-3.61628 3.40032 2.81412 
-3.75584 3.45977 2.40292 
-3.85389 3.43503 2.64434 
-3.98187 3.45275 2.56074 
-4.07115 3.40049 3.01758 
-4.18969 3.37951 3.23822 
-4.27904 3.3454 3.55045 
-4.40712 3.35863 3.5026 
-4.49802 3.33571 3.72629 
-4.62113 3.32611 3.85828 
-4.71568 3.31528 3.98728 
-4.84593 3.33015 3.9274 
-4.92611 3.28233 4.34479 
-5.04027 3.25883 4.58359 
-5.13305 3.24514 4.7346 
-5.27006 3.27962 4.52141 
-5.3577 3.25277 4.77496 
-5.48136 3.25738 4.79398 
-5.57929 3.25935 4.82237 
-5.70207 3.25672 4.89872 
-6.45873 3.25969 5.2162 
-6.68168 3.27066 5.22934 
1.71021 3.55083 -0.476196 
1.58312 3.58671 -0.704509 
1.4739 3.57467 -0.559824 
1.34123 3.59235 -0.64094 
1.23464 3.48813 0.235519 
1.10298 3.51399 0.0889417 
0.999382 3.51999 0.0876852 
0.385166 3.15072 3.29933 
0.153388 3.16208 3.31301 
0.0509586 3.15077 3.44889 
-0.0772057 3.13023 3.66974 
-0.174782 3.1184 3.80759 
-0.302876 3.13654 3.72086 
-0.402253 3.10705 3.99997 
-0.630092 3.13031 3.91731 
-0.762382 3.15237 3.80125 
-0.858842 3.16319 3.75848 
-0.98506 3.18172 3.66787 
-1.08605 3.18162 3.714 
-1.20935 3.19496 3.66329 
-1.31264 3.19855 3.68109 
-1.54415 3.23278 3.51284 
-1.67349 3.28579 3.14945 
-1.77329 3.28713 3.1836 
-1.90513 3.31989 2.98227 
-2.00725 3.33116 2.93855 
-2.13532 3.35653 2.79433 
-2.24172 3.37603 2.68702 
-2.3685 3.37134 2.78129 
-2.47341 3.40477 2.5626 
-2.60354 3.43456 2.38417 
-2.70634 3.4322 2.44911 
-2.83572 3.47149 2.19482 
-2.93484 3.44113 2.48078 
-3.06865 3.48941 2.157 
-3.16318 3.44866 2.5235 
-3.39489 3.47014 2.45687 
-3.51469 3.44669 2.69717 
-3.61782 3.45297 2.69362 
-3.75414 3.49876 2.39079 
-3.84992 3.46647 2.69062 
-3.97683 3.47204 2.70335 
-4.06609 3.42863 3.08877 
-4.28421 3.40387 3.38372 
-4.41747 3.43853 3.168 
-4.49114 3.35733 3.84698 
-4.62866 3.39313 3.62408 
-4.72202 3.37319 3.82466 
-4.8445 3.36958 3.90847 
-4.93226 3.34029 4.18094 
-5.04767 3.31978 4.39593 
-5.13101 3.27969 4.75227 
-5.25612 3.28687 4.75153 
-5.35791 3.29592 4.72535 
-5.48566 3.31129 4.66056 
-5.57223 3.28135 4.9377 
-5.71223 3.32314 4.66831 
-6.13833 3.28756 5.14314 
-6.22432 3.26526 5.3592 
-6.36285 3.30197 5.12965 
-6.45521 3.29139 5.25539 
-6.68615 3.32083 5.12521 
1.95218 3.6227 -0.851911 
1.81128 3.58653 -0.501982 
1.70717 3.57065 -0.329416 
1.58144 3.60105 -0.514289 
1.47687 3.62524 -0.659363 
1.34724 3.63576 -0.684798 
1.23424 3.53758 0.144503 
1.10419 3.55022 0.102469 
1.00425 3.57879 -0.0794147 
0.872396 3.59061 -0.114098 
0.771331 3.58409 -0.0171318 
0.153492 3.16401 3.5915 
0.0519446 3.17334 3.563 
-0.0729821 3.17487 3.60685 
-0.172653 3.16289 3.74652 
-0.301009 3.15827 3.84069 
-0.400853 3.14897 3.95921 
-0.626748 3.15961 3.97606 
-0.758978 3.20442 3.67988 
-0.856682 3.19349 3.81037 
-0.983092 3.21315 3.71113 
-1.08348 3.21344 3.75381 
-1.20848 3.2439 3.56825 
-1.31293 3.24157 3.63353 
-1.54185 3.2637 3.56069 
-1.67567 3.34493 2.97636 
-1.7738 3.33446 3.10339 
-1.90504 3.35233 3.02053 
-2.00548 3.37398 2.8938 
-2.13917 3.41969 2.59123 
-2.2394 3.42331 2.60746 
-2.36756 3.42172 2.67756 
-2.47162 3.44574 2.53373 
-2.60326 3.46968 2.40287 
-2.70833 3.48829 2.30242 
-2.83562 3.51619 2.13815 
-2.93384 3.48906 2.39749 
-3.06761 3.53074 2.12685 
-3.16364 3.49183 2.47865 
-3.29145 3.5057 2.42597 
-3.39147 3.49929 2.52169 
-3.52004 3.5077 2.51266 
-3.6132 3.49292 2.67172 
-3.74563 3.50492 2.63604 
-3.84455 3.49763 2.73825 
-3.97603 3.51572 2.65381 
-4.06462 3.47256 3.03592 
-4.18576 3.46123 3.18024 
-4.28768 3.46227 3.21773 
-4.40705 3.44171 3.43445 
-4.50205 3.43284 3.54749 
-4.62396 3.42206 3.68777 
-4.72133 3.415 3.7875 
-4.84091 3.40304 3.93609 
-4.92564 3.36544 4.2724 
-5.04897 3.36569 4.32582 
-5.13688 3.33733 4.59031 
-5.2607 3.34124 4.61498 
-5.34906 3.31384 4.87201 
-5.48047 3.3372 4.74579 
-5.57647 3.33237 4.82724 
-5.70448 3.3439 4.79333 
-6.2288 3.31666 5.24515 
-6.46363 3.35174 5.0724 
-6.6796 3.34439 5.22783 
1.81126 3.58758 -0.208434 
1.7072 3.59779 -0.242745 
1.58318 3.63884 -0.512015 
1.47629 3.63755 -0.454082 
1.34861 3.69583 -0.858095 
1.23631 3.57248 0.167978 
1.10578 3.58421 0.133494 
1.0057 3.55016 0.447674 
0.765523 3.48691 1.05545 
0.152799 3.19111 3.66977 
0.0533336 3.2024 3.62492 
-0.0718022 3.22957 3.46599 
-0.169104 3.18385 3.87123 
-0.301516 3.22635 3.59423 
-0.400061 3.18747 3.94598 
-0.623924 3.19631 3.97617 
-0.756332 3.22843 3.78129 
-0.858138 3.23775 3.75312 
-0.983238 3.25891 3.64171 
-1.08196 3.25035 3.75366 
-1.20925 3.29386 3.46634 
-1.31156 3.28003 3.62159 
-1.54054 3.31342 3.45998 
-1.67192 3.37154 3.05887 
-1.77515 3.39026 2.95705 
-1.9046 3.40914 2.86561 
-2.00318 3.41449 2.86745 
-2.13769 3.45549 2.60326 
-2.23707 3.45559 2.647 
-2.36814 3.47354 2.56366 
-2.46986 3.47501 2.59762 
-2.60151 3.51657 2.32769 
-2.70367 3.51911 2.35338 
-2.83067 3.54449 2.20946 
-2.93796 3.54196 2.27757 
-3.06254 3.54688 2.29443 
-3.16314 3.53399 2.44151 
-3.39529 3.56407 2.3075 
-3.51767 3.53971 2.55516 
-3.62007 3.54739 2.54023 
-3.74883 3.56747 2.43907 
-3.83657 3.5026 2.99174 
-3.97318 3.53804 2.77253 
-4.05228 3.47636 3.2961 
-4.28302 3.4876 3.31061 
-4.40381 3.47751 3.44463 
-4.49948 3.46395 3.59478 
-4.62529 3.46253 3.6625 
-4.71826 3.45046 3.79966 
-4.8372 3.43272 3.99338 
-4.92867 3.413 4.19049 
-5.04885 3.40692 4.29254 
-5.13456 3.37461 4.58668 
-5.26492 3.38922 4.52955 
-5.3543 3.3699 4.72256 
-5.48205 3.38324 4.67425 
-5.58237 3.38821 4.67998 
-5.6975 3.36583 4.90879 
-6.00594 3.34917 5.17905 
-6.23298 3.36805 5.13153 
-6.36438 3.38703 5.04034 
-6.45663 3.37718 5.15974 
1.71478 3.6603 -0.438865 
1.58504 3.67649 -0.508723 
1.47434 3.66473 -0.366571 
1.34875 3.71915 -0.739969 
1.24116 3.64658 -0.119237 
1.10717 3.62291 0.127333 
1.00673 3.6333 0.0902005 
0.282484 3.23621 3.54739 
0.157377 3.24478 3.53564 
0.0548053 3.24133 3.60868 
-0.0698679 3.24826 3.60971 
-0.170051 3.23242 3.77949 
-0.298593 3.23522 3.81481 
-0.397494 3.22557 3.93513 
-0.623595 3.25418 3.81039 
-0.753171 3.27431 3.70947 
-0.85302 3.28301 3.68542 
-0.981435 3.29747 3.62868 
-1.08128 3.30882 3.58371 
-1.20648 3.312 3.61462 
-1.31344 3.3284 3.53294 
-1.53876 3.35433 3.42906 
-1.67158 3.41844 2.98247 
-1.77507 3.43688 2.88318 
-1.90375 3.46311 2.73366 
-2.00426 3.45243 2.86297 
-2.13611 3.49711 2.5693 
-2.23478 3.49216 2.65244 
-2.36491 3.51725 2.51265 
-2.46965 3.5505 2.29701 
-2.59926 3.55164 2.34605 
-2.69872 3.55077 2.39741 
-2.82502 3.56877 2.31179 
-2.93378 3.57429 2.31688 
-3.06222 3.58848 2.26233 
-3.16443 3.5877 2.31424 
-3.28696 3.58328 2.40397 
-3.38464 3.55594 2.66347 
-3.51886 3.58268 2.51244 
-3.62057 3.58676 2.5258 
-3.75241 3.62211 2.30577 
-3.84487 3.57202 2.74256 
-3.96544 3.56011 2.89051 
-4.05926 3.53611 3.12193 
-4.18401 3.53815 3.16168 
-4.29102 3.5536 3.08767 
-4.40196 3.50719 3.50369 
-4.4938 3.48352 3.73161 
-4.62426 3.5032 3.63471 
-4.7102 3.46844 3.94757 
-4.84123 3.48424 3.88154 
-4.91762 3.42446 4.38769 
-5.04349 3.43208 4.38388 
-5.12847 3.39897 4.68329 
-5.25555 3.41167 4.64 
-5.34442 3.38297 4.90639 
-5.48868 3.43501 4.56022 
-5.57639 3.4142 4.7638 
-5.70508 3.42867 4.70722 
-6.01011 3.39948 5.07433 
-6.23078 3.40079 5.16294 
-6.45747 3.41982 5.11431 
-6.6875 3.44492 5.01932 
1.81595 3.68589 -0.385124 
