ply
format ascii 1.0
element vertex 1848
property float x
property float y
property float z
end_header
-0.447577 2.18284 3.42358 
-0.579929 2.17362 3.5642 
-0.67856 2.17244 3.62041 
-0.811833 2.2087 3.37355 
-0.908644 2.1743 3.71236 
-1.03485 2.19267 3.61473 
-1.13745 2.20351 3.57031 
-1.25932 2.21979 3.48853 
-1.36392 2.23519 3.40624 
-1.59309 2.2523 3.36759 
-1.71668 2.25606 3.39348 
-1.81586 2.24913 3.49901 
-1.94738 2.27689 3.32389 
-2.0472 2.28568 3.29564 
-2.17689 2.29734 3.25696 
-2.28093 2.31763 3.1327 
-2.5138 2.35663 2.90918 
-2.64255 2.36665 2.88402 
-2.75126 2.40615 2.59803 
-2.87439 2.40511 2.66462 
-2.97935 2.40616 2.70493 
-3.10894 2.43291 2.5375 
-3.21055 2.43706 2.54973 
-3.33721 2.43967 2.58681 
-3.44392 2.47713 2.3173 
-3.57327 2.48095 2.34539 
-3.68107 2.51883 2.07283 
-3.81186 2.52272 2.101 
-3.90567 2.50805 2.27012 
-4.03958 2.52529 2.18584 
-4.13624 2.52453 2.23768 
-4.26776 2.52949 2.25708 
-4.35135 2.47219 2.78509 
-4.48211 2.48645 2.72474 
-4.57857 2.47634 2.85625 
-4.70028 2.46156 3.03944 
-4.79119 2.44078 3.2594 
-4.92014 2.45216 3.22278 
-5.01093 2.42878 3.46486 
-5.13735 2.43748 3.44999 
-5.21923 2.39135 3.88194 
-5.34434 2.39819 3.88231 
-5.43359 2.37593 4.11411 
-5.55619 2.37642 4.16745 
-5.65252 2.37215 4.2491 
-5.77547 2.37115 4.31537 
-6.07562 2.33381 4.77486 
-6.20139 2.34234 4.76115 
-6.29907 2.34373 4.79516 
-6.41776 2.33536 4.92235 
-6.51387 2.3334 4.98417 
-6.63855 2.33859 4.99846 
-6.73148 2.32993 5.11607 
-6.95013 2.3315 5.20535 
1.06561 2.66616 -1.07997 
0.950778 2.61899 -0.625063 
0.821684 2.59944 -0.398529 
0.71716 2.64112 -0.70423 
0.587946 2.64096 -0.642548 
0.108776 2.2926 2.54451 
0.00477473 2.21508 3.25244 
-0.121594 2.19887 3.44946 
-0.220571 2.20134 3.47466 
-0.348528 2.20671 3.48875 
-0.446571 2.20585 3.54198 
-0.679672 2.20861 3.62745 
-0.806957 2.22769 3.5246 
-0.907524 2.20896 3.73097 
-1.03275 2.22892 3.61978 
-1.13403 2.24196 3.55621 
-1.25648 2.24217 3.61165 
-1.36228 2.26651 3.45407 
-1.59207 2.28952 3.36578 
-1.71865 2.30754 3.27176 
-1.8146 2.29233 3.44598 
-1.94822 2.32793 3.20564 
-2.04719 2.3376 3.16973 
-2.18025 2.35496 3.08426 
-2.27758 2.35067 3.16626 
-2.50809 2.36204 3.17747 
-2.63962 2.39508 2.95791 
-2.74261 2.41175 2.86432 
-2.87058 2.43678 2.71121 
-2.97471 2.43908 2.74043 
-3.10528 2.46888 2.548 
-3.2125 2.49277 2.39494 
-3.33987 2.50281 2.36917 
-3.44293 2.51606 2.30466 
-3.57357 2.53404 2.21289 
-3.67959 2.56889 1.96606 
-3.80858 2.56366 2.0709 
-3.90587 2.54798 2.24987 
-4.04306 2.57728 2.06486 
-4.13349 2.55341 2.31024 
-4.26264 2.55507 2.35666 
-4.35717 2.53201 2.59706 
-4.48164 2.5257 2.70904 
-4.57311 2.50224 2.95146 
-4.70105 2.50521 2.98618 
-4.79553 2.49647 3.10476 
-4.92351 2.50169 3.12032 
-5.00581 2.46014 3.51239 
-5.12909 2.45436 3.61928 
-5.22439 2.44481 3.74521 
-5.3467 2.44168 3.82913 
-5.43398 2.41807 4.07096 
-5.556 2.41406 4.16227 
-5.64996 2.4082 4.25615 
-5.76885 2.39633 4.41288 
-5.86603 2.39607 4.46064 
-5.97818 2.37422 4.69909 
-6.07172 2.36648 4.80887 
-6.19576 2.36824 4.85203 
-6.29055 2.36517 4.92257 
-6.41823 2.37496 4.89914 
-6.5168 2.37856 4.91476 
-6.64104 2.38294 4.93578 
-6.72672 2.36021 5.16936 
-6.95274 2.37542 5.14597 
0.959372 2.69612 -0.95953 
0.830189 2.60363 -0.114707 
0.717241 2.66218 -0.558724 
-0.118522 2.25578 3.27865 
-0.222075 2.23135 3.53428 
-0.348018 2.25417 3.39945 
-0.447072 2.25289 3.4565 
-0.676283 2.23993 3.67344 
-0.801262 2.24595 3.68074 
-0.905163 2.24911 3.70239 
-1.03103 2.26868 3.59514 
-1.13197 2.28139 3.53444 
-1.25595 2.29858 3.44644 
-1.36181 2.29744 3.50554 
-1.58929 2.31867 3.43168 
-1.71305 2.32996 3.39366 
-1.81402 2.33291 3.41582 
-1.9407 2.33972 3.41721 
-2.046 2.36158 3.28093 
-2.1776 2.39201 3.08424 
-2.27784 2.39175 3.13321 
-2.51155 2.43181 2.90253 
-2.63566 2.42363 3.02988 
-2.74156 2.45646 2.80082 
-2.87038 2.47636 2.69221 
-2.97924 2.50262 2.52029 
-3.10297 2.51106 2.50644 
-3.20728 2.51118 2.55421 
-3.33825 2.54073 2.36469 
-3.44092 2.54778 2.35288 
-3.57256 2.56234 2.29085 
-3.67731 2.59928 2.02638 
-3.80402 2.58314 2.22258 
-3.90571 2.5884 2.22542 
-4.03435 2.59583 2.22258 
-4.13145 2.57991 2.40307 
-4.26412 2.597 2.32001 
-4.35693 2.57704 2.53279 
-4.48322 2.5777 2.58626 
-4.57363 2.54491 2.90678 
-4.69252 2.52536 3.12827 
-4.78775 2.51872 3.22909 
-4.91229 2.51101 3.35282 
-4.99273 2.47335 3.70994 
-5.1282 2.49447 3.59414 
-5.22035 2.47491 3.80318 
-5.33307 2.45109 4.05805 
-5.42661 2.44145 4.18362 
-5.55178 2.44501 4.21198 
-5.64035 2.42606 4.41421 
-5.77584 2.45258 4.25261 
-5.97714 2.40915 4.71536 
-6.07557 2.41624 4.70128 
-6.19716 2.41229 4.79172 
-6.29002 2.40532 4.89428 
-6.4186 2.4161 4.86298 
-6.50822 2.40147 5.0291 
-6.63888 2.41798 4.95022 
-6.72725 2.40252 5.12282 
-6.94968 2.40986 5.16465 
1.07236 2.75938 -1.22345 
0.959327 2.67892 -0.490065 
0.826403 2.66717 -0.328827 
0.719968 2.68349 -0.417367 
0.113573 2.34169 2.75686 
0.00896998 2.29316 3.21622 
-0.118103 2.27977 3.38864 
-0.217555 2.2755 3.47112 
-0.344893 2.28516 3.44872 
-0.674329 2.27739 3.66794 
-0.800045 2.27608 3.73758 
-0.9042 2.2897 3.67089 
-1.02968 2.30923 3.56415 
-1.12927 2.32024 3.51738 
-1.25398 2.33088 3.48552 
-1.36014 2.3386 3.46967 
-1.58591 2.36066 3.38824 
-1.71167 2.36279 3.42892 
-1.81274 2.37102 3.40637 
-1.94299 2.38665 3.33483 
-2.04114 2.38097 3.42865 
-2.17097 2.40193 3.31189 
-2.27602 2.42832 3.13757 
-2.50823 2.46802 2.90996 
-2.63312 2.45867 3.04727 
-2.74035 2.49949 2.7519 
-2.8668 2.51922 2.64398 
-2.97961 2.54759 2.45647 
-3.10325 2.55606 2.44253 
-3.20623 2.55044 2.53808 
-3.33789 2.59005 2.26439 
-3.44192 2.60316 2.20194 
-3.57046 2.60695 2.22988 
-3.67967 2.64703 1.94165 
-3.80685 2.63617 2.09297 
-3.90489 2.62894 2.19983 
-4.03404 2.63062 2.24592 
-4.12874 2.61263 2.4424 
-4.26189 2.63119 2.34747 
-4.35944 2.627 2.42847 
-4.48203 2.60915 2.63669 
-4.56974 2.58001 2.92425 
-4.69764 2.58105 2.97517 
-4.78993 2.56605 3.14518 
-4.91796 2.57074 3.16531 
-5.00007 2.5278 3.56699 
-5.1232 2.52204 3.67324 
-5.20868 2.49121 3.97412 
-5.33504 2.49612 3.99155 
-5.43026 2.49145 4.07555 
-5.55283 2.48749 4.16636 
-5.64067 2.46699 4.38087 
-5.7738 2.49092 4.24055 
-6.06761 2.43898 4.8174 
-6.19106 2.44019 4.86487 
-6.29441 2.45496 4.78821 
-6.4133 2.4451 4.92717 
-6.50331 2.43222 5.07829 
-6.63693 2.45432 4.95369 
-6.73019 2.44633 5.06492 
-6.95303 2.45449 5.10006 
1.07053 2.77001 -0.988539 
0.964177 2.75399 -0.803969 
0.827512 2.72307 -0.479532 
0.0102459 2.32504 3.25902 
-0.1171 2.3056 3.48224 
-0.214358 2.29466 3.61979 
-0.344991 2.31779 3.48541 
-0.579118 2.34016 3.40554 
-0.672705 2.31457 3.66505 
-0.797495 2.31173 3.74702 
-0.898883 2.31605 3.75777 
-1.02787 2.33677 3.64292 
-1.12844 2.36176 3.47883 
-1.25172 2.3522 3.61691 
-1.35681 2.36542 3.55424 
-1.47657 2.36627 3.60277 
-1.58617 2.39575 3.40501 
-1.70872 2.39223 3.49182 
-1.81597 2.42913 3.23031 
-1.9396 2.41687 3.39132 
-2.03903 2.43825 3.25716 
-2.1746 2.4626 3.11482 
-2.2743 2.4767 3.04221 
-2.63529 2.52011 2.84397 
-2.74153 2.53828 2.74016 
-2.86875 2.5723 2.5123 
-2.97659 2.58795 2.43046 
-3.09954 2.58966 2.47327 
-3.20783 2.6086 2.36389 
-3.33338 2.61144 2.39841 
-3.44413 2.65311 2.09829 
-3.5706 2.64973 2.1857 
-3.67332 2.66735 2.08487 
-3.80226 2.67255 2.10106 
-3.90336 2.66742 2.19148 
-4.03922 2.6945 2.02626 
-4.11863 2.61894 2.70096 
-4.26568 2.69117 2.15991 
-4.34157 2.6142 2.84487 
-4.47529 2.63884 2.6992 
-4.57626 2.63652 2.76585 
-4.68983 2.6022 3.10848 
-4.79258 2.61243 3.07002 
-4.90932 2.59018 3.31223 
-5.12328 2.56443 3.6293 
-5.21377 2.54437 3.84086 
-5.32633 2.51775 4.11799 
-5.42351 2.51509 4.18572 
-5.54602 2.51426 4.2499 
-5.64323 2.51327 4.30357 
-5.76976 2.52165 4.29188 
-5.97727 2.49376 4.62411 
-6.06642 2.47514 4.82281 
-6.19577 2.48888 4.76724 
-6.29309 2.49186 4.78752 
-6.41479 2.4899 4.8608 
-6.50986 2.48469 4.94913 
-6.63595 2.49182 4.94783 
-6.72515 2.47712 5.11351 
-6.9455 2.47999 5.19219 
1.07354 2.82264 -1.11066 
0.957936 2.7286 -0.265614 
0.828586 2.75609 -0.436928 
0.11735 2.428 2.65429 
-0.114055 2.37501 3.20768 
-0.214148 2.35492 3.42325 
-0.342379 2.34836 3.538 
-0.67073 2.35581 3.62781 
-0.799043 2.35681 3.67896 
-0.895216 2.35953 3.70075 
-1.02326 2.36421 3.72082 
-1.1293 2.39932 3.4746 
-1.2512 2.40133 3.51435 
-1.35739 2.42367 3.37565 
-1.58404 2.43188 3.4119 
-1.70127 2.40313 3.70829 
-1.81033 2.44997 3.36481 
-1.93921 2.45897 3.34897 
-2.03757 2.47032 3.29914 
-2.16804 2.47761 3.29841 
-2.27537 2.52047 2.9876 
-2.49919 2.50819 3.19501 
-2.63032 2.53871 2.99902 
-2.74447 2.60409 2.50185 
-2.86513 2.582 2.74383 
-2.97229 2.61442 2.5208 
-3.10061 2.63257 2.42772 
-3.20434 2.64804 2.34573 
-3.33464 2.66425 2.26994 
-3.43558 2.66306 2.32684 
-3.57366 2.69802 2.09686 
-3.67501 2.70855 2.05533 
-3.80085 2.70676 2.12893 
-3.90146 2.7068 2.17541 
-4.03069 2.71442 2.17139 
-4.1228 2.68042 2.50043 
-4.25234 2.69201 2.46312 
-4.34372 2.66609 2.72384 
-4.47602 2.6776 2.6885 
-4.56167 2.64023 3.04296 
-4.68894 2.64012 3.10306 
-4.78388 2.62943 3.23726 
-4.91579 2.65147 3.11317 
-5.00222 2.61276 3.47925 
-5.11411 2.58231 3.78765 
-5.21063 2.578 3.86886 
-5.33388 2.57277 3.97025 
-5.42349 2.55715 4.14341 
-5.55324 2.5702 4.09398 
-5.64373 2.55504 4.26378 
-5.76861 2.55649 4.30969 
-6.06412 2.51311 4.8125 
-6.19157 2.52024 4.81185 
-6.28914 2.52333 4.83129 
-6.41465 2.52989 4.83457 
-6.51086 2.52709 4.90296 
-6.63428 2.53026 4.9338 
-6.72426 2.51714 5.08621 
-6.95004 2.527 5.10839 
1.07227 2.83132 -0.861132 
0.97014 2.85455 -1.00883 
0.828017 2.77473 -0.27303 
0.0130942 2.38414 3.38302 
-0.112941 2.40339 3.27986 
-0.21349 2.38289 3.49855 
-0.34215 2.39722 3.43794 
-0.568598 2.40313 3.49333 
-0.666309 2.38891 3.658 
-0.797956 2.40067 3.62031 
-0.894485 2.39195 3.73824 
-1.0234 2.40557 3.68374 
-1.12509 2.42631 3.55683 
-1.24776 2.42908 3.59044 
-1.3544 2.45567 3.41673 
-1.58176 2.47147 3.38959 
-1.70635 2.47411 3.42526 
-1.80936 2.4918 3.32455 
-1.9356 2.49334 3.37017 
-2.03418 2.50861 3.28774 
-2.16913 2.52502 3.21258 
-2.26842 2.52812 3.2327 
-2.50273 2.57423 2.95434 
-2.6273 2.57122 3.03745 
-2.74013 2.62734 2.61873 
-2.86508 2.6294 2.65941 
-2.96951 2.64691 2.56092 
-3.09639 2.66386 2.47753 
-3.2027 2.68456 2.35314 
-3.32987 2.68418 2.41532 
-3.43846 2.71941 2.17004 
-3.56557 2.71617 2.25624 
-3.67517 2.75573 1.97506 
-3.80189 2.76269 1.97546 
-3.89482 2.72911 2.30052 
-4.02561 2.74003 2.26962 
-4.13028 2.75399 2.20103 
-4.25323 2.73646 2.40535 
-4.34988 2.72527 2.54412 
-4.47584 2.72094 2.639 
-4.5617 2.68187 3.00687 
-4.69246 2.69706 2.94011 
-4.79318 2.69716 2.98612 
-4.9201 2.70425 2.98556 
-4.99942 2.6496 3.48125 
-5.12415 2.65119 3.52586 
-5.211 2.61991 3.8288 
-5.3317 2.6103 3.96559 
-5.42849 2.60956 4.01682 
-5.54569 2.5931 4.20953 
-5.63726 2.58269 4.33951 
-5.76067 2.5794 4.42448 
-6.06591 2.55784 4.74746 
-6.19133 2.56008 4.78694 
-6.28957 2.56512 4.79031 
-6.41374 2.56773 4.82614 
-6.51254 2.57036 4.85003 
-6.63252 2.56727 4.93179 
-6.71982 2.54643 5.14744 
-6.94278 2.55481 5.18075 
1.07032 2.85005 -0.696808 
0.968481 2.87358 -0.846678 
0.731104 2.85807 -0.607044 
0.121132 2.49485 2.71575 
-0.111449 2.43092 3.35857 
-0.211985 2.40664 3.60838 
-0.342221 2.42956 3.47684 
-0.440339 2.44417 3.39991 
-0.567595 2.43942 3.4986 
-0.666671 2.43724 3.56274 
-0.797901 2.44326 3.57311 
-0.891695 2.42294 3.78664 
-1.02092 2.4543 3.58389 
-1.1241 2.46503 3.54188 
-1.24686 2.46917 3.56408 
-1.35163 2.49483 3.3978 
-1.57985 2.49579 3.49542 
-1.70222 2.50265 3.49473 
-1.80689 2.53074 3.30802 
-1.93699 2.54881 3.21696 
-2.03518 2.54627 3.28377 
-2.16687 2.56949 3.15035 
-2.26709 2.57024 3.19049 
-2.50034 2.60934 2.97126 
-2.62773 2.6183 2.95526 
-2.73354 2.64706 2.7635 
-2.86285 2.67757 2.56803 
-2.97204 2.69558 2.46778 
-3.09516 2.71006 2.40363 
-3.20042 2.71683 2.3958 
-3.33116 2.73338 2.31781 
-3.43488 2.7548 2.18654 
-3.56441 2.76151 2.19042 
-3.66807 2.78326 2.05636 
-3.79638 2.78372 2.112 
-3.90457 2.80587 1.9767 
-4.03062 2.80446 2.04702 
-4.12043 2.75884 2.47058 
-4.24638 2.7611 2.51005 
-4.34723 2.76169 2.55192 
-4.46739 2.74007 2.78868 
-4.55692 2.70922 3.08856 
-4.68915 2.73293 2.9513 
-4.78773 2.72906 3.02945 
-4.91134 2.71859 3.17452 
-4.99529 2.68084 3.52957 
-5.12088 2.68215 3.57683 
-5.22086 2.68553 3.59497 
-5.32338 2.63477 4.06752 
-5.4282 2.64994 3.98918 
-5.55706 2.66085 3.95766 
-5.63412 2.61388 4.38665 
-5.76788 2.63907 4.23783 
-6.0594 2.58325 4.8406 
-6.19086 2.59913 4.76871 
-6.28728 2.60036 4.80318 
-6.41166 2.60456 4.82572 
-6.50199 2.58841 5.0029 
-6.63014 2.60115 4.95578 
-6.72001 2.58762 5.11085 
-6.94329 2.5941 5.16025 
0.973649 2.93234 -1.02024 
0.833679 2.84069 -0.190385 
0.0188452 2.49125 3.1036 
-0.109782 2.4836 3.2269 
-0.207093 2.44477 3.59605 
-0.338592 2.45951 3.53378 
-0.665576 2.47738 3.53571 
-0.794124 2.48768 3.5091 
-0.891133 2.46587 3.73605 
-1.02062 2.48264 3.65588 
-1.12428 2.49318 3.61585 
-1.24407 2.50176 3.59954 
-1.35001 2.53423 3.37747 
-1.57872 2.53629 3.46597 
-1.70152 2.54009 3.49107 
-1.80372 2.55466 3.41664 
-1.93426 2.58729 3.20456 
-2.03526 2.59145 3.2166 
-2.16475 2.59393 3.25577 
-2.26229 2.60221 3.23178 
-2.62652 2.6551 2.95858 
-2.7381 2.69216 2.70077 
-2.85814 2.69663 2.71903 
-2.97112 2.74626 2.35681 
-3.09982 2.76482 2.26141 
-3.2075 2.79641 2.04747 
-3.33284 2.78919 2.16575 
-3.4311 2.77902 2.29616 
-3.56548 2.80649 2.129 
-3.671 2.83389 1.94898 
-3.79489 2.8192 2.12903 
-3.89378 2.80899 2.26012 
-4.02096 2.81076 2.30415 
-4.12296 2.81453 2.31991 
-4.2443 2.79173 2.56655 
-4.3418 2.78358 2.67968 
-4.47316 2.8048 2.56334 
-4.56163 2.76083 2.97151 
-4.68591 2.76097 3.02786 
-4.78651 2.76637 3.02941 
-4.91585 2.77689 3.00148 
-4.99555 2.71902 3.52168 
-5.11219 2.70421 3.69938 
-5.19936 2.67254 4.00423 
-5.33952 2.70844 3.76935 
-5.40454 2.63496 4.41313 
-5.55159 2.69005 4.02128 
-5.63891 2.66508 4.27025 
-5.75455 2.64654 4.4787 
-6.05976 2.62332 4.81405 
-6.18894 2.63541 4.77296 
-6.2825 2.63013 4.8605 
-6.41841 2.65979 4.67577 
-6.50478 2.63597 4.91472 
-6.63057 2.6428 4.91605 
-6.71974 2.62757 5.08459 
-6.94286 2.63528 5.12365 
1.07591 2.94649 -0.866067 
0.974937 2.96316 -0.958348 
0.837891 2.89068 -0.291636 
-0.105885 2.48086 3.55637 
-0.207492 2.48761 3.54704 
-0.336032 2.50029 3.50077 
-0.432747 2.50082 3.54093 
-0.564338 2.51542 3.48007 
-0.665258 2.50861 3.58343 
-0.792571 2.52684 3.49033 
-0.889134 2.49638 3.78859 
-1.01925 2.52694 3.59414 
-1.11705 2.52857 3.6257 
-1.24147 2.53367 3.64063 
-1.34833 2.54561 3.59054 
-1.5771 2.58776 3.34517 
-1.70142 2.58793 3.40118 
-1.80435 2.59743 3.3696 
-1.93409 2.62493 3.20046 
-2.03138 2.61852 3.29875 
-2.16461 2.64313 3.15537 
-2.25872 2.62789 3.3257 
-2.6253 2.70076 2.88814 
-2.73724 2.74004 2.61275 
-2.85986 2.75435 2.55019 
-2.97143 2.78636 2.33516 
-3.0963 2.79116 2.35292 
-3.19708 2.77901 2.50064 
-3.32881 2.81602 2.25327 
-3.43331 2.83142 2.17334 
-3.56685 2.86104 1.98837 
-3.66966 2.88001 1.87781 
-3.7961 2.86234 2.08346 
-3.89459 2.85503 2.18988 
-4.02787 2.88132 2.03248 
-4.12042 2.8466 2.36445 
-4.2461 2.84091 2.46994 
-4.3424 2.82527 2.64469 
-4.46757 2.82468 2.70754 
-4.56336 2.80975 2.87617 
-4.693 2.8193 2.85657 
-4.77639 2.77965 3.22536 
-4.90944 2.8032 3.0908 
-4.99376 2.75578 3.52473 
-5.11135 2.74158 3.69744 
-5.20439 2.72872 3.84756 
-5.32348 2.7157 4.0111 
-5.43729 2.75228 3.75905 
-5.54668 2.71679 4.10525 
-5.62766 2.68096 4.4412 
-5.76088 2.70251 4.32339 
-5.96781 2.67394 4.65707 
-6.05992 2.66196 4.79948 
-6.19084 2.68052 4.70552 
-6.28007 2.66667 4.86215 
-6.41073 2.68297 4.78692 
-6.50654 2.67705 4.88053 
-6.63384 2.69097 4.82357 
-6.72349 2.67444 5.00277 
-6.94663 2.68108 5.0508 
1.08314 3.00208 -1.01334 
0.975723 3.00582 -0.994947 
0.836664 2.94514 -0.42697 
0.729502 2.97386 -0.616193 
0.606863 2.97685 -0.584533 
0.0196007 2.54477 3.27457 
-0.103426 2.53687 3.39683 
-0.205573 2.5368 3.44449 
-0.334165 2.54166 3.46334 
-0.562867 2.57189 3.31759 
-0.662022 2.54061 3.62314 
-0.789875 2.5659 3.47199 
-0.888736 2.53717 3.75614 
-1.01718 2.56003 3.62547 
-1.11956 2.57499 3.54843 
-1.24059 2.57094 3.63783 
-1.34518 2.59318 3.50127 
-1.57342 2.59579 3.58486 
-1.69948 2.61622 3.4733 
-1.80203 2.63363 3.37595 
-1.9281 2.62823 3.47888 
-2.03088 2.66527 3.21864 
-2.16319 2.67278 3.21725 
-2.26099 2.6815 3.18994 
-2.62613 2.7447 2.83336 
-2.73293 2.77346 2.64372 
-2.85616 2.78817 2.5784 
-2.96806 2.81644 2.39511 
-3.09255 2.82204 2.40606 
-3.19895 2.84086 2.29882 
-3.32509 2.84401 2.33088 
-3.42927 2.8762 2.11153 
-3.5609 2.88507 2.09858 
-3.66383 2.89774 2.04079 
-3.79869 2.91556 1.95502 
-3.89533 2.89753 2.14936 
-4.02363 2.90401 2.15476 
-4.11619 2.87439 2.44354 
-4.24617 2.88571 2.40948 
-4.33605 2.84763 2.76735 
-4.46756 2.86293 2.7009 
-4.56932 2.87341 2.66087 
-4.68792 2.84663 2.9381 
-4.78266 2.83623 3.06818 
-4.89722 2.81001 3.33894 
-4.98877 2.79031 3.54487 
-5.11405 2.78643 3.63495 
-5.20229 2.76276 3.87237 
-5.32086 2.75192 4.01719 
-5.41118 2.73205 4.22397 
-5.53665 2.73575 4.2512 
-5.63407 2.73735 4.28293 
-5.76465 2.75 4.23816 
-5.96778 2.71413 4.63001 
-6.06664 2.71966 4.62969 
-6.18532 2.70833 4.77874 
-6.28071 2.70663 4.83693 
-6.4134 2.72741 4.72562 
-6.502 2.70986 4.91237 
-6.62642 2.71525 4.92509 
-6.72373 2.71466 4.97496 
-6.93998 2.70895 5.12242 
1.08364 3.03721 -0.987168 
0.98404 3.07218 -1.23111 
0.836082 2.98145 -0.411557 
0.735015 3.01252 -0.622453 
0.605487 2.97907 -0.285804 
0.0225902 2.60384 3.09051 
-0.101299 2.58379 3.31359 
-0.202639 2.56805 3.49063 
-0.332084 2.59612 3.3176 
-0.431349 2.58333 3.46919 
-0.659876 2.57803 3.61823 
-0.790377 2.60692 3.43899 
-0.885555 2.57701 3.73052 
-1.01522 2.59176 3.668 
-1.11588 2.61071 3.55729 
-1.24215 2.61916 3.54542 
-1.3452 2.61967 3.58863 
-1.57279 2.64556 3.47887 
-1.69562 2.64787 3.51627 
-1.79991 2.66999 3.38107 
-1.92839 2.68663 3.3023 
-2.03064 2.70398 3.20566 
-2.16141 2.70949 3.22021 
-2.26479 2.7457 2.96778 
-2.49694 2.77686 2.81659 
-2.62344 2.78412 2.81464 
-2.73097 2.81687 2.59288 
-2.85451 2.82699 2.56588 
-2.96551 2.86153 2.33082 
-3.09111 2.85758 2.42142 
-3.19794 2.88245 2.26463 
-3.32607 2.88831 2.2751 
-3.42664 2.90916 2.14866 
-3.55698 2.91448 2.16463 
-3.66279 2.93638 2.03193 
-3.79243 2.93996 2.06197 
-3.8948 2.95048 2.02196 
-4.01946 2.9308 2.24246 
-4.12105 2.94085 2.20604 
-4.23766 2.89166 2.66733 
-4.33808 2.89697 2.66964 
-4.46962 2.90753 2.6427 
-4.57303 2.93024 2.50223 
-4.68195 2.87271 3.02915 
-4.7747 2.85794 3.19422 
-4.90863 2.88133 3.06219 
-4.99226 2.8398 3.44486 
-5.10472 2.80245 3.80616 
-5.20506 2.81079 3.78336 
-5.31778 2.78098 4.0823 
-5.41067 2.77186 4.20077 
-5.54827 2.80744 3.96938 
-5.63449 2.77786 4.25428 
-5.75753 2.77605 4.32598 
-5.9728 2.76463 4.51996 
-6.06024 2.7448 4.72457 
-6.1889 2.75673 4.68508 
-6.2788 2.74329 4.83793 
-6.40753 2.75605 4.79166 
-6.503 2.75255 4.86473 
-6.63457 2.77248 4.76027 
-6.71296 2.73399 5.11542 
-6.93917 2.74859 5.09885 
1.31604 3.03569 -0.764748 
1.08813 3.08203 -1.04302 
0.98001 3.06574 -0.858826 
0.83771 3.00889 -0.323831 
0.253472 2.6788 2.67154 
0.0241266 2.62961 3.18326 
-0.101287 2.61223 3.38446 
-0.200321 2.59414 3.57943 
-0.329327 2.60862 3.51904 
-0.429851 2.60914 3.56091 
-0.557869 2.62197 3.51372 
-0.658241 2.61187 3.64327 
-0.787401 2.63912 3.47737 
-0.884718 2.62415 3.64578 
-1.01278 2.62336 3.71115 
-1.11532 2.63295 3.67902 
-1.23605 2.62809 3.77466 
-1.34203 2.66823 3.49168 
-1.57131 2.69134 3.40605 
-1.69441 2.68859 3.48542 
-1.79854 2.71073 3.35026 
-1.92683 2.72037 3.32957 
-2.03079 2.7504 3.12923 
-2.15768 2.74935 3.19623 
-2.25957 2.75987 3.15619 
-2.49593 2.81303 2.82551 
-2.62016 2.80783 2.92567 
-2.72742 2.85061 2.62146 
-2.85538 2.87004 2.51974 
-2.95966 2.87337 2.54018 
-3.09084 2.90218 2.36238 
-3.1975 2.93031 2.17904 
-3.32441 2.9319 2.22421 
-3.43158 2.96437 2.00521 
-3.5585 2.96141 2.08801 
-3.66128 2.97239 2.04461 
-3.79456 2.99667 1.90523 
-3.88851 2.97089 2.1615 
-4.01607 2.97261 2.20596 
-4.11229 2.95146 2.42501 
-4.2403 2.94746 2.51702 
-4.33864 2.94321 2.59736 
-4.46087 2.93471 2.72381 
-4.55805 2.92505 2.84838 
-4.69237 2.94256 2.7655 
-4.78149 2.92035 2.99007 
-4.90805 2.92043 3.04769 
-4.98136 2.84903 3.67147 
-5.11454 2.86937 3.56472 
-5.17663 2.7818 4.31699 
-5.31311 2.81387 4.11482 
-5.41126 2.81571 4.14479 
-5.54019 2.8273 4.10835 
-5.63745 2.82543 4.16857 
-5.75628 2.81591 4.30199 
-5.9686 2.7958 4.566 
-6.05597 2.77659 4.76503 
-6.18177 2.78081 4.78805 
-6.28328 2.794 4.72584 
-6.4118 2.80605 4.68549 
-6.50256 2.79169 4.84597 
-6.62939 2.80136 4.82445 
-6.71377 2.77487 5.08228 
-6.94103 2.79192 5.04609 
1.09128 3.12636 -1.09394 
0.985087 3.10685 -0.884525 
0.842285 3.03624 -0.237272 
0.610416 3.10703 -0.714375 
0.260783 2.77492 2.1827 
0.0259735 2.67071 3.14909 
-0.0984664 2.65428 3.34155 
-0.197924 2.62703 3.61173 
-0.328342 2.63311 3.62144 
-0.42799 2.63518 3.65004 
-0.554072 2.63922 3.67462 
-0.657326 2.6569 3.57621 
-0.784325 2.67561 3.48027 
-0.885766 2.66134 3.64442 
-1.01097 2.6601 3.71204 
-1.11286 2.67919 3.60149 
-1.23411 2.66908 3.74043 
-1.34177 2.69652 3.56366 
-1.56858 2.71603 3.50692 
-1.68995 2.71835 3.54353 
-1.79766 2.75181 3.31719 
-1.92289 2.75605 3.33968 
-2.02899 2.78742 3.12981 
-2.15589 2.7855 3.20392 
-2.25607 2.79417 3.17842 
-2.49258 2.84 2.90924 
-2.61894 2.84986 2.88602 
-2.73148 2.91512 2.39979 
-2.85427 2.9126 2.47695 
-2.96465 2.94503 2.26029 
-3.09054 2.96024 2.19276 
-3.19593 2.97168 2.14687 
-3.32068 2.96784 2.23583 
-3.43092 2.9969 2.04693 
-3.55765 3.00282 2.05631 
-3.65722 3.00309 2.09979 
-3.79277 3.02521 1.97974 
-3.89064 3.02553 2.02206 
-4.02074 3.0399 1.96339 
-4.10643 2.96875 2.58922 
-4.24194 3.00137 2.38257 
-4.33245 2.96398 2.73232 
-4.46137 2.97871 2.67018 
-4.55941 2.97117 2.77736 
-4.68868 2.97817 2.77907 
-4.77842 2.95444 3.01587 
-4.90036 2.93962 3.19408 
-4.98688 2.90676 3.50471 
-5.11163 2.90128 3.6072 
-5.20139 2.88412 3.78996 
-5.31365 2.85717 4.0637 
-5.41473 2.8651 4.04477 
-5.53968 2.86823 4.07647 
-5.63009 2.85051 4.26405 
-5.75465 2.85475 4.28641 
-5.96679 2.83076 4.5817 
-6.05782 2.82249 4.69176 
-6.18719 2.83342 4.66112 
-6.28168 2.8314 4.72125 
-6.40673 2.83227 4.77163 
-6.49745 2.82337 4.88674 
-6.62117 2.82199 4.95496 
-6.71584 2.81967 5.01766 
-6.93797 2.82644 5.06408 
1.08648 3.11505 -0.68361 
0.98375 3.11618 -0.645929 
0.842119 3.07826 -0.269518 
0.74107 3.08093 -0.245235 
0.609991 3.10553 -0.387467 
0.0263722 2.66616 3.49103 
-0.0945079 2.71109 3.17705 
-0.19623 2.6751 3.51944 
-0.326598 2.69518 3.4141 
-0.426414 2.68213 3.56708 
-0.553106 2.67985 3.64382 
-0.655126 2.69378 3.57595 
-0.782934 2.70191 3.56771 
-0.884 2.69499 3.67087 
-1.00899 2.71113 3.59542 
-1.11058 2.71958 3.57247 
-1.23274 2.7164 3.65456 
-1.33999 2.74828 3.44167 
-1.56869 2.76535 3.40606 
-1.68705 2.75303 3.56156 
-1.79312 2.77871 3.3991 
-1.9197 2.78014 3.44533 
-2.02352 2.80085 3.32268 
-2.15341 2.81749 3.24542 
-2.25601 2.8356 3.14352 
-2.48542 2.8508 3.1237 
-2.61935 2.89858 2.79236 
-2.73007 2.94759 2.44021 
-2.84774 2.9258 2.67322 
-2.95892 2.96208 2.42598 
-3.08298 2.97294 2.3936 
-3.18521 2.96612 2.49651 
-3.31733 2.99176 2.34629 
-3.4269 3.0267 2.10935 
-3.5526 3.03066 2.13438 
-3.66064 3.05944 1.94734 
-3.79649 3.08245 1.8205 
-3.88511 3.04372 2.17948 
-4.0148 3.05605 2.13763 
-4.11356 3.03813 2.33027 
-4.23468 3.0204 2.53155 
-4.3304 3.00237 2.72372 
-4.45881 3.01623 2.66863 
-4.55245 2.99445 2.89069 
-4.68746 3.0239 2.71045 
-4.77664 2.98844 3.04291 
-4.9026 2.99197 3.07172 
-4.9877 2.94677 3.48233 
-5.10609 2.93286 3.651 
-5.20518 2.93372 3.68946 
-5.32311 2.91908 3.86395 
-5.42126 2.91958 3.9049 
-5.54046 2.90748 4.05912 
-5.62728 2.88383 4.29337 
-5.74918 2.88136 4.36969 
-5.96611 2.86993 4.56326 
-6.05602 2.85877 4.69626 
-6.18336 2.86601 4.69524 
-6.28265 2.87391 4.67584 
-6.40415 2.86834 4.77751 
-6.49502 2.85862 4.89914 
-6.62483 2.8717 4.85118 
-6.72438 2.87659 4.85678 
-6.93499 2.85895 5.0985 
1.09157 3.16984 -0.82176 
0.986067 3.19207 -0.955891 
0.842219 3.11934 -0.293923 
0.74249 3.14677 -0.473275 
0.60975 3.15181 -0.453924 
0.0290658 2.75071 3.09967 
-0.0958067 2.73618 3.27585 
-0.195059 2.71886 3.46325 
-0.323778 2.71796 3.52942 
-0.6537 2.72371 3.6331 
-0.782994 2.73452 3.60359 
-0.879364 2.73005 3.68426 
-1.00654 2.72961 3.74607 
-1.11019 2.75609 3.5764 
-1.23135 2.74905 3.68949 
-1.34152 2.79111 3.39504 
-1.56425 2.79976 3.42594 
-1.69189 2.80768 3.4194 
-1.79188 2.82633 3.31226 
-1.92266 2.83384 3.31047 
-2.02104 2.83285 3.36364 
-2.15103 2.86429 3.16535 
-2.25084 2.86761 3.18375 
-2.48515 2.90531 2.98187 
-2.61568 2.91587 2.95502 
-2.73101 2.97795 2.49879 
-2.84848 2.98122 2.52571 
-2.9617 3.0118 2.32683 
-3.08172 3.00821 2.41117 
-3.19702 3.0574 2.06061 
-3.32014 3.03964 2.26265 
-3.42395 3.07008 2.06058 
-3.55508 3.08994 1.95773 
-3.65687 3.08623 2.03479 
-3.7904 3.10687 1.92664 
-3.88223 3.07677 2.21552 
-4.01207 3.09245 2.14641 
-4.11306 3.08691 2.23807 
-4.23369 3.05726 2.53647 
-4.31602 3.0064 2.99119 
-4.46069 3.05796 2.63468 
-4.55253 3.0334 2.87809 
-4.68483 3.05422 2.76799 
-4.77723 3.03284 2.98568 
-4.90908 3.05764 2.84267 
-4.97708 2.9643 3.63926 
-5.0971 2.95338 3.78373 
-5.20167 2.96434 3.74184 
-5.32117 2.95781 3.8501 
-5.4174 2.95137 3.94707 
-5.5345 2.93413 4.14206 
-5.63199 2.93498 4.1798 
-5.758 2.94317 4.17038 
-6.05348 2.89227 4.72326 
-6.17704 2.89234 4.77934 
-6.27578 2.89952 4.7657 
-6.40728 2.91603 4.69063 
-6.49727 2.90203 4.84669 
-6.62361 2.91284 4.81602 
-6.72472 2.9171 4.82745 
-6.93842 2.90641 5.01319 
1.08524 3.17769 -0.570231 
0.986503 3.22392 -0.903211 
0.847571 3.17014 -0.40012 
0.742619 3.18324 -0.459361 
0.612312 3.19106 -0.463918 
0.0336827 2.78692 3.10476 
-0.193541 2.75232 3.49137 
-0.322845 2.77267 3.38396 
-0.421559 2.76507 3.49115 
-0.551733 2.77347 3.48192 
-0.652384 2.75748 3.6586 
-0.780577 2.77267 3.5929 
-0.878633 2.76281 3.71825 
-1.00577 2.77253 3.69683 
-1.10506 2.78704 3.62355 
-1.22784 2.77588 3.77087 
-1.33671 2.80805 3.55751 
-1.56166 2.82788 3.49808 
-1.68912 2.83825 3.47147 
-1.79083 2.86351 3.31131 
-1.92047 2.87739 3.25701 
-2.01888 2.88093 3.27308 
-2.1488 2.88435 3.30443 
-2.25287 2.91372 3.11178 
-2.4832 2.94257 2.9811 
-2.61483 2.96746 2.83762 
-2.7224 3.00533 2.57711 
-2.84828 3.02617 2.46422 
-2.956 3.05343 2.29045 
-3.08416 3.05959 2.29864 
-3.19151 3.0796 2.18406 
-3.31737 3.0785 2.25063 
-3.42355 3.10642 2.07077 
-3.5538 3.12809 1.95309 
-3.65683 3.12577 2.01919 
-3.78588 3.13182 2.02872 
-3.88745 3.14284 1.98502 
-4.01512 3.14102 2.05822 
-4.1054 3.10893 2.36197 
-4.23871 3.12313 2.30678 
-4.31603 3.04952 2.94421 
-4.45965 3.09717 2.62012 
-4.54856 3.06694 2.90803 
-4.67528 3.06688 2.96646 
-4.77433 3.07059 2.98147 
-4.90266 3.08031 2.96065 
-4.98223 3.01801 3.50661 
-5.09592 2.98413 3.83574 
-5.1952 2.99363 3.80346 
-5.31311 2.97595 4.00202 
-5.41245 2.98074 4.00828 
-5.54187 2.99505 3.95046 
-5.62661 2.96531 4.23251 
-5.75097 2.96343 4.30475 
-5.95707 2.93411 4.63895 
-6.05642 2.94006 4.63575 
-6.18706 2.95491 4.57413 
-6.27151 2.9289 4.82553 
-6.40061 2.94367 4.76384 
-6.50266 2.95545 4.71415 
-6.6248 2.95453 4.77762 
-6.727 2.96162 4.76646 
-6.94084 2.94992 4.96009 
1.0841 3.19609 -0.408287 
0.989284 3.27025 -0.969979 
0.85165 3.19556 -0.298164 
0.747618 3.20411 -0.320502 
0.0345357 2.81196 3.20261 
-0.191868 2.80044 3.39975 
-0.321233 2.7995 3.46636 
-0.550276 2.80199 3.55046 
-0.649022 2.80557 3.5662 
-0.777654 2.8005 3.66618 
-0.875814 2.80254 3.69432 
-1.00473 2.81336 3.66483 
-1.10624 2.82401 3.62424 
-1.22988 2.83205 3.61502 
-1.33524 2.84747 3.5373 
-1.5606 2.86559 3.49226 
-1.68918 2.8932 3.32566 
-1.7903 2.9058 3.269 
-1.91792 2.90189 3.3591 
-2.01597 2.9119 3.32217 
-2.14924 2.93855 3.16558 
-2.2471 2.93286 3.25659 
-2.61459 3.01386 2.76352 
-2.72359 3.03441 2.64562 
-2.84484 3.03852 2.66743 
-2.95415 3.0801 2.37814 
-3.081 3.08665 2.38256 
-3.18638 3.10741 2.26136 
-3.31857 3.12758 2.15707 
-3.42409 3.15295 1.99833 
-3.54898 3.14717 2.1025 
-3.65748 3.16655 1.99392 
-3.78555 3.17356 1.99521 
-3.88378 3.16949 2.07322 
-4.00961 3.16262 2.18666 
-4.10965 3.17044 2.16858 
-4.23534 3.15749 2.33158 
-4.3312 3.1384 2.53108 
-4.45861 3.13977 2.57805 
-4.55473 3.1266 2.72943 
-4.67735 3.11355 2.89189 
-4.78476 3.13725 2.74758 
-4.88628 3.07387 3.311 
-4.97712 3.04824 3.56156 
-5.08573 3.00642 3.95234 
-5.19505 3.03429 3.77494 
-5.31045 3.01265 4.00414 
-5.41182 3.01882 4.00017 
-5.52858 3.00455 4.16992 
-5.62616 3.00564 4.20564 
-5.76255 3.03465 4.03126 
-5.96232 2.9858 4.52106 
-6.05123 2.9692 4.69716 
-6.17654 2.97171 4.73398 
-6.27987 2.98824 4.64635 
-6.39541 2.97182 4.83314 
-6.49704 2.98296 4.78868 
-6.62481 2.99272 4.76751 
-6.7185 2.98563 4.86819 
-6.93558 2.97969 5.01591 
1.08444 3.25581 -0.584033 
0.988607 3.27113 -0.665104 
0.851026 3.21762 -0.167244 
0.745267 3.25074 -0.388593 
0.619736 3.26073 -0.412843 
0.0371137 2.86659 3.05853 
-0.1907 2.81713 3.56452 
-0.321508 2.83789 3.45519 
-0.418783 2.83161 3.55048 
-0.548324 2.85133 3.44904 
-0.648486 2.83699 3.61128 
-0.77685 2.84072 3.63933 
-0.873987 2.83642 3.71849 
-1.00204 2.84619 3.69734 
-1.10553 2.87264 3.52923 
-1.22654 2.87119 3.5961 
-1.33363 2.87188 3.63925 
-1.55923 2.90048 3.50924 
-1.68259 2.90758 3.50766 
-1.78776 2.9301 3.37234 
-1.9145 2.92683 3.45663 
-2.01417 2.94608 3.34541 
-2.14326 2.95807 3.30669 
-2.24786 2.98238 3.15654 
-2.48421 3.02613 2.90819 
-2.61243 3.04862 2.78361 
-2.72307 3.09729 2.43801 
-2.8438 3.07604 2.66591 
-2.94919 3.10934 2.44302 
-3.08595 3.16363 2.06363 
-3.18734 3.15335 2.19343 
-3.32031 3.1855 1.99247 
-3.42211 3.18994 2.00272 
-3.55037 3.20294 1.95537 
-3.65821 3.22663 1.81176 
-3.78298 3.21624 1.95314 
-3.88544 3.21459 2.0133 
-4.00871 3.19785 2.20571 
-4.1033 3.17451 2.43868 
-4.23013 3.18107 2.44313 
-4.32649 3.16834 2.59067 
-4.44934 3.14951 2.79985 
-4.55194 3.16399 2.72886 
-4.6752 3.15447 2.86249 
-4.77602 3.15787 2.88081 
-4.90202 3.1563 2.951 
-5.09609 3.0726 3.72061 
-5.18606 3.05284 3.92243 
-5.31922 3.07503 3.80261 
-5.4116 3.05914 3.97401 
-5.53912 3.06895 3.95239 
-5.62564 3.04497 4.18695 
-5.75466 3.05787 4.1409 
-6.05331 3.0146 4.62929 
-6.18962 3.03986 4.48589 
-6.27405 3.01558 4.722 
-6.39915 3.02139 4.73185 
-6.49242 3.01379 4.83628 
-6.62857 3.03959 4.6885 
-6.7131 3.01529 4.92487 
-6.93435 3.01881 4.99723 
0.991258 3.332 -0.85003 
0.852918 3.26727 -0.261976 
0.747837 3.29791 -0.462966 
0.618365 3.31318 -0.528101 
0.0388182 2.89677 3.11394 
-0.189338 2.86295 3.49202 
-0.32055 2.87408 3.46132 
-0.416526 2.87154 3.52558 
-0.547116 2.89079 3.42867 
-0.644507 2.86419 3.68875 
-0.772545 2.88092 3.61119 
-0.876268 2.88645 3.6134 
-1.00021 2.87567 3.75723 
-1.10142 2.89651 3.63409 
-1.22297 2.88781 3.76 
-1.33119 2.9118 3.61446 
-1.55909 2.94116 3.47985 
-1.68107 2.93382 3.5948 
-1.78669 2.97023 3.34734 
-1.9139 2.97849 3.33821 
-2.01454 2.99612 3.24089 
-2.14181 3.00235 3.24818 
-2.24888 3.03359 3.04336 
-2.48457 3.08788 2.70999 
-2.60905 3.07592 2.8636 
-2.72266 3.1386 2.40665 
-2.85106 3.17557 2.16502 
-2.95112 3.15958 2.34027 
-3.08187 3.18651 2.18123 
-3.18535 3.19616 2.14999 
-3.31529 3.20039 2.17478 
-3.41972 3.22326 2.03669 
-3.55126 3.24478 1.9219 
-3.65134 3.24066 2.00081 
-3.78007 3.24587 2.01713 
-3.87722 3.22677 2.21634 
-4.00436 3.2272 2.27073 
-4.10541 3.23093 2.28647 
-4.22325 3.18976 2.67421 
-4.32282 3.19898 2.64467 
-4.45713 3.21585 2.56891 
-4.56295 3.2393 2.42677 
-4.68102 3.20538 2.75584 
-4.77467 3.19541 2.87937 
-4.89218 3.17265 3.11762 
-5.09935 3.12204 3.62267 
-5.18811 3.09968 3.8446 
-5.31419 3.10662 3.84571 
-5.4016 3.07814 4.11668 
-5.54306 3.11759 3.86093 
-5.62248 3.07632 4.23207 
-5.75233 3.09326 4.1537 
-6.0468 3.04047 4.71635 
-6.17124 3.04074 4.77082 
-6.27391 3.05766 4.68028 
-6.39606 3.05423 4.76381 
-6.49334 3.05579 4.79552 
-6.61596 3.05598 4.84987 
-6.7124 3.05581 4.89516 
-6.93099 3.05184 5.02704 
0.992017 3.36606 -0.816162 
0.854627 3.29015 -0.139462 
0.751649 3.30698 -0.229041 
0.619083 3.33409 -0.388392 
0.265452 2.94264 2.94016 
0.0409362 2.9623 2.88285 
-0.188933 2.91225 3.3922 
-0.316835 2.93349 3.27831 
-0.5444 2.90681 3.59744 
-0.6407 2.90671 3.64197 
-0.771682 2.91042 3.67138 
-0.87186 2.92337 3.61201 
-0.999378 2.92612 3.64757 
-1.10151 2.93494 3.62254 
-1.2233 2.95052 3.55171 
-1.32899 2.96757 3.46163 
-1.44945 2.96348 3.54944 
-1.55666 2.9764 3.49351 
-1.68225 2.99267 3.41882 
-1.78247 3.00605 3.35598 
-1.91148 3.00134 3.45271 
-2.01338 3.02768 3.28575 
-2.14504 3.06791 3.01986 
-2.24678 3.07831 2.98191 
-2.61313 3.15188 2.55278 
-2.72127 3.17809 2.38968 
-2.84058 3.15019 2.66975 
-2.95018 3.20424 2.28201 
-3.08294 3.24547 2.00851 
-3.18871 3.25877 1.94893 
-3.31465 3.23393 2.20719 
-3.41956 3.2704 1.9596 
-3.55119 3.27857 1.95328 
-3.64696 3.27001 2.06609 
-3.77547 3.26833 2.13806 
-3.87578 3.26917 2.17682 
-4.00171 3.25997 2.30856 
-4.10361 3.26694 2.29843 
-4.231 3.2676 2.35101 
-4.31198 3.20333 2.90809 
-4.44809 3.23179 2.73951 
-4.55176 3.24562 2.67467 
-4.67925 3.24782 2.71482 
-4.76793 3.2193 2.98601 
-4.88853 3.20278 3.17459 
-4.98129 3.18627 3.35043 
-5.09462 3.157 3.63889 
-5.18926 3.14125 3.8094 
-5.30394 3.11982 4.03507 
-5.39829 3.11133 4.14674 
-5.52427 3.11763 4.15303 
-5.61603 3.10283 4.31455 
-5.7625 3.15621 3.94904 
-6.04182 3.07021 4.77236 
-6.17327 3.08733 4.69358 
-6.27407 3.09795 4.65347 
-6.3964 3.09459 4.73629 
-6.4886 3.0851 4.85509 
-6.61984 3.10608 4.74499 
-6.71 3.09058 4.91147 
-6.93114 3.09319 4.99107 
0.995149 3.40082 -0.789123 
0.855749 3.34662 -0.288526 
0.751722 3.35572 -0.314868 
0.0422687 2.99366 2.92913 
-0.0856495 2.94433 3.38531 
-0.182532 2.9654 3.25906 
-0.313655 2.93433 3.56927 
-0.543369 2.94238 3.60831 
-0.641962 2.94876 3.60151 
-0.773014 2.95247 3.6309 
-0.868516 2.95627 3.64352 
-0.997752 2.97021 3.5895 
-1.09987 2.97335 3.61044 
-1.22115 2.96962 3.69545 
-1.32945 2.99523 3.53781 
-1.45251 3.01615 3.42464 
-1.55566 3.02861 3.37077 
-1.6783 3.01627 3.52603 
-1.7819 3.05064 3.29546 
-1.90931 3.03971 3.44146 
-2.01282 3.07077 3.23762 
-2.14083 3.08034 3.21842 
-2.24022 3.08362 3.23693 
-2.37383 3.11314 3.05918 
-2.47895 3.15068 2.80377 
-2.60927 3.17116 2.69748 
-2.72089 3.2327 2.25121 
-2.84712 3.24947 2.17309 
-2.95201 3.26164 2.12236 
-3.07635 3.25358 2.24385 
-3.17821 3.24891 2.3277 
-3.31426 3.28576 2.09192 
-3.41515 3.29639 2.05181 
-3.54751 3.32136 1.91025 
-3.64209 3.29133 2.19561 
-3.77686 3.32369 1.99552 
-3.87377 3.30422 2.19668 
-4.00949 3.3344 2.01456 
-4.09705 3.27848 2.50582 
-4.228 3.30844 2.3233 
-4.3221 3.27653 2.62367 
-4.44728 3.27736 2.6738 
-4.55227 3.28962 2.6224 
-4.67552 3.28344 2.72828 
-4.76095 3.239 3.1259 
-4.88681 3.24091 3.16763 
-4.97268 3.20061 3.53202 
-5.09062 3.18268 3.73029 
-5.17819 3.15718 3.97598 
-5.31208 3.18228 3.83412 
-5.41306 3.18714 3.8407 
-5.52943 3.17086 4.02498 
-5.61065 3.13125 4.38171 
-5.7551 3.18184 4.03883 
-5.9569 3.13649 4.49668 
-6.05051 3.12916 4.59844 
-6.17308 3.12574 4.68171 
-6.25934 3.10605 4.87993 
-6.39991 3.14153 4.65729 
-6.49328 3.13808 4.72753 
-6.61641 3.13867 4.77876 
-6.71333 3.13597 4.84462 
-6.93466 3.14127 4.9024 
0.995489 3.43573 -0.762168 
0.856044 3.37813 -0.235354 
0.758175 3.40356 -0.395908 
0.0456181 3.02891 2.94294 
-0.181817 2.98692 3.38396 
-0.313081 2.98972 3.42073 
-0.544332 3.01234 3.34318 
-0.640568 2.98856 3.57815 
-0.772034 2.99674 3.57177 
-0.865572 2.98899 3.67648 
-0.995894 3.00642 3.59511 
-1.09545 3.0021 3.6749 
-1.21887 3.01329 3.64066 
-1.32801 3.04297 3.45102 
-1.4466 3.02287 3.6665 
-1.55728 3.09003 3.17576 
-1.67728 3.05653 3.49981 
-1.7797 3.09405 3.24402 
-1.91222 3.11085 3.16868 
-2.01043 3.10323 3.27456 
-2.14177 3.11973 3.20113 
-2.24263 3.14278 3.06113 
-2.36987 3.14045 3.13752 
-2.47901 3.20584 2.66026 
-2.60965 3.20983 2.68729 
-2.71094 3.21195 2.71611 
-2.8459 3.28162 2.21606 
-2.95319 3.3021 2.09977 
-3.0736 3.2871 2.27505 
-3.18152 3.31843 2.07161 
-3.3117 3.33034 2.03466 
-3.41565 3.35135 1.91248 
-3.54652 3.36084 1.89532 
-3.63812 3.32738 2.20633 
-3.77168 3.34887 2.09373 
-3.86913 3.32787 2.30702 
-4.00462 3.36557 2.06474 
-4.10015 3.34202 2.2977 
-4.22436 3.3309 2.44358 
-4.32393 3.32879 2.50563 
-4.44649 3.31771 2.6504 
-4.55647 3.35187 2.42513 
-4.67677 3.32734 2.67726 
-4.76629 3.29785 2.95529 
-4.88677 3.28046 3.14998 
-4.98294 3.26755 3.29753 
-5.10138 3.25307 3.46788 
-5.17764 3.19641 3.9588 
-5.31444 3.22842 3.76299 
-5.40706 3.21344 3.92561 
-5.53737 3.22804 3.86716 
-5.61706 3.18978 4.21143 
-5.74341 3.19519 4.22518 
-5.95504 3.17288 4.50084 
-6.04469 3.15654 4.67311 
-6.17716 3.17482 4.58594 
-6.27306 3.17581 4.62148 
-6.39348 3.16774 4.74114 
-6.49489 3.17986 4.68954 
-6.62266 3.18936 4.67094 
-6.70946 3.16688 4.8914 
-6.92935 3.17246 4.94627 
0.997467 3.472 -0.747016 
0.858816 3.41762 -0.247722 
0.755454 3.43812 -0.365774 
0.0479643 3.09721 2.69176 
-0.0814654 3.05581 3.08266 
-0.181869 3.03267 3.31393 
-0.313066 3.02556 3.43022 
-0.541098 3.0235 3.54973 
-0.63683 3.00991 3.70212 
-0.769913 3.03701 3.54458 
-0.866261 3.02532 3.68201 
-0.992512 3.04004 3.62078 
-1.09652 3.04063 3.663 
-1.21621 3.04035 3.71931 
-1.32449 3.06719 3.55268 
-1.55127 3.0838 3.52167 
-1.67548 3.0967 3.47417 
-1.77862 3.1097 3.41634 
-1.90643 3.11919 3.39791 
-2.01118 3.15264 3.17656 
-2.14115 3.17192 3.08039 
-2.23781 3.17308 3.11478 
-2.48077 3.26116 2.51702 
-2.60458 3.24144 2.73139 
-2.70753 3.26673 2.57481 
-2.84258 3.31267 2.26682 
-2.9453 3.31718 2.27701 
-3.07559 3.34076 2.14647 
-3.17849 3.33893 2.20772 
-3.31082 3.3724 1.99867 
-3.40868 3.36832 2.07574 
-3.54488 3.40173 1.86892 
-3.63505 3.36019 2.24339 
-3.76904 3.38631 2.09415 
-3.86709 3.36776 2.28757 
-3.99903 3.39215 2.1513 
-4.09428 3.36632 2.40185 
-4.21976 3.35882 2.51891 
-4.31911 3.36625 2.50415 
-4.45332 3.38484 2.41554 
-4.54795 3.36246 2.63814 
-4.66769 3.34259 2.85192 
-4.76659 3.33942 2.92217 
-4.88422 3.31775 3.14951 
-4.96699 3.2663 3.60024 
-5.09881 3.2893 3.47513 
-5.17745 3.24109 3.89809 
-5.31904 3.28222 3.63172 
-5.40846 3.25846 3.86311 
-5.52748 3.24613 4.01607 
-5.62371 3.24547 4.06495 
-5.74619 3.24019 4.16277 
-6.04818 3.20645 4.57067 
-6.16449 3.18727 4.7774 
-6.28067 3.23201 4.47058 
-6.39682 3.21771 4.63809 
-6.49623 3.22411 4.63174 
-6.62674 3.24158 4.55049 
-6.71306 3.21599 4.79514 
-6.92856 3.20902 4.94879 
1.00102 3.52751 -0.886828 
0.86303 3.45389 -0.234786 
0.757404 3.48229 -0.414755 
0.626934 3.49009 -0.41846 
0.0489493 3.11606 2.83857 
-0.180397 3.06996 3.31132 
-0.309502 3.09079 3.20261 
-0.535786 3.04681 3.65703 
-0.637376 3.0575 3.61718 
-0.766296 3.07727 3.51693 
-0.8636 3.07366 3.58969 
-0.988758 3.06588 3.70852 
-1.09107 3.07372 3.69184 
-1.21736 3.10503 3.49796 
-1.32151 3.10631 3.53464 
-1.5492 3.13012 3.44661 
-1.67286 3.11726 3.60545 
-1.77831 3.17197 3.21467 
-1.9063 3.17857 3.21948 
-2.00336 3.15762 3.43118 
-2.13572 3.19148 3.21959 
-2.2388 3.2249 2.99834 
-2.47721 3.29263 2.56319 
-2.60367 3.28659 2.66866 
-2.71138 3.32867 2.38014 
-2.83834 3.34061 2.34177 
-2.94769 3.38926 2.00129 
-3.07307 3.36615 2.2431 
-3.17762 3.37676 2.20528 
-3.30787 3.41277 1.97552 
-3.40736 3.41359 2.01386 
-3.5417 3.44524 1.82096 
-3.63612 3.4085 2.15793 
-3.77003 3.43376 2.01602 
-3.86605 3.4092 2.25622 
-3.99274 3.40764 2.32589 
-4.0939 3.41142 2.3413 
-4.22556 3.43544 2.20832 
-4.3145 3.38503 2.65239 
-4.44848 3.41139 2.50176 
-4.54671 3.40646 2.58558 
-4.67026 3.3914 2.76208 
-4.75975 3.36423 3.02028 
-4.88768 3.37112 3.02287 
-4.98006 3.34792 3.25052 
-5.09309 3.31418 3.57195 
-5.17623 3.2753 3.92111 
-5.31198 3.30335 3.75767 
-5.41426 3.31195 3.73498 
-5.52703 3.28451 4.00587 
-5.61922 3.27354 4.13546 
-5.74434 3.27503 4.18008 
-6.03787 3.22284 4.73111 
-6.17399 3.25064 4.56983 
-6.26572 3.24057 4.69206 
-6.39962 3.26308 4.57219 
-6.48783 3.24511 4.75614 
-6.61159 3.24758 4.79232 
-6.70798 3.2456 4.85182 
-6.9297 3.25378 4.88656 
1.00316 3.5697 -0.918704 
0.863974 3.47827 -0.12553 
0.758565 3.50876 -0.321728 
0.524719 3.51224 -0.244339 
0.0512066 3.14953 2.8673 
-0.0814454 3.13827 3.01703 
-0.178512 3.09361 3.4176 
-0.306797 3.11941 3.26916 
-0.635125 3.10418 3.53866 
-0.761762 3.10157 3.61659 
-0.863206 3.10804 3.61052 
-0.991911 3.12019 3.5714 
-1.09034 3.11559 3.6525 
-1.21469 3.13196 3.57764 
-1.31962 3.13841 3.57336 
-1.54788 3.16362 3.47468 
-1.67271 3.17421 3.44626 
-1.77547 3.20071 3.2808 
-1.9036 3.19942 3.34879 
-2.00309 3.22822 3.16349 
-2.13784 3.24481 3.0916 
-2.24212 3.27735 2.8785 
-2.60309 3.33033 2.61776 
-2.71067 3.3706 2.3444 
-2.83627 3.37332 2.37922 
-2.94072 3.38301 2.34888 
-3.07156 3.41465 2.15494 
-3.17197 3.40788 2.25431 
-3.30184 3.43393 2.10468 
-3.41069 3.45863 1.95636 
-3.53716 3.45224 2.06439 
-3.63769 3.45114 2.11855 
-3.76676 3.45613 2.13681 
-3.86819 3.4656 2.10689 
-3.99427 3.45871 2.21884 
-4.08905 3.43494 2.45157 
-4.22079 3.45709 2.33397 
-4.31573 3.42893 2.60185 
-4.44267 3.43241 2.63126 
-4.54871 3.45506 2.49806 
-4.66048 3.41391 2.87745 
-4.76279 3.41589 2.90775 
-4.88449 3.40167 3.07628 
-4.97298 3.37167 3.35603 
-5.09703 3.374 3.3934 
-5.18919 3.34833 3.64015 
-5.31456 3.34642 3.71202 
-5.39855 3.3176 3.98029 
-5.53938 3.35513 3.7439 
-5.61134 3.29606 4.2485 
-5.74408 3.31879 4.12678 
-6.04602 3.28042 4.5698 
-6.17354 3.29034 4.54806 
-6.26089 3.26911 4.75722 
-6.40097 3.30695 4.51805 
-6.48664 3.28333 4.74555 
-6.60793 3.27987 4.82795 
-6.70974 3.29107 4.7844 
-6.92808 3.29001 4.89154 
1.00445 3.58961 -0.772542 
0.86574 3.54068 -0.320218 
0.760913 3.54731 -0.326028 
-0.180832 3.13394 3.39232 
-0.535118 3.15765 3.36256 
-0.634033 3.13975 3.54966 
-0.763933 3.13782 3.62351 
-0.861661 3.14225 3.63206 
-0.988625 3.16875 3.47792 
-1.08933 3.16301 3.56898 
-1.21352 3.1611 3.64003 
-1.31797 3.18246 3.51673 
-1.54367 3.19098 3.55033 
-1.66799 3.2011 3.52553 
-1.77452 3.24127 3.25323 
-1.9029 3.24546 3.27759 
-2.00301 3.25904 3.2144 
-2.13417 3.28847 3.03876 
-2.23926 3.31082 2.90787 
-2.47278 3.35602 2.65254 
-2.59914 3.35159 2.74476 
-2.70629 3.39727 2.42878 
-2.83677 3.4338 2.19625 
-2.94289 3.45133 2.10428 
-3.07019 3.46646 2.04095 
-3.17339 3.4598 2.14053 
-3.29874 3.46631 2.14501 
-3.41032 3.50092 1.91931 
-3.53443 3.49078 2.05602 
-3.63498 3.48925 2.11352 
-3.76486 3.50128 2.07607 
-3.86768 3.50508 2.09208 
-3.9913 3.49553 2.22386 
-4.08937 3.47501 2.4316 
-4.21941 3.4944 2.33561 
-4.31825 3.48238 2.47593 
-4.44432 3.48511 2.51097 
-4.53441 3.44824 2.84553 
-4.66296 3.45856 2.82113 
-4.7524 3.4242 3.1354 
-4.89047 3.46253 2.892 
-4.97 3.40563 3.38151 
-5.09339 3.39968 3.48452 
-5.19138 3.39539 3.56287 
-5.31004 3.38522 3.69745 
-5.40298 3.36768 3.87919 
-5.52957 3.37382 3.88728 
-5.62362 3.36545 3.9964 
-5.73296 3.33255 4.30799 
-6.03894 3.30556 4.66115 
-6.17387 3.33251 4.5071 
-6.26995 3.33054 4.56613 
-6.39156 3.32723 4.64738 
-6.4882 3.32546 4.70511 
-6.6118 3.32729 4.74625 
-6.70381 3.31922 4.8521 
-6.9312 3.33559 4.82413 
1.00465 3.61658 -0.682674 
0.86988 3.5623 -0.190692 
0.764838 3.56401 -0.157189 
0.633306 3.57986 -0.224235 
0.532493 3.60762 -0.399765 
0.0565736 3.25681 2.60324 
-0.0742863 3.21327 3.00816 
-0.175417 3.16715 3.42029 
-0.534769 3.17777 3.49709 
-0.63217 3.18184 3.50846 
-0.76381 3.18237 3.56333 
-0.860168 3.18156 3.61307 
-0.985305 3.19017 3.60075 
-1.08643 3.18701 3.67128 
-1.20956 3.19864 3.6341 
-1.31431 3.21577 3.54488 
-1.54464 3.24064 3.45057 
-1.66684 3.24154 3.49831 
-1.77118 3.26582 3.35209 
-1.90178 3.2902 3.21692 
-2.00234 3.29602 3.21581 
-2.13145 3.32448 3.04744 
-2.24118 3.37124 2.72491 
-2.47489 3.41575 2.47596 
-2.60043 3.41053 2.57389 
-2.7117 3.46711 2.17395 
-2.83337 3.45814 2.29994 
-2.9397 3.48182 2.15943 
-3.06781 3.48435 2.19686 
-3.1683 3.48129 2.26632 
-3.30224 3.51233 2.07974 
-3.40316 3.51459 2.10713 
-3.53133 3.52479 2.08358 
-3.63632 3.54196 1.9942 
-3.76394 3.5483 2.00116 
-3.86402 3.53512 2.15097 
-3.99293 3.54356 2.14184 
-4.09001 3.52406 2.34055 
-4.21511 3.52285 2.40645 
-4.31447 3.51568 2.50817 
-4.43986 3.51512 2.56897 
-4.54193 3.5125 2.63573 
-4.65828 3.48711 2.89001 
-4.76711 3.50728 2.77855 
-4.88868 3.50567 2.846 
-4.96184 3.42219 3.54291 
-5.09752 3.45576 3.33696 
-5.18343 3.41969 3.66248 
-5.30139 3.40123 3.86234 
-5.4046 3.41281 3.81669 
-5.53116 3.42017 3.81509 
-5.61921 3.39801 4.03098 
-5.74409 3.39859 4.08258 
-5.9557 3.37716 4.34826 
-6.04668 3.3637 4.4963 
-6.16651 3.35431 4.62496 
-6.25655 3.34202 4.76325 
-6.3826 3.34758 4.77576 
-6.4922 3.37273 4.62503 
-6.61253 3.37083 4.6944 
-6.69975 3.35099 4.89144 
-6.92007 3.35204 4.98233 
1.0089 3.67831 -0.870772 
0.878318 3.65724 -0.64522 
0.771284 3.60353 -0.171297 
-0.172337 3.19603 3.48351 
-0.301676 3.26248 3.01437 
-0.529639 3.24857 3.22692 
-0.629675 3.23071 3.41342 
-0.759778 3.23873 3.40811 
-0.858783 3.22603 3.55321 
-0.983092 3.21315 3.71113 
-1.08463 3.22724 3.64489 
-1.20815 3.23911 3.60606 
-1.3138 3.25328 3.54106 
-1.54228 3.26811 3.5259 
-1.66772 3.28295 3.4644 
-1.76987 3.30437 3.34033 
-1.90077 3.32095 3.26756 
-1.99907 3.32341 3.29208 
-2.13372 3.37152 2.97084 
-2.23326 3.37536 2.98504 
-2.47342 3.46231 2.40305 
-2.60133 3.45442 2.52302 
-2.70804 3.48609 2.31972 
-2.83332 3.4977 2.28384 
-2.93423 3.49195 2.37474 
-3.06987 3.54258 2.03395 
-3.17243 3.54444 2.0652 
-3.40587 3.57247 1.94764 
-3.53132 3.56476 2.06511 
-3.63192 3.57334 2.04224 
-3.76091 3.58045 2.04375 
-3.86038 3.56459 2.2142 
-3.99202 3.58798 2.08776 
-4.08175 3.53683 2.53374 
-4.31781 3.57519 2.33544 
-4.43803 3.54442 2.63355 
-4.54229 3.56277 2.53479 
-4.67443 3.58075 2.45148 
-4.75187 3.50545 3.08369 
-4.87903 3.51625 3.05509 
-4.97275 3.49681 3.25142 
-5.08812 3.47206 3.49958 
-5.17678 3.44117 3.78452 
-5.30763 3.45289 3.75027 
-5.40148 3.44858 3.82665 
-5.53272 3.46223 3.77735 
-5.61483 3.42873 4.08001 
-5.74807 3.44962 3.9742 
-5.94103 3.38661 4.56077 
-6.0338 3.37652 4.68256 
-6.16897 3.40162 4.54417 
-6.26343 3.39699 4.6234 
-6.39129 3.40743 4.59804 
-6.48727 3.40538 4.65742 
-6.61977 3.42453 4.56513 
-6.6989 3.38736 4.89556 
-6.92305 3.39844 4.90848 
-7.17086 3.45538 4.56816 
1.01214 3.71584 -0.865995 
0.884919 3.73792 -0.983802 
0.768312 3.65956 -0.311735 
0.636679 3.66684 -0.310508 
0.531599 3.66245 -0.228765 
-0.171027 3.2469 3.37328 
-0.529506 3.2557 3.46406 
-0.626899 3.25082 3.5462 
-0.757918 3.27529 3.41129 
-0.859061 3.26442 3.54257 
-0.983308 3.26467 3.5962 
-1.08398 3.27502 3.5594 
-1.20854 3.2789 3.58445 
-1.31199 3.28628 3.57236 
-1.43629 3.29443 3.56356 
-1.54154 3.32556 3.36434 
-1.66667 3.31886 3.47342 
-1.76792 3.33677 3.377 
-1.90145 3.38023 3.09291 
-1.99703 3.36804 3.2322 
-2.13344 3.41852 2.89386 
-2.23472 3.43702 2.79282 
-2.36354 3.43707 2.85015 
-2.46881 3.46404 2.68395 
-2.59738 3.48077 2.60914 
-2.7051 3.53548 2.22449 
-2.8301 3.54064 2.23964 
-2.93943 3.55151 2.20266 
-3.06693 3.57027 2.11136 
-3.1683 3.56861 2.1699 
-3.30196 3.60361 1.95284 
-3.40272 3.60861 1.9584 
-3.53134 3.60571 2.03906 
-3.6385 3.63604 1.84708 
-3.75887 3.61919 2.0343 
-3.85936 3.60426 2.19754 
-3.98897 3.61279 2.18811 
-4.08041 3.57614 2.51909 
-4.21085 3.5959 2.42125 
-4.3091 3.58315 2.56622 
-4.44114 3.60724 2.4348 
-4.53833 3.59219 2.59745 
-4.66707 3.59987 2.59443 
-4.75007 3.55298 3.00272 
-4.87849 3.56 3.00475 
-4.96698 3.51811 3.37591 
-5.09376 3.52896 3.34693 
-5.18029 3.49594 3.64706 
-5.31547 3.51784 3.53436 
-5.39967 3.48528 3.82983 
-5.52891 3.49487 3.81193 
-5.60572 3.44486 4.24216 
-5.73987 3.47135 4.09271 
-5.95044 3.44884 4.36534 
-6.03317 3.41535 4.66751 
-6.16531 3.43372 4.58145 
-6.26175 3.43537 4.61169 
-6.38569 3.4362 4.66081 
-6.48468 3.44056 4.67069 
-6.61493 3.45442 4.61951 
-6.70354 3.43986 4.77456 
-6.91921 3.43152 4.93734 
1.01156 3.73756 -0.73478 
0.882443 3.7323 -0.635656 
0.768181 3.6823 -0.190025 
0.639514 3.70112 -0.28111 
0.533207 3.70285 -0.247307 
-0.0692811 3.31263 3.10139 
-0.168977 3.31237 3.14802 
-0.527953 3.3177 3.26635 
-0.625418 3.30438 3.41501 
-0.754754 3.31777 3.36712 
-0.85362 3.30659 3.4996 
-0.982286 3.32541 3.40858 
-1.08164 3.31507 3.5346 
-1.20676 3.31538 3.58804 
-1.31348 3.33554 3.47664 
-1.53884 3.35596 3.41624 
-1.66589 3.36181 3.42684 
-1.76888 3.38218 3.31215 
-1.89649 3.40709 3.17261 
-1.99881 3.41577 3.14983 
-2.13225 3.45768 2.87873 
-2.2327 3.47478 2.78871 
-2.46562 3.51673 2.56175 
-2.59772 3.54039 2.43413 
-2.70317 3.59364 2.061 
