ply
format ascii 1.0
element vertex 1691
property float x
property float y
property float z
end_header
-2.1199 -1.67976 3.86991 
-2.22041 -1.66937 3.80459 
-2.33846 -1.69949 4.23211 
-2.44265 -1.6673 3.90929 
-2.56427 -1.6924 4.27909 
-2.66804 -1.67109 4.08569 
-2.79275 -1.67508 4.2058 
-2.89806 -1.64906 3.95724 
-3.02516 -1.64967 4.03853 
-3.12536 -1.63796 3.95729 
-3.24614 -1.64419 4.10189 
-3.35802 -1.61421 3.80989 
-3.47382 -1.62194 3.96945 
-3.58812 -1.5941 3.70441 
-3.706 -1.60032 3.84711 
-3.81403 -1.58457 3.72244 
-3.93309 -1.58439 3.7897 
-4.03762 -1.57572 3.74727 
-4.15984 -1.57685 3.83191 
-4.26177 -1.56537 3.75456 
-4.38978 -1.56222 3.79165 
-4.50137 -1.53732 3.55997 
-4.62799 -1.53011 3.54787 
-4.73101 -1.52059 3.49457 
-4.85471 -1.52061 3.56687 
-4.95851 -1.50844 3.48245 
-5.07856 -1.51647 3.64806 
-5.18956 -1.48932 3.38933 
-5.31532 -1.48609 3.42408 
-5.40848 -1.49639 3.60118 
-5.54296 -1.47766 3.45641 
-5.64148 -1.47383 3.4682 
-5.76036 -1.48056 3.61771 
-5.86932 -1.46369 3.48025 
-5.98318 -1.47687 3.70368 
-6.09351 -1.45658 3.52632 
-6.30327 -1.4718 3.82997 
-6.42955 -1.46451 3.8168 
-6.53168 -1.45816 3.80078 
-6.64348 -1.47083 4.01691 
-6.73545 -1.47998 4.1796 
-6.84483 -1.4922 4.38907 
-6.95006 -1.48196 4.32841 
-7.16445 -1.48874 4.53436 
0.864385 -1.37533 -1.03817 
0.7538 -1.40046 -0.675902 
0.621114 -1.40243 -0.575607 
0.519569 -1.4202 -0.305975 
0.391258 -1.40156 -0.452813 
0.286131 -1.37829 -0.667982 
0.148759 -1.36546 -0.740597 
0.0608037 -1.39375 -0.353829 
-0.0765813 -1.42931 0.147754 
-0.176176 -1.42585 0.16444 
-0.313311 -1.42508 0.234841 
-0.407601 -1.43385 0.393608 
-0.546224 -1.3606 -0.395353 
-0.658532 -1.32187 -0.789765 
-0.77858 -1.36471 -0.211721 
-0.888581 -1.34613 -0.368484 
-1.01772 -1.3483 -0.267794 
-1.12265 -1.34063 -0.297993 
-1.24912 -1.35552 -0.0479515 
-1.3565 -1.33302 -0.252568 
-1.573 -1.37468 0.367408 
-1.67053 -1.615 3.27594 
-1.89623 -1.62953 3.57938 
-1.99526 -1.63414 3.69162 
-2.12231 -1.63124 3.73094 
-2.22169 -1.62112 3.66857 
-2.34114 -1.64896 4.06824 
-2.43834 -1.64354 4.06037 
-2.56474 -1.64821 4.18917 
-2.66916 -1.62444 3.96775 
-2.79661 -1.62391 4.03543 
-2.8957 -1.61409 3.97653 
-3.02346 -1.61064 4.00977 
-3.12503 -1.59663 3.90245 
-3.24362 -1.61002 4.13029 
-3.35511 -1.57956 3.83353 
-3.47365 -1.5789 3.89454 
-3.57802 -1.57087 3.8599 
-3.70723 -1.55334 3.7269 
-3.81312 -1.54489 3.68818 
-3.9344 -1.54322 3.73881 
-4.03934 -1.53076 3.65187 
-4.15995 -1.53957 3.82655 
-4.26449 -1.51838 3.63581 
-4.39674 -1.50791 3.58836 
-4.49291 -1.50755 3.64007 
-4.62901 -1.48822 3.4897 
-4.71832 -1.50233 3.70906 
-4.85146 -1.48568 3.58889 
-4.95507 -1.47357 3.5054 
-5.07516 -1.47939 3.64427 
-5.18248 -1.46533 3.5398 
-5.3139 -1.45059 3.44129 
-5.41945 -1.43545 3.32291 
-5.54033 -1.44159 3.46611 
-5.6387 -1.43903 3.49299 
-5.75989 -1.44268 3.60679 
-5.86943 -1.42579 3.46999 
-5.9818 -1.43863 3.68776 
-6.09144 -1.42125 3.5453 
-6.30381 -1.42955 3.76738 
-6.42167 -1.43678 3.92174 
-6.52022 -1.43453 3.9524 
-6.64784 -1.42714 3.9389 
-6.73816 -1.43585 4.09491 
-6.84894 -1.45031 4.33104 
-6.9479 -1.44515 4.3274 
-7.16137 -1.45585 4.57867 
0.860252 -1.37019 -0.646633 
0.754639 -1.35517 -0.763152 
0.624773 -1.35479 -0.692614 
0.520887 -1.35554 -0.623632 
0.392701 -1.34787 -0.640231 
0.286192 -1.32367 -0.864732 
0.0533257 -1.34042 -0.532065 
-0.0757076 -1.40168 0.266784 
-0.308426 -1.39926 0.372806 
-0.547794 -1.31865 -0.441804 
-0.8878 -1.30837 -0.366677 
-1.01306 -1.32324 -0.118392 
-1.11956 -1.3129 -0.179019 
-1.3534 -1.28982 -0.316615 
-1.57421 -1.32955 0.280991 
-1.66398 -1.59759 3.50204 
-1.90051 -1.56897 3.30061 
-1.99944 -1.57083 3.37985 
-2.11755 -1.60283 3.82666 
-2.22817 -1.55993 3.38343 
-2.33541 -1.62456 4.20977 
-2.4419 -1.59117 3.87664 
-2.56179 -1.61778 4.26064 
-2.66628 -1.59161 4.01181 
-2.79119 -1.5964 4.14082 
-2.89386 -1.5786 3.98977 
-3.02344 -1.56639 3.92049 
-3.12222 -1.56591 3.97205 
-3.24044 -1.57734 4.17574 
-3.35082 -1.54671 3.87744 
-3.46891 -1.55026 3.98786 
-3.58088 -1.52366 3.73828 
-3.69956 -1.52949 3.87595 
-3.8107 -1.50823 3.68899 
-3.93356 -1.50624 3.73664 
-4.03553 -1.50064 3.72959 
-4.15864 -1.50037 3.79769 
-4.26153 -1.48722 3.70191 
-4.3911 -1.47677 3.65346 
-4.49083 -1.46815 3.6093 
-4.62454 -1.45479 3.52889 
-4.72341 -1.45319 3.56727 
-4.85737 -1.43868 3.4733 
-4.95302 -1.43965 3.54027 
-5.07686 -1.43946 3.60982 
-5.18106 -1.42741 3.52785 
-5.30838 -1.42171 3.5343 
-5.40828 -1.41596 3.52426 
-5.54267 -1.39919 3.40386 
-5.63616 -1.40652 3.54475 
-5.7575 -1.4063 3.61259 
-5.86259 -1.39342 3.52118 
-5.98521 -1.39351 3.59347 
-6.0924 -1.38139 3.51233 
-6.30279 -1.3924 3.76455 
-6.42754 -1.38855 3.79148 
-6.52026 -1.396 3.93334 
-6.6395 -1.39754 4.0208 
-6.73222 -1.40466 4.15882 
-6.84305 -1.41733 4.37302 
-6.95436 -1.39819 4.21125 
-7.16453 -1.41075 4.48182 
0.86757 -1.30498 -0.972041 
0.758517 -1.32539 -0.668733 
0.632448 -1.32902 -0.553355 
0.524176 -1.33079 -0.469981 
0.393742 -1.31959 -0.52676 
0.287911 -1.29074 -0.805453 
0.15799 -1.30173 -0.6011 
0.0578439 -1.31016 -0.444044 
-0.0764854 -1.36012 0.221897 
-0.171679 -1.35868 0.259874 
-0.302907 -1.36831 0.448997 
-0.54286 -1.29184 -0.313313 
-0.774809 -1.29372 -0.157327 
-0.88648 -1.27135 -0.356428 
-1.01284 -1.26476 -0.361102 
-1.11839 -1.26704 -0.273322 
-1.23939 -1.28364 -0.00792668 
-1.34989 -1.25713 -0.256443 
-1.58126 -1.27081 0.038286 
-1.89789 -1.53579 3.34244 
-1.99548 -1.54413 3.49712 
-2.11664 -1.5588 3.73995 
-2.22856 -1.49742 3.08145 
-2.33846 -1.57363 4.04268 
-2.4429 -1.55438 3.87631 
-2.56339 -1.56881 4.11588 
-2.66991 -1.53929 3.82973 
-2.78928 -1.55793 4.11826 
-2.89028 -1.54874 4.06831 
-3.01752 -1.54367 4.08213 
-3.12352 -1.51831 3.84462 
-3.24286 -1.52907 4.04036 
-3.35251 -1.50398 3.80823 
-3.46892 -1.51018 3.94849 
-3.5814 -1.48498 3.71659 
-3.7013 -1.48772 3.81828 
-3.80928 -1.473 3.7073 
-3.92794 -1.47865 3.84243 
-4.03954 -1.4488 3.55533 
-4.15588 -1.46453 3.80786 
-4.26052 -1.44877 3.68266 
-4.38585 -1.45059 3.77664 
-4.49378 -1.42714 3.56281 
-4.62303 -1.41783 3.52778 
-4.72309 -1.4149 3.55115 
-4.85085 -1.40825 3.5467 
-4.95279 -1.40082 3.51819 
-5.07076 -1.40932 3.68653 
-5.18395 -1.38049 3.4124 
-5.3083 -1.38325 3.51684 
-5.4172 -1.3621 3.33067 
-5.54167 -1.36172 3.39815 
-5.63485 -1.3684 3.53086 
-5.75619 -1.36889 3.60678 
-5.85844 -1.36016 3.56316 
-5.97395 -1.37186 3.76788 
-6.09002 -1.3453 3.52209 
-6.30235 -1.35511 3.76063 
-6.42802 -1.34853 3.75579 
-6.52229 -1.35391 3.87379 
-6.6399 -1.35769 3.98639 
-6.7267 -1.37221 4.20772 
-6.84893 -1.37005 4.25311 
-6.94661 -1.37171 4.32923 
-7.16484 -1.37196 4.45858 
0.871903 -1.27009 -0.937436 
0.764115 -1.26698 -0.911979 
0.63221 -1.27526 -0.738978 
0.525212 -1.28078 -0.6127 
0.395342 -1.27312 -0.627784 
0.288618 -1.25231 -0.810692 
0.0565089 -1.26234 -0.559461 
-0.0734395 -1.31168 0.0943551 
-0.174866 -1.31263 0.163843 
-0.542993 -1.256 -0.288855 
-0.882451 -1.2394 -0.288329 
-1.00513 -1.24739 -0.12394 
-1.11487 -1.24357 -0.105548 
-1.24405 -1.22869 -0.205822 
-1.35301 -1.21076 -0.353515 
-1.58331 -1.22756 -0.0237814 
-1.66231 -1.51927 3.44542 
-1.89426 -1.49982 3.35072 
-1.99168 -1.51683 3.60651 
-2.11532 -1.52674 3.79411 
-2.22206 -1.49202 3.44802 
-2.33545 -1.53994 4.07589 
-2.44264 -1.50992 3.78529 
-2.56779 -1.51535 3.92111 
-2.66974 -1.49939 3.79254 
-2.78854 -1.52105 4.11519 
-2.89605 -1.48943 3.80611 
-3.01819 -1.50053 4.00677 
-3.12143 -1.48049 3.83105 
-3.2411 -1.49262 4.04239 
-3.34372 -1.48206 3.97767 
-3.46893 -1.47023 3.91094 
-3.57366 -1.46104 3.86352 
-3.70095 -1.44442 3.7418 
-3.80633 -1.43769 3.72364 
-3.92921 -1.43196 3.72724 
-4.03041 -1.42993 3.76173 
-4.15651 -1.4238 3.7625 
-4.25721 -1.41679 3.73832 
-4.38611 -1.40887 3.71968 
-4.48836 -1.39682 3.63731 
-4.61803 -1.38858 3.61538 
-4.72675 -1.36506 3.40197 
-4.85087 -1.36982 3.52944 
-4.95176 -1.35953 3.46694 
-5.07348 -1.364 3.58957 
-5.176 -1.35492 3.54213 
-5.31013 -1.33971 3.44103 
-5.41372 -1.32797 3.36303 
-5.5383 -1.32785 3.43352 
-5.6317 -1.33205 3.53671 
-5.75357 -1.33489 3.64044 
-5.85348 -1.32868 3.62518 
-5.97249 -1.33449 3.76206 
-6.30118 -1.31843 3.76334 
-6.4158 -1.3269 3.92893 
-6.52043 -1.31734 3.87719 
-6.63823 -1.32068 3.98436 
-6.74856 -1.30486 3.8624 
-6.84709 -1.3356 4.28022 
-6.94341 -1.33528 4.33203 
-7.15709 -1.34249 4.5402 
0.871726 -1.24247 -0.815595 
0.767728 -1.21752 -1.04768 
0.632088 -1.23038 -0.819432 
0.526787 -1.21932 -0.888426 
0.398774 -1.23999 -0.573284 
0.292099 -1.22493 -0.688099 
0.057123 -1.21637 -0.653349 
-0.0730973 -1.26632 0.00540905 
-1.00474 -1.21957 -0.00636307 
-1.11274 -1.20288 -0.13957 
-1.34519 -1.19295 -0.122192 
-1.47411 -1.2014 0.0507523 
-1.58186 -1.17578 -0.187053 
-1.65739 -1.50525 3.7091 
-1.88923 -1.48379 3.59135 
-1.99831 -1.43971 3.1386 
-2.11721 -1.47051 3.56703 
-2.22405 -1.44627 3.34495 
-2.3347 -1.50084 4.0467 
-2.44291 -1.46443 3.68314 
-2.56477 -1.48237 3.96301 
-2.67025 -1.45304 3.68062 
-2.79111 -1.47136 3.96439 
-2.89342 -1.45691 3.85424 
-3.02483 -1.44015 3.73373 
-3.11732 -1.45136 3.9181 
-3.2394 -1.45599 4.04245 
-3.34465 -1.43974 3.91286 
-3.46662 -1.43775 3.95977 
-3.57999 -1.40559 3.64893 
-3.69708 -1.41395 3.81399 
-3.80958 -1.39169 3.6184 
-3.92314 -1.40364 3.82351 
-4.0326 -1.38401 3.65684 
-4.1509 -1.39545 3.85871 
-4.25932 -1.37297 3.65823 
-4.38266 -1.37602 3.76487 
-4.49104 -1.353 3.55793 
-4.621 -1.345 3.53925 
-4.72237 -1.33411 3.47017 
-4.84839 -1.33344 3.53487 
-4.94807 -1.32563 3.50091 
-5.07146 -1.32759 3.5948 
-5.17332 -1.3211 3.57754 
-5.30868 -1.30342 3.44873 
-5.4087 -1.29367 3.39231 
-5.53266 -1.29543 3.48416 
-5.62585 -1.30092 3.60207 
-5.75529 -1.29179 3.56979 
-5.85845 -1.2826 3.52177 
-5.96878 -1.30254 3.81853 
-6.08608 -1.2697 3.502 
-6.29077 -1.295 3.91578 
-6.41921 -1.28312 3.85082 
-6.5201 -1.27783 3.84706 
-6.63001 -1.29362 4.09507 
-6.73064 -1.28862 4.09457 
-6.83916 -1.30537 4.35297 
-6.94715 -1.29288 4.26911 
-7.16787 -1.29048 4.36829 
0.870199 -1.20137 -0.850807 
0.763304 -1.20134 -0.790023 
0.635361 -1.23793 -0.290513 
0.527225 -1.1895 -0.792863 
0.397548 -1.2042 -0.547389 
0.293049 -1.18315 -0.732823 
-0.0665757 -1.2267 -0.0195934 
-0.87594 -1.16835 -0.235924 
-1.00859 -1.16864 -0.156519 
-1.11086 -1.1665 -0.122926 
-1.24023 -1.1594 -0.131459 
-1.34218 -1.15558 -0.117561 
-1.57797 -1.13325 -0.242634 
-1.89075 -1.42767 3.3668 
-2.12 -1.4194 3.40195 
-2.22559 -1.38702 3.08519 
-2.33752 -1.44817 3.8619 
-2.44428 -1.42255 3.62449 
-2.56279 -1.44453 3.9486 
-2.66382 -1.42801 3.81406 
-2.78811 -1.4363 3.9819 
-2.89386 -1.41385 3.78101 
-3.01068 -1.44074 4.16126 
-3.12214 -1.39988 3.7491 
-3.23665 -1.42252 4.07862 
-3.34661 -1.39742 3.84924 
-3.46822 -1.39235 3.86 
-3.576 -1.37644 3.73643 
-3.69975 -1.36636 3.6899 
-3.80443 -1.36496 3.73375 
-3.92537 -1.36081 3.75475 
-4.02848 -1.35224 3.71408 
-4.15099 -1.35367 3.801 
-4.25479 -1.3396 3.69671 
-4.38449 -1.33263 3.68988 
-4.48728 -1.32119 3.61555 
-4.6191 -1.30706 3.52654 
-4.71213 -1.31226 3.64055 
-4.83739 -1.31336 3.72529 
-4.94914 -1.28577 3.46798 
-5.07095 -1.29073 3.59576 
-5.17958 -1.27014 3.41815 
-5.30416 -1.27325 3.52593 
-5.40452 -1.26313 3.46568 
-5.53657 -1.25141 3.40486 
-5.62736 -1.25968 3.55344 
-5.75044 -1.26048 3.63342 
-5.85801 -1.24577 3.52382 
-5.97394 -1.25586 3.70798 
-6.07792 -1.24491 3.64011 
-6.29635 -1.24684 3.78811 
-6.41453 -1.25025 3.8957 
-6.51191 -1.25112 3.96183 
-6.62241 -1.26421 4.17787 
-6.73255 -1.24858 4.05898 
-6.83403 -1.27236 4.39447 
-6.94548 -1.256 4.26781 
-7.16097 -1.25999 4.43822 
0.871509 -1.19598 -0.472911 
0.766799 -1.16457 -0.777719 
0.640609 -1.17336 -0.603652 
0.53377 -1.18758 -0.377568 
0.402599 -1.18883 -0.288204 
0.294426 -1.1465 -0.71783 
0.0616461 -1.15812 -0.450047 
-0.0646029 -1.18458 -0.0707437 
-0.160076 -1.20725 0.246939 
-0.875629 -1.12632 -0.28381 
-1.00247 -1.13305 -0.133199 
-1.10987 -1.11878 -0.237417 
-1.23459 -1.11934 -0.15967 
-1.33994 -1.12139 -0.075656 
-1.47173 -1.11368 -0.0898535 
-1.56878 -1.12137 0.0549238 
-1.816 -1.09119 -0.154125 
-1.89474 -1.37783 3.21838 
-2.11905 -1.38578 3.43887 
-2.33631 -1.40723 3.81216 
-2.44172 -1.38244 3.58467 
-2.5645 -1.39946 3.85246 
-2.66504 -1.38822 3.77953 
-2.7921 -1.38376 3.80047 
-2.8895 -1.38474 3.8675 
-3.01447 -1.38954 3.99476 
-3.11528 -1.3753 3.88706 
-3.23595 -1.38303 4.04592 
-3.34267 -1.35915 3.82969 
-3.46461 -1.35591 3.86196 
-3.5696 -1.34918 3.84382 
-3.69438 -1.3364 3.76695 
-3.80525 -1.3207 3.64813 
-3.92763 -1.31633 3.66739 
-4.02541 -1.31977 3.76328 
-4.1479 -1.32173 3.85614 
-4.2551 -1.30002 3.66557 
-4.37937 -1.30078 3.74553 
-4.48345 -1.28626 3.63647 
-4.62051 -1.26471 3.46479 
-4.71101 -1.27786 3.66924 
-4.84263 -1.26169 3.5569 
-4.94542 -1.25512 3.53945 
-5.07107 -1.25127 3.5668 
-5.17159 -1.24424 3.54269 
-5.30555 -1.23133 3.46958 
-5.4076 -1.21971 3.39311 
-5.53239 -1.21866 3.45242 
-5.62451 -1.22644 3.59551 
-5.74488 -1.22983 3.70386 
-5.85014 -1.21646 3.60891 
-5.97065 -1.2201 3.72021 
-6.29024 -1.21491 3.84316 
-6.40743 -1.22 3.9694 
-6.51546 -1.20736 3.88451 
-6.62891 -1.21726 4.06452 
-6.73274 -1.21 4.03969 
-6.83211 -1.23639 4.40316 
-6.94879 -1.21229 4.19023 
-7.16109 -1.2215 4.41887 
0.876095 -1.12267 -0.885123 
0.768054 -1.12334 -0.815862 
0.639577 -1.13851 -0.567153 
0.533856 -1.13203 -0.581926 
0.401737 -1.12547 -0.582603 
0.299414 -1.12789 -0.49624 
0.0628371 -1.12818 -0.35819 
-0.061692 -1.16475 0.135703 
-0.165633 -1.15308 0.0599671 
-0.872644 -1.10205 -0.127364 
-1.00507 -1.08554 -0.24289 
-1.10644 -1.07868 -0.264365 
-1.23494 -1.08704 -0.0944364 
-1.33796 -1.08338 -0.0780648 
-1.46771 -1.08167 -0.023942 
-1.57278 -1.06581 -0.14747 
-1.81583 -1.04589 -0.239299 
-2.11083 -1.36671 3.63984 
-2.33436 -1.37307 3.84093 
-2.44256 -1.33793 3.49622 
-2.55783 -1.37999 4.04848 
-2.66515 -1.3462 3.71878 
-2.78868 -1.35493 3.89035 
-2.89297 -1.32987 3.65992 
-3.01629 -1.34118 3.86112 
-3.12272 -1.31451 3.61339 
-3.23311 -1.3498 4.08459 
-3.33982 -1.32511 3.85993 
-3.46069 -1.32688 3.94947 
-3.57123 -1.30635 3.77499 
-3.69014 -1.30329 3.80755 
-3.80337 -1.28415 3.65076 
-3.92137 -1.2924 3.8136 
-4.02723 -1.274 3.66116 
-4.14755 -1.27933 3.7916 
-4.25259 -1.26226 3.65402 
-4.37872 -1.26455 3.75259 
-4.481 -1.25063 3.64996 
-4.61665 -1.23144 3.50545 
-4.71877 -1.22271 3.46285 
-4.84299 -1.22249 3.53123 
-4.94614 -1.2122 3.47108 
-5.06391 -1.22299 3.66325 
-5.16862 -1.21066 3.58046 
-5.29543 -1.20504 3.58783 
-5.40473 -1.18556 3.42498 
-5.5342 -1.17379 3.36281 
-5.61596 -1.19995 3.71221 
-5.74575 -1.1881 3.64919 
-5.84449 -1.18673 3.68988 
-5.96704 -1.18504 3.74038 
-6.07631 -1.16697 3.59371 
-6.30347 -1.15607 3.59754 
-6.40376 -1.18751 4.01856 
-6.50243 -1.18466 4.04208 
-6.61698 -1.19441 4.22028 
-6.73001 -1.17172 4.02245 
-6.83153 -1.19939 4.40066 
-6.94256 -1.18148 4.25689 
-7.15997 -1.1822 4.38965 
0.871742 -1.08513 -0.877006 
0.767341 -1.08487 -0.820634 
0.642645 -1.07649 -0.846402 
0.539151 -1.07156 -0.844362 
0.409265 -1.09872 -0.45769 
0.301595 -1.07729 -0.643476 
0.0647437 -1.07903 -0.488777 
-0.0605631 -1.11455 -0.00826039 
-0.170864 -1.08113 -0.33073 
-0.643536 -1.04853 -0.437737 
-0.869657 -1.0697 -0.0652521 
-0.994768 -1.05713 -0.138948 
-1.1019 -1.05352 -0.119612 
-1.23012 -1.0505 -0.0815499 
-1.34273 -1.0348 -0.198478 
-1.46922 -1.04583 0.00064633 
-1.57684 -1.01854 -0.25265 
-1.70192 -1.04178 0.0863379 
-1.8066 -1.02459 -0.0522132 
-2.0424 -1.00558 -0.137225 
-2.33484 -1.32976 3.76531 
-2.56479 -1.31639 3.74213 
-2.66119 -1.31099 3.73476 
-2.79325 -1.29654 3.64341 
-2.89368 -1.28755 3.59698 
-3.01568 -1.29916 3.80019 
-3.11528 -1.28757 3.72341 
-3.23559 -1.30046 3.94042 
-3.3409 -1.28359 3.80593 
-3.4651 -1.27988 3.83396 
-3.57025 -1.26818 3.75896 
-3.69292 -1.26003 3.73483 
-3.80372 -1.24364 3.60905 
-3.92041 -1.25286 3.78185 
-4.024 -1.24096 3.70367 
-4.14179 -1.25356 3.91596 
-4.25083 -1.23019 3.70876 
-4.37476 -1.22972 3.77395 
-4.48007 -1.2136 3.64813 
-4.61228 -1.20134 3.58214 
-4.71123 -1.19669 3.58498 
-4.8412 -1.1894 3.57494 
-4.93924 -1.18546 3.58546 
-5.0649 -1.18119 3.6078 
-5.16461 -1.17853 3.63404 
-5.29894 -1.15845 3.47912 
-5.40681 -1.14344 3.36759 
-5.53232 -1.13933 3.39179 
-5.62246 -1.15137 3.58193 
-5.74149 -1.15586 3.70151 
-5.8527 -1.13497 3.5241 
-5.97208 -1.13715 3.61739 
-6.18319 -1.1525 3.91469 
-6.29197 -1.13441 3.7682 
-6.4053 -1.14635 3.97044 
-6.5075 -1.13936 3.94814 
-6.62758 -1.14144 4.04058 
-6.72543 -1.13938 4.07271 
-6.83146 -1.16132 4.38607 
-6.9482 -1.13609 4.16183 
-7.16569 -1.13512 4.27483 
0.880272 -1.03543 -1.01575 
0.769912 -1.05782 -0.696149 
0.646971 -1.07068 -0.478856 
0.543393 -1.02019 -0.99989 
0.409067 -1.0484 -0.599832 
0.300149 -1.03871 -0.64939 
0.0690485 -1.0377 -0.530058 
-0.061071 -1.04505 -0.371802 
-0.159944 -1.06316 -0.107843 
-0.298993 -1.03701 -0.329277 
-0.395852 -1.06757 0.0765381 
-0.638867 -1.03165 -0.198129 
-0.759932 -1.03206 -0.124739 
-0.870352 -1.01788 -0.224928 
-0.994655 -1.02393 -0.084976 
-1.1026 -1.00346 -0.258768 
-1.23221 -1.01791 -0.0194167 
-1.33827 -1.00662 -0.0888983 
-1.4606 -1.01622 0.0908364 
-1.57423 -0.989229 -0.154683 
-1.69524 -1.01247 0.180794 
-1.80892 -0.975525 -0.178888 
-1.93449 -0.984084 -0.00935531 
-2.04462 -0.962071 -0.199635 
-2.26585 -1.00443 0.412387 
-2.33741 -1.28085 3.62725 
-2.562 -1.27882 3.73149 
-2.66404 -1.26377 3.61656 
-2.78739 -1.27144 3.77474 
-2.89733 -1.23606 3.43081 
-3.01138 -1.26895 3.87336 
-3.11431 -1.24351 3.63958 
-3.23187 -1.26995 4.00999 
-3.33906 -1.24651 3.80176 
-3.45869 -1.25368 3.95206 
-3.5702 -1.22492 3.68514 
-3.68927 -1.2262 3.76749 
-3.80317 -1.20225 3.55715 
-3.91498 -1.22134 3.8399 
-4.02291 -1.20407 3.70289 
-4.14552 -1.20481 3.78101 
-4.24743 -1.19529 3.72965 
-4.37198 -1.19717 3.82198 
-4.47741 -1.17832 3.66545 
-4.60921 -1.16541 3.5921 
-4.70941 -1.15962 3.58257 
-4.8442 -1.14077 3.44267 
-4.94441 -1.13554 3.43957 
-5.06562 -1.14136 3.57536 
-5.16373 -1.13914 3.60557 
-5.29882 -1.12064 3.46994 
-5.4033 -1.10845 3.38928 
-5.52807 -1.10638 3.43655 
-5.61589 -1.12126 3.65736 
-5.74088 -1.11648 3.67353 
-5.84702 -1.10283 3.57716 
-5.96429 -1.10997 3.72585 
-6.06847 -1.09942 3.66393 
-6.18025 -1.11592 3.91704 
-6.29017 -1.09828 3.777 
-6.40228 -1.11236 4.00249 
-6.50136 -1.10912 4.02163 
-6.61939 -1.11311 4.13467 
-6.73241 -1.09486 3.98932 
-6.83953 -1.11331 4.26216 
-6.94313 -1.10217 4.19319 
-7.16373 -1.09822 4.2734 
0.883681 -0.998844 -1.00071 
0.772709 -1.02088 -0.685907 
0.645811 -1.04335 -0.357046 
0.541109 -1.00176 -0.773648 
0.412235 -1.04624 -0.191972 
0.307854 -1.00467 -0.608525 
0.175214 -1.01554 -0.409139 
0.0742942 -1.01008 -0.414571 
-0.0606692 -1.02745 -0.139565 
-0.16196 -1.02429 -0.118423 
-0.296085 -1.00377 -0.277282 
-0.392556 -1.02774 0.0514651 
-0.528999 -0.939332 -0.882824 
-0.634387 -0.999722 -0.132263 
-0.75837 -1.00259 -0.02931 
-0.868623 -0.992386 -0.0836787 
-0.992865 -0.975127 -0.210865 
-1.10248 -0.972344 -0.180681 
-1.22847 -0.987452 0.0634763 
-1.32985 -0.982722 0.0667319 
-1.46469 -0.966681 -0.0405143 
-1.57174 -0.952493 -0.142257 
-1.69884 -0.960668 0.0232107 
-1.81103 -0.925475 -0.315962 
-1.93184 -0.952233 0.0585919 
-2.03644 -0.946193 0.0486894 
-2.26521 -0.94539 0.169016 
-2.56013 -1.24354 3.74765 
-2.66134 -1.22686 3.61414 
-2.7906 -1.22656 3.68385 
-2.89135 -1.20956 3.54638 
-3.01317 -1.22358 3.77587 
-3.12356 -1.18591 3.40739 
-3.23278 -1.22538 3.92088 
-3.34532 -1.18991 3.57874 
-3.45531 -1.21828 3.96575 
-3.5719 -1.18366 3.63571 
-3.68849 -1.18981 3.77213 
-3.79911 -1.17097 3.61917 
-3.91717 -1.17795 3.76604 
-4.02604 -1.15746 3.59323 
-4.14282 -1.17003 3.80335 
-4.24712 -1.15127 3.6478 
-4.37178 -1.15759 3.79071 
-4.46904 -1.14863 3.74339 
-4.61203 -1.12372 3.53936 
-4.71299 -1.11334 3.47782 
-4.83668 -1.11474 3.56398 
-4.93801 -1.10749 3.53852 
-5.06275 -1.10514 3.58229 
-5.16274 -1.10113 3.59322 
-5.29208 -1.09386 3.58334 
-5.40074 -1.07188 3.39341 
-5.52681 -1.06901 3.43206 
-5.61051 -1.09035 3.72378 
-5.73992 -1.07971 3.67546 
-5.84777 -1.06211 3.53518 
-5.95976 -1.07715 3.7709 
-6.07355 -1.05346 3.56435 
-6.2867 -1.06423 3.80854 
-6.40176 -1.07389 3.98443 
-6.50017 -1.07225 4.02151 
-6.61344 -1.08327 4.21188 
-6.73956 -1.04518 3.84757 
-6.83749 -1.07589 4.25461 
-6.94504 -1.06098 4.14507 
-7.17685 -1.04311 4.07213 
0.886665 -0.961953 -0.988926 
0.774195 -0.970722 -0.825548 
0.647443 -0.982954 -0.614619 
0.545479 -0.97155 -0.687123 
0.411778 -0.972346 -0.602649 
0.306987 -0.942747 -0.880974 
0.175915 -0.969028 -0.507436 
0.0753153 -0.980894 -0.315405 
-0.062623 -0.993647 -0.0922022 
-0.159809 -0.990727 -0.070667 
-0.291975 -0.967478 -0.26114 
-0.397521 -0.970212 -0.170421 
-0.528672 -0.908633 -0.798453 
-0.634008 -0.972724 -0.00833188 
-0.757596 -0.966158 -0.0134438 
-0.865642 -0.938855 -0.263742 
-0.987346 -0.955437 -0.00600478 
-1.09815 -0.942044 -0.0961576 
-1.22929 -0.936836 -0.0815068 
-1.33055 -0.933004 -0.0680365 
-1.45999 -0.938264 0.0650117 
-1.56832 -0.911445 -0.179591 
-1.69369 -0.940607 0.223673 
-1.80399 -0.91261 -0.0332472 
-1.93249 -0.919108 0.113411 
-2.03601 -0.903961 -0.000824657 
-2.1569 -0.929874 0.362887 
-2.26512 -0.905246 0.143216 
-2.55945 -1.20257 3.69946 
-2.7899 -1.18744 3.65715 
-3.01898 -1.16373 3.51628 
-3.12484 -1.13683 3.26942 
-3.23197 -1.18595 3.89012 
-3.35292 -1.13413 3.36755 
-3.45649 -1.17394 3.88 
-3.57127 -1.14206 3.58145 
-3.6928 -1.14268 3.65717 
-3.79938 -1.12781 3.54795 
-3.91048 -1.15382 3.90726 
-4.02342 -1.12162 3.60399 
-4.1406 -1.13513 3.82433 
-4.24916 -1.10773 3.57333 
-4.37303 -1.11378 3.71232 
-4.471 -1.10523 3.67028 
-4.60256 -1.09976 3.68232 
-4.70865 -1.08167 3.53601 
-4.83327 -1.08342 3.62651 
-4.93498 -1.07338 3.56956 
-5.05549 -1.08007 3.71399 
-5.1687 -1.05001 3.43533 
-5.29744 -1.04762 3.48089 
-5.39314 -1.04106 3.46024 
-5.51858 -1.04292 3.55245 
-5.60732 -1.05479 3.73797 
-5.73668 -1.04575 3.7081 
-5.85289 -1.01408 3.41277 
-5.96245 -1.03415 3.70366 
-6.06624 -1.02546 3.6633 
-6.28512 -1.02942 3.83239 
-6.38742 -1.05584 4.19158 
-6.49469 -1.03921 4.06262 
-6.61887 -1.03616 4.09816 
-6.72138 -1.02943 4.07948 
-6.83183 -1.04278 4.29427 
-6.94005 -1.02877 4.19584 
-7.15006 -1.04134 4.45818 
0.884568 -0.947011 -0.725026 
0.775842 -0.938886 -0.756161 
0.648875 -0.930569 -0.779208 
0.544423 -0.94143 -0.597071 
0.414846 -0.948993 -0.438254 
0.30692 -0.918743 -0.721163 
0.0709875 -0.928482 -0.477766 
-0.0557977 -0.961524 -0.0310663 
-0.157234 -0.952759 -0.073538 
-0.290553 -0.937406 -0.172908 
-0.396673 -0.932509 -0.168803 
-0.528782 -0.907487 -0.378697 
-0.636481 -0.927075 -0.095538 
-0.861867 -0.921384 -0.0332995 
-0.994934 -0.893879 -0.270836 
-1.09589 -0.902588 -0.115054 
-1.22584 -0.907068 0.00901086 
-1.33063 -0.889177 -0.135221 
-1.45841 -0.905208 0.118862 
-1.56794 -0.876391 -0.146821 
-1.69336 -0.888666 0.0632731 
-1.93326 -0.858388 -0.14557 
-2.03785 -0.851156 -0.168812 
-2.15579 -0.888431 0.321106 
-2.26218 -0.872679 0.202104 
-2.49197 -0.889392 0.521462 
-2.5595 -1.16116 3.64713 
-2.79676 -1.11803 3.29084 
-3.01809 -1.12569 3.50264 
-3.12482 -1.09091 3.1677 
-3.23539 -1.13352 3.71421 
-3.35296 -1.09202 3.30898 
-3.45594 -1.13067 3.80611 
-3.58026 -1.08657 3.37525 
-3.68813 -1.11453 3.75375 
-3.79812 -1.09151 3.55425 
-3.91144 -1.10808 3.80638 
-4.01832 -1.0912 3.67489 
-4.1438 -1.08845 3.71444 
-4.25268 -1.06406 3.49873 
-4.37073 -1.07925 3.73795 
-4.47632 -1.05749 3.55029 
-4.59983 -1.06369 3.69043 
-4.70515 -1.048 3.57158 
-4.83093 -1.04721 3.63359 
-4.94084 -1.02187 3.40775 
-5.05571 -1.04071 3.68658 
-5.16441 -1.01845 3.49506 
-5.29805 -1.00673 3.43725 
-5.39471 -1.00093 3.42596 
-5.52047 -0.999148 3.47669 
-5.61058 -1.01018 3.65289 
-5.73426 -1.00948 3.71481 
-5.85314 -0.974897 3.38896 
-5.96229 -0.994341 3.67154 
-6.06588 -0.988106 3.65918 
-6.18401 -0.994287 3.79613 
-6.28008 -0.996024 3.87013 
-6.39996 -0.997204 3.95126 
-6.49988 -0.994294 3.97462 
-6.61324 -1.00298 4.13742 
-6.72102 -0.990348 4.05471 
-6.83033 -1.00696 4.30523 
-6.94 -0.988585 4.1584 
0.88793 -0.901843 -0.808156 
0.777691 -0.907643 -0.680646 
0.649058 -0.941642 -0.223608 
0.544768 -0.893211 -0.713281 
0.418577 -0.91659 -0.377821 
0.313809 -0.896559 -0.545755 
0.0767475 -0.911573 -0.242727 
-0.0517638 -0.933631 0.0791136 
-0.1523 -0.923419 0.0199655 
-0.289755 -0.895598 -0.217773 
-0.39263 -0.903788 -0.0672965 
-0.5226 -0.89063 -0.143256 
-0.627288 -0.905005 0.0782619 
-0.86023 -0.873925 -0.14273 
-0.988859 -0.876761 -0.0383792 
-1.09394 -0.876095 0.0131085 
-1.2195 -0.87455 0.0661538 
-1.32809 -0.866878 0.0403149 
-1.45847 -0.862844 0.0678974 
-1.56355 -0.84385 -0.0880738 
-1.80285 -0.820264 -0.220602 
-1.9273 -0.832733 -0.00951648 
-2.03119 -0.830912 0.0282592 
-2.15848 -0.835693 0.153929 
-2.26718 -0.817635 0.0105905 
-2.50216 -0.813405 0.0948016 
-2.79544 -1.08232 3.30411 
-3.01793 -1.08323 3.43955 
-3.23088 -1.10551 3.81147 
-3.4555 -1.09017 3.76422 
-3.5808 -1.04179 3.28703 
-3.68807 -1.06806 3.64471 
-3.79768 -1.05244 3.52964 
-3.91392 -1.06504 3.7377 
-4.021 -1.04427 3.56277 
-4.13875 -1.05902 3.79608 
-4.2462 -1.03594 3.59516 
-4.36924 -1.04081 3.71963 
-4.48059 -1.01111 3.44604 
-4.60399 -1.01898 3.60454 
-4.70297 -1.01149 3.57551 
-4.83055 -1.0071 3.59762 
-4.93308 -0.996648 3.537 
-5.05714 -0.997198 3.61308 
-5.16485 -0.978764 3.46501 
-5.29612 -0.968897 3.42721 
-5.39391 -0.963944 3.42621 
-5.52189 -0.957534 3.42571 
-5.61825 -0.95945 3.50167 
-5.73947 -0.960733 3.58448 
-5.82779 -0.975995 3.80703 
-5.96141 -0.957009 3.66733 
-6.17445 -0.969219 3.9256 
-6.28804 -0.945609 3.72227 
-6.39558 -0.965124 4.00383 
-6.50621 -0.946891 3.85972 
-6.61566 -0.961762 4.08979 
-6.72015 -0.952056 4.03877 
-6.83263 -0.965162 4.25057 
-6.93873 -0.95179 4.15896 
-7.14202 -0.973834 4.52317 
0.888483 -0.852889 -0.931815 
0.781525 -0.8587 -0.80639 
0.654049 -0.8309 -1.04858 
0.546573 -0.868686 -0.562212 
0.415389 -0.855581 -0.636573 
0.313692 -0.841258 -0.741179 
0.182184 -0.872528 -0.314825 
0.0801357 -0.847531 -0.539631 
-0.0533953 -0.876057 -0.143078 
-0.15797 -0.876843 -0.0756407 
-0.286155 -0.863773 -0.151268 
-0.387479 -0.864803 -0.0828802 
-0.521126 -0.85871 -0.0767418 
-0.623898 -0.858858 -0.0174931 
-0.755883 -0.843138 -0.120859 
-0.859926 -0.834016 -0.16546 
-0.9837 -0.847832 0.0597471 
-1.09191 -0.842221 0.057093 
-1.21754 -0.825699 -0.0588663 
-1.3267 -0.815217 -0.115927 
-1.45511 -0.830755 0.131319 
-1.56562 -0.797106 -0.186304 
-1.69254 -0.805514 -0.0203051 
-1.79686 -0.811699 0.107936 
-1.92277 -0.809795 0.157051 
-2.03478 -0.782772 -0.0849795 
-2.15441 -0.804941 0.232173 
-2.26929 -0.767104 -0.130238 
-2.49856 -0.774194 0.0783193 
-2.7326 -0.757939 0.0262137 
-3.23169 -1.06093 3.72423 
-3.46093 -1.03903 3.60592 
-3.57153 -1.01903 3.44233 
-3.68543 -1.03749 3.71454 
-3.80642 -0.986439 3.2065 
-3.91174 -1.02898 3.74554 
-4.02271 -1.00059 3.4876 
-4.13837 -1.02047 3.77676 
-4.24199 -1.00283 3.63591 
-4.36964 -0.999295 3.66776 
-4.47638 -0.974751 3.45079 
-4.6026 -0.979557 3.57589 
-4.70654 -0.965586 3.47664 
-4.83226 -0.962951 3.51753 
-4.93547 -0.950089 3.43038 
-5.04982 -0.969393 3.7124 
-5.16289 -0.940559 3.45061 
-5.29272 -0.934443 3.45454 
-5.39751 -0.917055 3.31724 
-5.50721 -0.943063 3.6723 
-5.61536 -0.923841 3.5162 
-5.73377 -0.930599 3.65898 
-5.83962 -0.917371 3.56921 
-5.95029 -0.936961 3.85244 
-6.1753 -0.927897 3.87664 
-6.27728 -0.920636 3.85203 
-6.39778 -0.922069 3.93594 
-6.50352 -0.91111 3.87172 
-6.61828 -0.919228 4.02784 
-6.72568 -0.906077 3.93983 
-6.82835 -0.932501 4.29571 
-6.93963 -0.913954 4.14901 
0.888299 -0.823738 -0.831588 
0.785452 -0.802943 -1.00788 
0.652534 -0.845358 -0.45691 
0.547763 -0.817435 -0.712229 
0.41678 -0.83041 -0.493231 
0.315598 -0.803638 -0.737618 
0.182973 -0.847493 -0.170594 
0.0816331 -0.825497 -0.361207 
-0.0520659 -0.835818 -0.170492 
-0.157096 -0.810175 -0.400026 
-0.280844 -0.847475 0.0883714 
-0.390502 -0.823655 -0.118076 
-0.516526 -0.834953 0.0793429 
-0.623522 -0.822977 0.00454232 
-0.751055 -0.824058 0.0879753 
-0.858596 -0.805567 -0.0597556 
-0.986139 -0.803001 -0.0172977 
-1.09014 -0.794568 -0.0539458 
-1.21927 -0.793242 0.0033538 
-1.32553 -0.774321 -0.149923 
-1.4537 -0.782557 0.0143321 
-1.56037 -0.771848 -0.0463935 
-1.685 -0.783153 0.150378 
-1.795 -0.760877 -0.0384985 
-1.92352 -0.763277 0.0603618 
-2.03497 -0.731074 -0.239293 
-2.15466 -0.751734 0.0598991 
-2.2663 -0.731279 -0.107579 
-2.37817 -0.77735 0.472886 
-2.49773 -0.734115 0.0537673 
-2.7215 -0.752806 0.389085 
-2.96281 -0.708592 0.0270987 
-3.0237 -0.970142 3.00135 
-3.23564 -1.00793 3.54475 
-3.45663 -1.00806 3.67002 
-3.68864 -0.990539 3.60294 
-3.91331 -0.984597 3.66196 
-4.02517 -0.95034 3.33949 
-4.13344 -0.985891 3.7998 
-4.2387 -0.966969 3.64604 
-4.37067 -0.957781 3.61667 
-4.47499 -0.945557 3.53768 
-4.60068 -0.94177 3.56554 
-4.70774 -0.922288 3.40649 
-4.82655 -0.934064 3.60545 
-4.93407 -0.913241 3.4316 
-5.05525 -0.921555 3.59297 
-5.16304 -0.898962 3.39937 
-5.2856 -0.903104 3.51462 
-5.38904 -0.892788 3.45662 
-5.50204 -0.912276 3.73906 
-5.61461 -0.88438 3.48853 
-5.73081 -0.897498 3.70116 
-5.84007 -0.878168 3.54508 
-5.94359 -0.908031 3.93887 
-6.06269 -0.871504 3.59497 
-6.277 -0.881039 3.82234 
-6.39603 -0.885178 3.93563 
-6.51398 -0.858307 3.69965 
-6.61735 -0.8823 4.02739 
-6.72063 -0.874317 3.99557 
-6.94939 -0.860192 3.96507 
0.892673 -0.797051 -0.706979 
0.780816 -0.805207 -0.553306 
0.655951 -0.785018 -0.709849 
0.552206 -0.766082 -0.86412 
0.418982 -0.798671 -0.424879 
0.319699 -0.792269 -0.441243 
0.18796 -0.820348 -0.0533303 
0.0837748 -0.792162 -0.310948 
-0.0500624 -0.804981 -0.09277 
-0.150539 -0.80254 -0.0640881 
-0.282394 -0.792683 -0.100981 
-0.388984 -0.766378 -0.336182 
-0.51552 -0.806533 0.184129 
-0.618467 -0.787934 0.0332099 
-0.748334 -0.794853 0.183124 
-0.858331 -0.77684 0.0427099 
-0.977956 -0.78089 0.154795 
-1.08829 -0.754943 -0.074294 
-1.2145 -0.767888 0.141102 
-1.32198 -0.735507 -0.161653 
-1.45084 -0.751803 0.092771 
-1.55719 -0.73493 -0.0369004 
-1.68747 -0.724989 -0.0755699 
-1.79373 -0.712823 -0.152556 
-1.92014 -0.728242 0.0906906 
-2.03 -0.703548 -0.124605 
-2.15697 -0.703856 -0.0503088 
-2.26389 -0.696099 -0.0775196 
-2.38642 -0.703787 0.0769746 
-2.49215 -0.704743 0.146698 
-2.62233 -0.700761 0.174762 
-2.96889 -0.653202 -0.164513 
-3.46016 -0.959277 3.53848 
-3.69296 -0.93233 3.36666 
-3.91658 -0.934908 3.52048 
-4.03163 -0.89424 3.12918 
-4.13617 -0.942359 3.72666 
-4.24764 -0.906043 3.3821 
-4.37005 -0.919468 3.60091 
-4.47108 -0.911901 3.5726 
-4.60284 -0.900537 3.51894 
-4.70757 -0.881943 3.36917 
-4.8286 -0.891378 3.54253 
-4.92916 -0.884443 3.52105 
-5.05044 -0.887758 3.62598 
-5.161 -0.861101 3.38915 
-5.2805 -0.872702 3.58594 
-5.3902 -0.850096 3.39401 
-5.51241 -0.853281 3.49803 
-5.72411 -0.869425 3.7973 
-5.84437 -0.830276 3.42594 
-5.95435 -0.851363 3.72371 
-6.06422 -0.8291 3.53573 
-6.27776 -0.841849 3.79803 
-6.39305 -0.85006 3.95452 
-6.61125 -0.851642 4.09433 
-6.72025 -0.836295 3.98338 
0.895229 -0.759953 -0.698415 
0.787405 -0.741697 -0.842224 
0.657484 -0.751686 -0.658517 
0.553828 -0.737401 -0.76033 
0.423759 -0.762002 -0.413438 
0.319435 -0.753227 -0.453374 
0.187509 -0.784341 -0.0327459 
0.0845076 -0.746854 -0.393866 
-0.0502291 -0.760207 -0.169901 
-0.150471 -0.745743 -0.275588 
-0.282161 -0.763087 -0.00875816 
-0.382787 -0.745443 -0.149714 
-0.514614 -0.737899 -0.160588 
-0.618003 -0.739418 -0.0861232 
-0.746275 -0.750853 0.112869 
-0.857907 -0.735686 0.00568924 
-0.974731 -0.741189 0.132121 
-1.08763 -0.714946 -0.0979756 
-1.2129 -0.715055 -0.0270562 
-1.32011 -0.699763 -0.138077 
-1.45296 -0.703276 -0.024929 
-1.55916 -0.686777 -0.149984 
-1.68518 -0.696294 0.0263883 
-1.79136 -0.687125 -0.016852 
-1.92174 -0.678063 -0.045428 
-2.01972 -0.685351 0.0904682 
-2.1528 -0.679274 0.0967307 
-2.25672 -0.669417 0.0445548 
-2.37599 -0.688375 0.322579 
-2.48706 -0.676728 0.254426 
-2.84452 -0.667526 0.350777 
-3.1859 -0.636913 0.199207 
-3.45834 -0.922526 3.53927 
-3.68658 -0.902508 3.443 
-3.91474 -0.896149 3.49919 
-4.13816 -0.896275 3.62514 
-4.36315 -0.891705 3.69957 
-4.59556 -0.871578 3.60447 
-4.69595 -0.863449 3.5697 
-4.82989 -0.84825 3.47471 
-5.0497 -0.850806 3.62583 
-5.16687 -0.81381 3.27816 
-5.28341 -0.827241 3.49312 
-5.51808 -0.803528 3.35929 
-5.73151 -0.815539 3.61246 
-5.95261 -0.812549 3.70245 
-6.39347 -0.811245 3.93393 
-6.47293 -0.837722 4.2739 
-6.61256 -0.810092 4.04336 
0.899185 -0.691785 -1.03621 
0.789714 -0.721582 -0.644105 
0.66015 -0.721378 -0.57451 
0.556881 -0.693833 -0.823588 
0.427184 -0.712159 -0.547828 
0.318769 -0.696279 -0.664315 
0.188471 -0.696972 -0.584319 
0.0830289 -0.708661 -0.395816 
-0.0436878 -0.718969 -0.210869 
-0.147171 -0.721447 -0.125883 
-0.279205 -0.715351 -0.120423 
-0.384523 -0.691743 -0.324555 
-0.508081 -0.723039 0.0921011 
-0.614333 -0.73717 0.30824 
-0.739933 -0.727113 0.266094 
-0.854845 -0.701517 0.0451881 
-0.975784 -0.69416 0.0304893 
-1.08388 -0.697101 0.123212 
-1.21404 -0.671431 -0.0900549 
-1.31851 -0.655284 -0.211653 
-1.44486 -0.68434 0.181685 
-1.55625 -0.654015 -0.093768 
-1.68423 -0.66257 0.072453 
-1.78281 -0.672255 0.234932 
-1.92158 -0.63479 -0.104728 
-2.0196 -0.640439 0.0125447 
-2.14669 -0.654656 0.241274 
-2.25074 -0.645093 0.192691 
-2.38209 -0.639256 0.200736 
-2.48627 -0.642435 0.293971 
-2.61788 -0.622963 0.150491 
-2.72202 -0.616032 0.131256 
-2.85737 -0.59896 0.0165568 
-3.1929 -0.580307 -0.00448599 
-4.13722 -0.859685 3.62836 
-4.37042 -0.836396 3.49899 
-4.59714 -0.82815 3.53337 
-4.82714 -0.814444 3.50886 
-4.95304 -0.753416 2.89998 
-5.04939 -0.81061 3.58986 
-5.28623 -0.786876 3.45763 
-5.50846 -0.776866 3.46994 
-5.73454 -0.770409 3.52393 
-5.94554 -0.785196 3.80591 
-6.61415 -0.769639 4.00512 
0.898279 -0.664832 -0.912155 
0.790219 -0.674395 -0.746382 
0.659178 -0.674231 -0.675693 
0.557521 -0.673445 -0.628148 
0.430424 -0.687316 -0.404078 
0.31993 -0.636763 -0.903234 
0.0875482 -0.686296 -0.225618 
-0.0440875 -0.674336 -0.285309 
-0.143738 -0.693646 -0.0161253 
-0.279042 -0.687441 -0.0099903 
-0.379099 -0.671946 -0.12634 
-0.502128 -0.70734 0.334082 
-0.61873 -0.661431 -0.110211 
-0.850473 -0.656173 -0.0401693 
-0.97294 -0.670668 0.18832 
-1.08121 -0.658071 0.108661 
-1.21245 -0.63026 -0.126916 
-1.31708 -0.614918 -0.239011 
-1.44552 -0.637134 0.0783798 
-1.54864 -0.625772 0.00956713 
-1.79007 -0.623109 0.113798 
-1.92171 -0.59778 -0.0940181 
-2.02582 -0.579984 -0.233594 
-2.14786 -0.604973 0.111026 
-2.25543 -0.579426 -0.11254 
-2.37799 -0.603688 0.224316 
-2.48896 -0.578492 0.00653406 
-2.72125 -0.572918 0.0734962 
-2.85505 -0.558925 -0.00744182 
-2.96313 -0.535591 -0.206185 
-3.08567 -0.562336 0.158218 
-3.19443 -0.535124 -0.0831325 
-3.43977 -0.503935 -0.292834 
-3.67136 -0.50813 -0.117912 
-3.90172 -0.495565 -0.129433 
-3.92075 -0.801066 3.26779 
-4.13804 -0.817186 3.56705 
-4.37 -0.797011 3.4721 
-4.59807 -0.78539 3.46985 
-4.82375 -0.777409 3.50664 
-5.05439 -0.762541 3.46983 
-5.72956 -0.739339 3.58748 
0.90159 -0.634968 -0.82341 
0.796048 -0.601969 -1.12962 
0.661964 -0.649164 -0.534339 
0.563427 -0.608095 -0.933553 
0.428039 -0.638333 -0.524817 
0.324282 -0.628467 -0.576507 
0.188877 -0.636825 -0.409425 
0.087077 -0.647153 -0.239135 
-0.0455263 -0.638742 -0.258802 
-0.139524 -0.663429 0.0657807 
-0.275148 -0.64548 -0.0575607 
-0.377881 -0.633154 -0.13697 
-0.504683 -0.661637 0.247682 
-0.611433 -0.631439 -0.0268941 
-0.739434 -0.638797 0.125096 
-0.846198 -0.62503 0.0320123 
-0.97529 -0.626153 0.115744 
-1.07722 -0.624808 0.157211 
-1.21171 -0.599922 -0.0433639 
-1.31084 -0.600517 0.0179847 
-1.44758 -0.583432 -0.0951641 
-1.53586 -0.620527 0.363375 
-1.681 -0.586193 0.0643404 
-1.79143 -0.56197 -0.142186 
-1.91535 -0.569408 0.00847946 
-2.01679 -0.573385 0.10848 
-2.14996 -0.559345 0.0270214 
-2.26042 -0.528336 -0.254442 
-2.37151 -0.57336 0.304331 
-2.49056 -0.529258 -0.117007 
-2.72126 -0.527684 -0.00682 
-2.85558 -0.51646 -0.0565307 
-3.08399 -0.520227 0.111418 
-3.19255 -0.490153 -0.160744 
-3.3224 -0.492743 -0.0603169 
-3.43476 -0.471518 -0.232621 
-3.54785 -0.518689 0.351041 
-3.67155 -0.461171 -0.215921 
-3.89999 -0.464214 -0.0559101 
-4.59479 -0.747997 3.46375 
-5.06537 -0.710476 3.30982 
0.904614 -0.584516 -0.961702 
0.79447 -0.599472 -0.736426 
0.665459 -0.605331 -0.60089 
0.562012 -0.603639 -0.562536 
0.43393 -0.620398 -0.307517 
0.323463 -0.588001 -0.603265 
0.191816 -0.614746 -0.236355 
0.0900147 -0.585631 -0.500743 
-0.0430863 -0.636268 0.129964 
-0.139539 -0.625286 0.0622312 
-0.273724 -0.607376 -0.0609752 
-0.376966 -0.592464 -0.168222 
-0.506293 -0.607548 0.0690875 
-0.608247 -0.617314 0.23278 
-0.73423 -0.609756 0.219028 
-0.850674 -0.566915 -0.188364 
-0.9715 -0.5856 0.0839169 
-1.07597 -0.567618 -0.0564341 
-1.19717 -0.579016 0.135852 
-1.31137 -0.561729 0.00852385 
-1.44238 -0.551547 -0.0313225 
-1.53649 -0.576193 0.291867 
-1.78596 -0.537853 0.00739309 
-1.91105 -0.537392 0.0713043 
-2.013 -0.543178 0.191224 
-2.14875 -0.522743 0.0411582 
-2.2586 -0.49672 -0.184718 
-2.36667 -0.546721 0.425317 
-2.48732 -0.499879 -0.0237722 
-2.71905 -0.494392 0.0436799 
-2.84836 -0.488828 0.0537686 
-2.9391 -0.520258 0.44984 
-3.08191 -0.480106 0.0866356 
-3.18781 -0.464168 -0.0303823 
-3.32295 -0.456948 -0.035273 
-3.43165 -0.439963 -0.16227 
-3.66987 -0.42233 -0.224892 
-3.89452 -0.43396 0.0271524 
-4.13415 -0.410595 -0.0977706 
-4.37098 -0.39226 -0.168859 
-4.34984 -0.75946 3.8621 
-4.61118 -0.676253 3.09039 
-4.7319 -0.626498 2.6093 
-7.99228 -0.0920705 -1.47261 
-8.2307 -0.0772526 -1.50389 
-8.3718 -0.0606131 -1.60905 
0.906137 -0.555443 -0.863696 
0.795819 -0.585715 -0.471032 
0.664112 -0.55166 -0.772214 
0.563548 -0.547793 -0.759364 
0.435688 -0.591345 -0.211376 
0.323954 -0.529927 -0.823672 
0.192685 -0.552881 -0.499739 
0.0922874 -0.573182 -0.221867 
-0.0384341 -0.598759 0.130562 
-0.138273 -0.56492 -0.18575 
-0.269802 -0.573776 -0.0162898 
-0.375038 -0.5701 0.00124237 
-0.505496 -0.578759 0.167952 
-0.602532 -0.586631 0.307664 
-0.732551 -0.57425 0.243348 
-0.847035 -0.544946 -0.0151415 
-0.971101 -0.5419 0.0196769 
-1.08101 -0.504084 -0.334714 
-1.20733 -0.530509 0.0246447 
-1.31588 -0.509428 -0.146901 
-1.44253 -0.518573 0.0230961 
-1.53887 -0.530402 0.205857 
-1.78151 -0.502453 0.0327539 
-1.91462 -0.482024 -0.118113 
-2.02139 -0.47541 -0.131922 
-2.1537 -0.458559 -0.243973 
-2.25628 -0.457326 -0.201047 
-2.37243 -0.486315 0.18089 
-2.47945 -0.472855 0.092136 
-2.71916 -0.453774 0.0147545 
-2.94299 -0.472463 0.343005 
-3.07982 -0.442698 0.091795 
-3.1872 -0.425499 -0.0377625 
-3.31848 -0.424138 0.0195846 
-3.42317 -0.417907 0.00887721 
-3.55109 -0.416379 0.0625531 
-3.65568 -0.406313 0.00972464 
-3.79473 -0.385365 -0.143514 
-3.89217 -0.391905 -0.0180932 
-4.02132 -0.391179 0.0450782 
-4.13278 -0.37261 -0.0972479 
-7.64492 -0.0769824 -1.40461 
-7.90641 -0.0288729 -1.78822 
-7.98714 -0.0549988 -1.45699 
-8.13426 -0.034737 -1.59814 
-8.2426 -0.0179231 -1.72285 
-8.3692 -0.0209499 -1.61976 
0.908818 -0.500573 -1.04897 
0.796916 -0.544536 -0.50705 
0.665967 -0.528368 -0.611999 
0.566702 -0.484475 -1.03739 
0.440342 -0.509459 -0.695001 
0.325706 -0.50512 -0.67958 
0.198042 -0.534194 -0.291746 
0.0915374 -0.508887 -0.509985 
-0.0296628 -0.57264 0.253425 
-0.137386 -0.537825 -0.0680823 
-0.271484 -0.526791 -0.11515 
-0.377692 -0.502225 -0.325446 
-0.50322 -0.54289 0.187956 
-0.605989 -0.529998 0.103407 
-0.734089 -0.523652 0.104315 
-0.842917 -0.490119 -0.202565 
-0.968099 -0.516802 0.157834 
-1.07418 -0.510329 0.145282 
-1.20314 -0.515629 0.273989 
-1.31393 -0.479315 -0.0622014 
-1.43463 -0.497471 0.202532 
-1.55468 -0.437399 -0.388306 
-1.67615 -0.469213 0.0261671 
-1.77515 -0.472834 0.120103 
-1.91217 -0.443577 -0.124529 
-2.01257 -0.442927 -0.0765219 
-2.14932 -0.422828 -0.221177 
-2.25843 -0.4084 -0.319001 
-2.37044 -0.452695 0.226766 
-2.48121 -0.434316 0.0866637 
-2.71856 -0.410866 -0.0393599 
-2.9475 -0.418592 0.170844 
-3.08145 -0.397129 0.00977089 
-3.19311 -0.380629 -0.10929 
-3.31018 -0.400123 0.168155 
-3.42845 -0.363604 -0.166135 
-3.6495 -0.377801 0.110531 
-3.78201 -0.36288 0.0202088 
-3.89857 -0.339117 -0.175546 
-4.02457 -0.33805 -0.117968 
-4.13057 -0.332832 -0.116767 
-4.95488 -0.543247 2.63708 
-7.88767 -0.0140813 -1.53545 
-7.99181 -0.00583076 -1.56833 
-8.13048 0.00308337 -1.58947 
-8.22637 -0.0016993 -1.48437 
-8.60954 0.0317188 -1.6388 
0.912649 -0.433583 -1.36562 
0.798539 -0.475548 -0.846039 
0.667865 -0.489083 -0.627118 
0.566761 -0.469944 -0.780318 
0.441959 -0.509921 -0.276517 
0.325677 -0.479673 -0.542434 
0.198357 -0.4788 -0.482287 
0.0947037 -0.48196 -0.391146 
-0.0269835 -0.539041 0.297298 
-0.138215 -0.482479 -0.258048 
-0.266383 -0.501267 0.0167857 
-0.373822 -0.482783 -0.125795 
-0.5014 -0.507665 0.21512 
-0.597686 -0.514468 0.341937 
-0.840825 -0.461578 -0.101192 
-0.967951 -0.46122 -0.0354926 
-1.06897 -0.482991 0.257012 
-1.20653 -0.45147 -0.0111005 
-1.30387 -0.470026 0.244373 
-1.43061 -0.465974 0.269632 
-1.54779 -0.424834 -0.114428 
-1.77627 -0.419219 -0.0504658 
-1.90338 -0.441266 0.259353 
-2.01481 -0.396169 -0.170951 
-2.14314 -0.397907 -0.0817153 
-2.25582 -0.36765 -0.349655 
-2.36835 -0.415002 0.227919 
-2.4877 -0.367792 -0.221067 
-2.6092 -0.388792 0.0743141 
-2.71424 -0.370458 -0.0678949 
-2.95294 -0.356503 -0.0891363 
-3.08546 -0.35075 -0.0791919 
-3.18604 -0.347834 -0.0558422 
-3.31404 -0.352473 0.06486 
-3.43112 -0.317556 -0.251415 
-3.89441 -0.307707 -0.104751 
-4.02387 -0.297108 -0.149252 
-7.64515 0.00478989 -1.45178 
-7.88353 0.0230718 -1.52008 
-7.98462 0.0256801 -1.49298 
-8.11443 0.0242563 -1.40614 
-8.23635 0.0538791 -1.662 
-8.6341 0.10559 -2.00703 
0.912839 -0.407499 -1.23399 
0.80646 -0.4024 -1.2313 
0.674877 -0.442562 -0.723457 
0.566748 -0.441408 -0.676972 
0.441348 -0.453312 -0.479287 
0.330332 -0.454782 -0.402725 
0.0962606 -0.4407 -0.427838 
-0.0328146 -0.473443 -0.00186707 
-0.134969 -0.445919 -0.244934 
-0.265554 -0.460445 -0.0159171 
-0.372121 -0.423834 -0.355234 
-0.498103 -0.483333 0.359574 
-0.60001 -0.481526 0.395614 
-0.842669 -0.422626 -0.111374 
-0.971387 -0.415849 -0.11465 
-1.07119 -0.426287 0.0532088 
-1.20436 -0.417731 0.0330567 
-1.31202 -0.38474 -0.266346 
-1.42755 -0.452201 0.529263 
-1.54015 -0.403109 0.0577424 
-1.7801 -0.369579 -0.175211 
-1.90278 -0.39223 0.13778 
-2.01545 -0.352644 -0.230482 
-2.14061 -0.366688 -0.00957934 
-2.25276 -0.343746 -0.197391 
-2.36836 -0.382373 0.285213 
-2.48353 -0.340886 -0.10231 
-2.70892 -0.344896 0.0644491 
-2.94726 -0.328765 0.0196122 
-3.08054 -0.317572 -0.0290586 
-3.16564 -0.352537 0.397153 
-3.30785 -0.319908 0.12061 
-3.41935 -0.297511 -0.0616095 
-3.64927 -0.294515 0.0316098 
-3.89782 -0.258528 -0.223216 
-4.27488 -0.471825 2.29934 
-4.50984 -0.452021 2.21286 
-4.73353 -0.46234 2.44736 
-4.83607 -0.512147 3.04439 
-4.96643 -0.443032 2.36518 
-5.17522 -0.47349 2.81025 
-5.40479 -0.463272 2.825 
-5.62995 -0.455336 2.86212 
-5.84288 -0.474398 3.18575 
-6.04991 -0.495797 3.53157 
-7.64198 0.0429596 -1.44738 
-7.8759 0.0523915 -1.42163 
-7.97647 0.0566434 -1.41268 
-8.11776 0.0690144 -1.46961 
-8.2222 0.0774721 -1.50422 
-8.37243 0.103606 -1.70572 
-8.48578 0.118375 -1.80399 
-8.61105 0.116451 -1.71442 
0.904364 -0.425504 -0.621466 
0.805882 -0.401464 -0.827959 
0.675226 -0.392846 -0.850066 
0.56876 -0.399463 -0.720493 
0.445865 -0.405707 -0.586005 
0.334658 -0.406443 -0.517482 
0.09914 -0.411445 -0.33508 
-0.0362606 -0.41135 -0.262361 
-0.129521 -0.414295 -0.179682 
-0.264987 -0.419936 -0.0448503 
-0.371576 -0.374345 -0.480102 
-0.493352 -0.43426 0.234573 
-0.599405 -0.429814 0.244251 
-0.838239 -0.375877 -0.209252 
-0.969357 -0.367516 -0.228264 
-1.0653 -0.411864 0.303916 
-1.19579 -0.378458 0.0135478 
-1.30501 -0.352462 -0.208218 
-1.43233 -0.374632 0.10109 
-1.53902 -0.37272 0.138559 
-1.65747 -0.392566 0.417894 
-1.78203 -0.329557 -0.196035 
-1.90602 -0.339293 -0.0230769 
-2.00276 -0.348264 0.126754 
-2.13711 -0.325518 -0.0461299 
-2.24832 -0.311777 -0.134174 
-2.36493 -0.327209 0.0964191 
-2.47735 -0.317926 0.0572771 
-2.70377 -0.312257 0.119426 
-2.83339 -0.319846 0.27226 
-2.94282 -0.296174 0.075786 
-3.07619 -0.287542 0.0551411 
-3.16022 -0.334673 0.611029 
-3.31489 -0.268146 -0.0245268 
-3.41603 -0.270247 0.0533957 
-3.65155 -0.249789 -0.0394782 
-3.89364 -0.222837 -0.199033 
-4.28275 -0.414476 2.08738 
-4.50484 -0.427335 2.34782 
-4.7297 -0.424245 2.43717 
-4.8568 -0.42413 2.50535 
-4.95469 -0.426926 2.58909 
-5.17164 -0.438495 2.83281 
-5.39047 -0.447667 3.05163 
-5.52616 -0.423849 2.86798 
-5.62105 -0.433079 3.01973 
-5.73989 -0.440884 3.16915 
-5.83101 -0.453035 3.35047 
-6.05405 -0.450632 3.44636 
-7.88372 0.102905 -1.54478 
-7.97591 0.0950428 -1.40927 
-8.1108 0.101027 -1.40027 
-8.21544 0.108923 -1.42852 
-8.36317 0.131931 -1.59676 
-8.61764 0.166654 -1.83344 
0.916071 -0.337688 -1.16512 
0.808097 -0.354294 -0.9274 
0.676474 -0.396454 -0.401259 
0.572339 -0.341085 -0.94176 
0.443405 -0.395101 -0.28921 
0.336744 -0.382318 -0.369101 
0.104301 -0.399103 -0.0617766 
-0.0329624 -0.371957 -0.279925 
-0.127372 -0.388472 -0.0505131 
-0.263992 -0.376839 -0.101695 
-0.36745 -0.369457 -0.125072 
-0.493046 -0.416312 0.448501 
-0.598401 -0.400623 0.336585 
-0.838213 -0.321806 -0.383011 
-0.959823 -0.358943 0.0836157 
-1.06452 -0.369585 0.255314 
-1.19516 -0.349472 0.109448 
-1.30383 -0.311991 -0.235661 
-1.42854 -0.359433 0.343801 
-1.54017 -0.312531 -0.101296 
-1.65788 -0.339186 0.250204 
-1.78172 -0.288134 -0.233009 
-1.90985 -0.279716 -0.254094 
-1.99971 -0.312839 0.152011 
-2.13387 -0.290683 -0.0139334 
-2.24487 -0.281524 -0.0523229 
-2.36549 -0.286212 0.0638745 
-2.47586 -0.272035 -0.0289588 
-2.59579 -0.296428 0.299379 
-2.71036 -0.248354 -0.156743 
-2.83368 -0.268751 0.130357 
-2.95398 -0.220886 -0.320396 
-3.06828 -0.262511 0.19076 
-3.19191 -0.202926 -0.38458 
-3.31054 -0.230486 -0.022755 
-3.41449 -0.227726 0.00406674 
-3.64781 -0.215864 0.00316906 
-3.78804 -0.190459 -0.194471 
-3.87334 -0.227653 0.253138 
-4.26969 -0.405596 2.38828 
-4.49735 -0.401338 2.46639 
-4.63311 -0.372281 2.22695 
-4.72841 -0.387325 2.44114 
-4.85467 -0.383036 2.46369 
-4.95208 -0.388926 2.5803 
-5.06749 -0.410468 2.87557 
-5.16217 -0.417846 3.00675 
-5.40191 -0.385514 2.78869 
-5.51841 -0.401071 3.02001 
-5.60668 -0.41886 3.26002 
-5.73044 -0.417905 3.31719 
-5.82742 -0.419982 3.39248 
-5.95701 -0.408465 3.3389 
-6.05702 -0.40401 3.3454 
-7.87895 0.13871 -1.51526 
-7.97583 0.13421 -1.41387 
-8.11028 0.14005 -1.40351 
-8.23273 0.165753 -1.61397 
-8.37216 0.184248 -1.7374 
-8.46927 0.182398 -1.66445 
-8.62385 0.216507 -1.94805 
0.912972 -0.352244 -0.596887 
0.806008 -0.343872 -0.628883 
0.680108 -0.362733 -0.357935 
0.572269 -0.362366 -0.303419 
0.447335 -0.34088 -0.466607 
0.34011 -0.323088 -0.599685 
0.207524 -0.358949 -0.142387 
0.101116 -0.314 -0.567775 
-0.0288173 -0.358144 -0.0228818 
-0.134307 -0.309049 -0.493327 
-0.257787 -0.346851 -0.020075 
-0.37039 -0.308605 -0.370064 
-0.49291 -0.359184 0.240003 
-0.595273 -0.363731 0.344404 
-0.723395 -0.343263 0.193922 
-0.834041 -0.303471 -0.173734 
-0.963145 -0.303426 -0.104182 
-1.06286 -0.337778 0.319139 
-1.19579 -0.297582 -0.040759 
-1.30433 -0.274722 -0.227568 
-1.42475 -0.327025 0.399951 
-1.53823 -0.270581 -0.14514 
-1.66157 -0.285343 0.0804604 
-1.77292 -0.261699 -0.113236 
-1.90532 -0.236899 -0.307927 
-1.99801 -0.283302 0.241148 
-2.13204 -0.263354 0.0995002 
-2.2453 -0.235252 -0.141067 
-2.36417 -0.254354 0.128791 
-2.4739 -0.235247 -0.017001 
-2.59331 -0.257798 0.29022 
-2.7053 -0.224675 -0.00499062 
-2.83581 -0.222007 0.0371995 
-2.94757 -0.19652 -0.176053 
-3.05353 -0.269287 0.663662 
-3.18812 -0.176103 -0.264868 
-3.30444 -0.216931 0.237175 
-3.40502 -0.20424 0.155396 
-3.53853 -0.198075 0.161658 
-3.65123 -0.159122 -0.19583 
-4.04736 -0.347541 2.0448 
-4.16586 -0.376044 2.41561 
-4.26987 -0.35881 2.28688 
-4.39764 -0.366114 2.43485 
-4.49657 -0.355688 2.37656 
-4.6293 -0.345528 2.3395 
-4.72673 -0.348783 2.42746 
-4.84665 -0.364254 2.65898 
-4.94733 -0.359941 2.66736 
-5.06114 -0.386062 3.01005 
-5.16808 -0.363658 2.82736 
-5.29158 -0.366563 2.92576 
-5.39325 -0.361695 2.92872 
-5.51581 -0.360637 2.98402 
-5.61313 -0.365261 3.08666 
-5.72068 -0.395835 3.47385 
