ply
format ascii 1.0
element vertex 1790
property float x
property float y
property float z
end_header
0.572058 -9.4594 3.23557 
0.447247 -9.46304 3.68502 
0.344738 -9.45806 3.61941 
0.221184 -9.45408 3.65096 
0.120245 -9.44729 3.48357 
-0.00394067 -9.44433 3.57148 
-0.104094 -9.44063 3.5712 
-0.327796 -9.43236 3.56989 
-0.454498 -9.4268 3.52108 
-0.553226 -9.42058 3.38057 
-0.681315 -9.41767 3.47931 
-0.782004 -9.4122 3.38374 
-0.909753 -9.40586 3.29437 
-1.01169 -9.4018 3.27837 
-1.23875 -9.39203 3.20196 
-1.36361 -9.38507 3.07354 
-1.46766 -9.37833 2.91488 
-1.59142 -9.37491 2.97774 
-1.69532 -9.36831 2.82622 
-1.81989 -9.36459 2.87418 
-1.92162 -9.35973 2.81394 
-2.05075 -9.35367 2.74294 
-2.15196 -9.34644 2.55225 
-2.28447 -9.33968 2.4502 
-2.38717 -9.33335 2.31129 
-2.51235 -9.33096 2.43278 
-2.61387 -9.32627 2.38151 
-2.73876 -9.32427 2.52384 
-2.84615 -9.31636 2.30836 
-3.07715 -9.3048 2.14248 
-3.20128 -9.3012 2.19616 
-3.30509 -9.2966 2.15422 
-3.42904 -9.29436 2.2815 
-3.53572 -9.28651 2.06817 
-3.64934 -9.29052 2.51555 
-3.75477 -9.28351 2.34558 
-3.98308 -9.27485 2.3327 
-4.11006 -9.27191 2.42837 
-4.20547 -9.27004 2.51866 
-4.32119 -9.27211 2.8642 
-4.41919 -9.26868 2.87486 
-4.53593 -9.26958 3.15922 
-4.64894 -9.26034 2.88261 
-4.75931 -9.26248 3.22174 
-4.85623 -9.26046 3.30694 
-4.97682 -9.25832 3.43322 
-5.08178 -9.25357 3.38568 
-5.19269 -9.25412 3.63897 
-5.29473 -9.25122 3.68645 
-5.40444 -9.25198 3.94903 
-5.51241 -9.2462 3.85159 
-5.63011 -9.2439 3.96315 
-5.73437 -9.23924 3.91878 
-5.84764 -9.23851 4.10776 
-5.95175 -9.23371 4.05579 
-6.07429 -9.22952 4.07398 
-6.18052 -9.22389 3.98093 
-6.30019 -9.2213 4.08066 
-8.89019 -8.98745 -3.45988 
-9.15966 -8.9708 -3.82509 
2.76924 -9.38317 -3.25097 
2.63391 -9.38199 -3.04672 
2.52443 -9.38118 -2.87428 
1.35307 -9.4507 3.16896 
1.25126 -9.44874 3.26503 
1.12476 -9.44894 3.52606 
1.0271 -9.44241 3.36909 
0.89777 -9.43934 3.46055 
0.802695 -9.43474 3.40191 
0.673662 -9.43184 3.50149 
0.572408 -9.42393 3.27793 
0.44771 -9.42784 3.73449 
0.347441 -9.42131 3.58243 
0.221922 -9.42105 3.81698 
0.12131 -9.41208 3.53514 
-0.00190472 -9.40842 3.58306 
-0.10224 -9.40245 3.46122 
-0.227907 -9.39751 3.44535 
-0.326319 -9.39446 3.47653 
-0.453598 -9.39104 3.54523 
-0.552712 -9.38503 3.41892 
-0.680139 -9.38131 3.4716 
-0.779694 -9.37463 3.31076 
-0.905305 -9.37249 3.44485 
-1.00887 -9.36797 3.40726 
-1.13267 -9.36164 3.31313 
-1.23854 -9.35309 3.0643 
-1.36169 -9.3495 3.11573 
-1.46324 -9.34525 3.08894 
-1.58839 -9.33973 3.04037 
-1.69338 -9.33243 2.85718 
-1.81391 -9.33192 3.06834 
-1.9204 -9.32239 2.7684 
-2.04879 -9.31692 2.72913 
-2.15281 -9.309 2.51044 
-2.2805 -9.30353 2.47043 
-2.38353 -9.29865 2.41233 
-2.51194 -9.2921 2.31595 
-2.61323 -9.2876 2.2749 
-2.73956 -9.28568 2.42232 
-2.84513 -9.27878 2.26149 
-3.07571 -9.26772 2.12566 
-3.19905 -9.26515 2.23226 
-3.30287 -9.2602 2.17232 
-3.42412 -9.25893 2.34447 
-3.52649 -9.25473 2.32261 
-3.64785 -9.25344 2.49371 
-3.75297 -9.24674 2.34278 
-3.97981 -9.23883 2.36822 
-4.10625 -9.23602 2.46848 
-4.2025 -9.23386 2.54361 
-4.32477 -9.23293 2.73631 
-4.41391 -9.23336 2.93618 
-4.53805 -9.23131 3.07264 
-4.62977 -9.23138 3.25839 
-4.75665 -9.22662 3.2547 
-4.85323 -9.22425 3.31918 
-4.97345 -9.22249 3.46338 
-5.08736 -9.21366 3.2158 
-5.19122 -9.21758 3.63215 
-5.29649 -9.21303 3.5973 
-5.4039 -9.21536 3.93544 
-5.50838 -9.2111 3.91438 
-5.62608 -9.20847 4.00665 
-5.73285 -9.20296 3.92285 
-5.85002 -9.20053 4.02532 
-5.95419 -9.19581 3.97864 
-6.06874 -9.19486 4.15529 
-6.17604 -9.18858 4.03136 
-6.29484 -9.18628 4.14407 
-6.7574 -9.16539 3.94139 
-6.98746 -9.15608 3.89878 
2.88347 -9.34562 -3.44137 
2.63376 -9.3444 -3.02007 
2.52738 -9.34194 -2.94289 
1.35448 -9.41521 3.20591 
1.25324 -9.41206 3.2368 
1.12554 -9.4114 3.45118 
1.0278 -9.40675 3.3963 
0.899986 -9.40188 3.38882 
0.803054 -9.39837 3.39259 
0.57412 -9.3873 3.25452 
0.449263 -9.39064 3.67446 
0.34812 -9.38668 3.66258 
0.224644 -9.38324 3.72204 
0.123088 -9.37645 3.56203 
4.96609e-05 -9.37188 3.56059 
-0.10082 -9.36683 3.49113 
-0.324547 -9.35813 3.4684 
-0.451776 -9.35454 3.52728 
-0.550669 -9.34848 3.4005 
-0.678441 -9.34487 3.45941 
-0.778038 -9.34009 3.4016 
-0.903827 -9.33667 3.46662 
-1.00825 -9.32978 3.30688 
-1.13094 -9.32552 3.32114 
-1.23694 -9.31676 3.06617 
-1.35944 -9.31223 3.06597 
-1.46466 -9.30497 2.88827 
-1.58741 -9.30347 3.04906 
-1.69092 -9.29642 2.87873 
-1.81633 -9.29164 2.87154 
-1.9192 -9.28587 2.76772 
-2.04861 -9.27874 2.64412 
-2.14962 -9.27318 2.54782 
-2.27783 -9.2666 2.45099 
-2.38278 -9.26016 2.31623 
-2.50896 -9.25742 2.41777 
-2.61164 -9.25299 2.38489 
-2.73727 -9.24806 2.36982 
-2.84429 -9.24123 2.21825 
-2.9665 -9.23886 2.33196 
-3.07266 -9.23223 2.18932 
-3.19628 -9.2287 2.24461 
-3.30217 -9.22271 2.13526 
-3.41425 -9.22779 2.62278 
-3.52259 -9.21975 2.41 
-3.65261 -9.21407 2.36392 
-3.75315 -9.20945 2.3169 
-3.87672 -9.20794 2.47866 
-3.97863 -9.20171 2.34903 
-4.10469 -9.19907 2.45567 
-4.20061 -9.19791 2.58224 
-4.32376 -9.19583 2.7129 
-4.41692 -9.19404 2.8006 
-4.54372 -9.19115 2.8959 
-4.63415 -9.19264 3.15132 
-4.7529 -9.19133 3.31468 
-4.85866 -9.1852 3.19755 
-4.97093 -9.18647 3.48431 
-5.07295 -9.18248 3.47333 
-5.18707 -9.18244 3.69453 
-5.29219 -9.17823 3.67767 
-5.39998 -9.18014 3.98938 
-5.50928 -9.17356 3.85606 
-5.6224 -9.173 4.04748 
-5.73134 -9.16636 3.91039 
-5.8469 -9.16472 4.04962 
-5.95329 -9.15922 3.96771 
-6.07005 -9.15787 4.1246 
-6.17627 -9.15146 3.99429 
-6.29799 -9.14874 4.08851 
-6.75364 -9.12981 3.98114 
-6.97832 -9.12243 4.03104 
3.5172 -9.23752 -8.28091 
2.88413 -9.30767 -3.42933 
2.77603 -9.30775 -3.21803 
2.5341 -9.30083 -3.1136 
1.35585 -9.38005 3.25915 
1.25517 -9.37595 3.23979 
1.12824 -9.37469 3.41787 
1.03045 -9.3698 3.35193 
0.901826 -9.36717 3.46274 
0.803871 -9.3628 3.42387 
0.576717 -9.35155 3.27648 
0.450445 -9.35616 3.75835 
0.348481 -9.3521 3.74364 
0.226336 -9.34727 3.72779 
0.125131 -9.34155 3.62517 
0.00194606 -9.33453 3.49737 
-0.099521 -9.3285 3.37978 
-0.323 -9.32138 3.43978 
-0.45001 -9.31849 3.53374 
-0.550225 -9.31051 3.31206 
-0.675433 -9.31019 3.53617 
-0.777074 -9.30315 3.36593 
-0.902366 -9.29919 3.40171 
-1.0053 -9.29418 3.33913 
-1.23486 -9.28051 3.0712 
-1.35812 -9.2762 3.08463 
-1.46101 -9.27044 2.98337 
-1.58758 -9.26447 2.917 
-1.68987 -9.25938 2.84914 
-1.81427 -9.25461 2.84101 
-1.91677 -9.25004 2.8008 
-2.04516 -9.24363 2.71492 
-2.14705 -9.23665 2.54864 
-2.28029 -9.22625 2.26507 
-2.38388 -9.22234 2.2613 
-2.50756 -9.21997 2.37626 
-2.60742 -9.21732 2.43076 
-2.73527 -9.21185 2.39261 
-2.84162 -9.20556 2.27098 
-2.96568 -9.20132 2.28923 
-3.07152 -9.19503 2.16681 
-3.19378 -9.19262 2.27667 
-3.30039 -9.18556 2.11527 
-3.41548 -9.1894 2.53647 
-3.52033 -9.18325 2.41915 
-3.64818 -9.17782 2.38289 
-3.75033 -9.17352 2.35667 
-3.87772 -9.16984 2.41049 
-3.97802 -9.16486 2.34508 
-4.10061 -9.16341 2.50611 
-4.20196 -9.15893 2.46833 
-4.31069 -9.16485 2.98539 
-4.40616 -9.1622 3.03197 
-4.53187 -9.1597 3.144 
-4.63709 -9.15322 3.01038 
-4.74776 -9.15657 3.39765 
-4.85621 -9.14977 3.25333 
-4.96634 -9.15159 3.56028 
-5.07033 -9.14656 3.49909 
-5.18304 -9.14712 3.74542 
-5.29 -9.14191 3.68091 
-5.39949 -9.14317 3.95771 
-5.50891 -9.13638 3.81582 
-5.62309 -9.1355 3.99018 
-5.72954 -9.12984 3.9015 
-5.84454 -9.12895 4.07709 
-5.94629 -9.12518 4.07709 
-6.07037 -9.1204 4.06809 
-6.16843 -9.11768 4.11591 
-6.28886 -9.11502 4.21012 
-6.74699 -9.09512 4.05979 
-6.97409 -9.08729 4.09117 
2.63593 -9.26982 -2.94278 
1.35701 -9.34399 3.26545 
1.25768 -9.33784 3.13904 
1.12991 -9.33912 3.44658 
1.03174 -9.33542 3.44301 
0.903685 -9.33172 3.49678 
0.805669 -9.32566 3.37292 
0.578565 -9.31661 3.3405 
0.452017 -9.32176 3.84336 
0.349906 -9.31592 3.73812 
0.226776 -9.31229 3.78633 
0.126232 -9.30617 3.66392 
0.00416445 -9.30093 3.62727 
-0.0968839 -9.29478 3.50461 
-0.320966 -9.28492 3.42539 
-0.448018 -9.28288 3.56225 
-0.546653 -9.27708 3.45255 
-0.673729 -9.27414 3.54327 
-0.773735 -9.26776 3.407 
-0.899639 -9.26488 3.49825 
-1.0047 -9.2568 3.2847 
-1.12729 -9.25275 3.30982 
-1.23424 -9.24285 3.00681 
-1.35695 -9.23937 3.06192 
-1.45874 -9.23484 3.02318 
-1.58508 -9.22984 3.00726 
-1.68674 -9.22416 2.90978 
-1.81488 -9.21709 2.79142 
-1.91361 -9.21409 2.82526 
-2.04484 -9.20608 2.66486 
-2.28592 -9.18158 1.87007 
-2.38174 -9.18665 2.31084 
-2.50686 -9.18376 2.40038 
-2.60941 -9.1781 2.30603 
-2.73317 -9.17567 2.41653 
-2.84045 -9.16803 2.22948 
-3.06947 -9.15845 2.17453 
-3.1914 -9.15601 2.28112 
-3.2967 -9.1502 2.18398 
-3.41538 -9.15112 2.45618 
-3.51909 -9.14587 2.38451 
-3.64785 -9.14045 2.35192 
-3.74724 -9.13762 2.39614 
-3.87612 -9.13286 2.39738 
-3.96985 -9.13232 2.54749 
-4.09653 -9.12878 2.60707 
-4.20228 -9.121 2.41007 
-4.31813 -9.12371 2.76889 
-4.4129 -9.12189 2.85595 
-4.53333 -9.12177 3.07838 
-4.63426 -9.11709 3.03055 
-4.74349 -9.12117 3.44694 
-4.85618 -9.11261 3.22306 
-4.96604 -9.11466 3.5369 
-5.07626 -9.1072 3.3649 
-5.18247 -9.11006 3.71272 
-5.28743 -9.10556 3.68215 
-5.40045 -9.1056 3.89879 
-5.50297 -9.10181 3.89994 
-5.61381 -9.10286 4.16445 
-5.7265 -9.09429 3.94046 
-5.84039 -9.09393 4.13828 
-5.94959 -9.08668 3.97513 
-6.06478 -9.08587 4.15284 
-6.15934 -9.08456 4.26537 
-6.28926 -9.07809 4.18178 
-6.7469 -9.05801 4.02515 
-6.97676 -9.04911 4.00685 
2.8836 -9.2352 -3.23033 
2.6392 -9.23059 -3.00692 
1.35817 -9.30797 3.27308 
1.25872 -9.30529 3.32387 
1.13145 -9.30414 3.50396 
1.03284 -9.30046 3.50302 
0.907252 -9.29278 3.35127 
0.808241 -9.28933 3.36229 
0.57814 -9.27894 3.2694 
0.453707 -9.2865 3.88222 
0.352556 -9.28043 3.7658 
0.229508 -9.27552 3.74849 
0.127748 -9.27208 3.76556 
0.00470275 -9.26431 3.60486 
-0.0954994 -9.25725 3.43686 
-0.319706 -9.24859 3.41996 
-0.446612 -9.2453 3.49181 
-0.54557 -9.24125 3.47311 
-0.670916 -9.23901 3.59416 
-0.770805 -9.23264 3.46042 
-0.899235 -9.22617 3.37503 
-1.00124 -9.21959 3.23504 
-1.23061 -9.20901 3.13156 
-1.35506 -9.20297 3.05985 
-1.45932 -9.19672 2.94059 
-1.58145 -9.19447 3.0555 
-1.68586 -9.18626 2.83768 
-1.81308 -9.18095 2.80879 
-1.91377 -9.17513 2.70387 
-2.0439 -9.16996 2.68717 
-2.50261 -9.14702 2.39094 
-2.60701 -9.14104 2.28519 
-2.73083 -9.14023 2.47622 
-2.83916 -9.13106 2.21751 
-2.96475 -9.12562 2.17856 
-3.06928 -9.12077 2.13021 
-3.18804 -9.12105 2.36637 
-3.29495 -9.11357 2.19002 
-3.41466 -9.11409 2.44039 
-3.51869 -9.10879 2.3681 
-3.64491 -9.10428 2.37772 
-3.74465 -9.10124 2.41146 
-3.87169 -9.09806 2.48918 
-3.97298 -9.09226 2.38648 
-4.09735 -9.0908 2.54582 
-4.19947 -9.08494 2.44252 
-4.31326 -9.08816 2.81718 
-4.40392 -9.08865 3.01177 
-4.53082 -9.08539 3.08542 
-4.63132 -9.08146 3.07566 
-4.74765 -9.08143 3.29217 
-4.84826 -9.07949 3.38286 
-4.96141 -9.07907 3.57374 
-5.07503 -9.07112 3.38619 
-5.18019 -9.07412 3.73446 
-5.28503 -9.06975 3.71078 
-5.39887 -9.06911 3.89209 
-5.49829 -9.06717 3.98042 
-5.61837 -9.06382 4.03708 
-5.72649 -9.0573 3.9113 
-5.83691 -9.05832 4.16943 
-5.94514 -9.0515 4.02894 
-6.06013 -9.05067 4.2028 
-6.1612 -9.04676 4.19515 
-6.28597 -9.04247 4.21298 
-6.74688 -9.02139 4.01605 
-6.96891 -9.01496 4.10881 
-7.21772 -8.99803 3.7229 
2.88564 -9.19784 -3.19532 
2.6383 -9.19512 -2.87558 
1.35892 -9.27354 3.36039 
1.26218 -9.265 3.11594 
1.13303 -9.26751 3.47801 
1.03361 -9.2637 3.47208 
0.907723 -9.25946 3.4939 
0.810873 -9.25204 3.30487 
0.578852 -9.24374 3.32117 
0.454894 -9.25075 3.8967 
0.355139 -9.24486 3.78864 
0.229752 -9.242 3.8781 
0.130984 -9.23417 3.67201 
0.00713875 -9.2292 3.65409 
-0.0932277 -9.22177 3.47093 
-0.317275 -9.21394 3.49587 
-0.445044 -9.20894 3.48354 
-0.543772 -9.20324 3.38345 
-0.669665 -9.20035 3.47211 
-0.771172 -9.19483 3.38568 
-0.897511 -9.19028 3.39326 
-1.0017 -9.18236 3.19287 
-1.125 -9.178 3.20424 
-1.23021 -9.17149 3.0759 
-1.35093 -9.16987 3.21794 
-1.45601 -9.16294 3.06818 
-1.57968 -9.15786 3.04464 
-1.68398 -9.15046 2.87049 
-1.80922 -9.14517 2.8392 
-1.91271 -9.13925 2.737 
-2.03843 -9.13365 2.69151 
-2.50271 -9.10996 2.37409 
-2.60779 -9.10405 2.27503 
-2.7322 -9.10075 2.34078 
-2.83766 -9.09498 2.24949 
-3.06756 -9.08425 2.14196 
-3.18775 -9.08433 2.3679 
-3.29196 -9.07817 2.25489 
-3.41643 -9.07554 2.35408 
-3.51496 -9.07316 2.41819 
-3.64229 -9.06832 2.41318 
-3.74581 -9.06263 2.32232 
-3.96573 -9.05903 2.55019 
-4.09427 -9.05492 2.58343 
-4.19337 -9.05087 2.5661 
-4.30705 -9.05442 2.95156 
-4.41051 -9.04868 2.85842 
-4.51904 -9.05372 3.30858 
-4.62421 -9.04643 3.14133 
-4.74402 -9.04628 3.35509 
-4.85461 -9.03849 3.17325 
-4.95852 -9.04331 3.60452 
-5.06755 -9.03674 3.48014 
-5.17495 -9.03979 3.82958 
-5.28894 -9.03053 3.58135 
-5.39229 -9.03547 4.01681 
-5.49959 -9.02948 3.91843 
-5.61603 -9.0276 4.04043 
-5.72255 -9.02199 3.959 
-5.83797 -9.02093 4.12016 
-5.94397 -9.01498 4.02089 
-6.05817 -9.0147 4.21826 
-6.16656 -9.0075 4.06148 
-6.74685 -8.98457 3.99754 
-6.8423 -8.98171 4.03235 
-6.9696 -8.97727 4.0475 
-7.2024 -8.96665 3.95171 
3.00858 -9.17175 -2.8309 
1.36075 -9.23838 3.4079 
1.26187 -9.23322 3.33586 
1.13507 -9.23266 3.53872 
1.03568 -9.22906 3.54369 
0.910166 -9.22313 3.48233 
0.811508 -9.2153 3.27974 
0.581214 -9.2066 3.27355 
0.457953 -9.21198 3.75969 
0.35543 -9.20973 3.83657 
0.232525 -9.20434 3.79689 
0.131545 -9.1982 3.68073 
0.00742705 -9.19249 3.62761 
-0.0916033 -9.18643 3.51189 
-0.316188 -9.17657 3.43934 
-0.442622 -9.17357 3.52258 
-0.542077 -9.16746 3.4056 
-0.66867 -9.16412 3.47268 
-0.769771 -9.15808 3.36166 
-0.89554 -9.15421 3.40154 
-0.998769 -9.14785 3.27896 
-1.12336 -9.14219 3.22952 
-1.22713 -9.13651 3.14097 
-1.3516 -9.12948 3.02418 
-1.45568 -9.12407 2.94971 
-1.58049 -9.12081 3.01749 
-1.68478 -9.11125 2.74081 
-1.80829 -9.108 2.80666 
-1.91043 -9.10239 2.71869 
-2.03758 -9.09778 2.72529 
-2.14179 -9.08973 2.52187 
-2.27892 -9.07352 1.98046 
-2.49961 -9.07437 2.42326 
-2.60537 -9.06743 2.27729 
-2.73217 -9.06198 2.2418 
-2.83883 -9.05531 2.11045 
-3.06529 -9.04784 2.15791 
-3.18566 -9.04763 2.3669 
-3.29232 -9.04033 2.20496 
-3.41426 -9.03919 2.37116 
-3.51694 -9.03423 2.31602 
-3.64026 -9.03171 2.41758 
-3.74728 -9.02394 2.23335 
-3.96791 -9.02001 2.44294 
-4.09411 -9.01694 2.52315 
-4.19025 -9.01499 2.60312 
-4.30709 -9.01751 2.93871 
-4.40617 -9.01303 2.90037 
-4.52314 -9.01474 3.19696 
-4.62956 -9.0076 3.04222 
-4.7376 -9.01188 3.44833 
-4.8462 -9.00467 3.29425 
-4.95774 -9.00671 3.59682 
-5.06839 -8.99949 3.44615 
-5.17593 -9.00206 3.76762 
-5.28278 -8.99609 3.67061 
-5.39494 -8.99675 3.90742 
-5.49678 -8.99362 3.94009 
-5.61127 -8.99272 4.10494 
-5.72053 -8.98594 3.97324 
-5.83972 -8.98315 4.0541 
-5.94123 -8.97915 4.04407 
-6.05598 -8.97883 4.23773 
-6.16205 -8.97235 4.11484 
-6.28811 -8.96715 4.09073 
-6.73919 -8.95044 4.09715 
-6.84797 -8.94256 3.9111 
-6.96799 -8.94087 4.04747 
-7.19984 -8.93048 3.96316 
2.63579 -9.12444 -2.61053 
1.36389 -9.20168 3.37724 
1.26414 -9.19614 3.28976 
1.13644 -9.19704 3.56183 
1.03811 -9.19178 3.48558 
0.912168 -9.18512 3.39118 
0.81357 -9.18071 3.3559 
0.582621 -9.17026 3.26741 
0.459364 -9.17671 3.79845 
0.358237 -9.17261 3.78291 
0.233802 -9.16923 3.84319 
0.133508 -9.16196 3.67395 
0.0100506 -9.15646 3.63069 
-0.0901788 -9.14901 3.45237 
-0.314137 -9.1394 3.39205 
-0.439096 -9.13801 3.54967 
-0.540534 -9.13159 3.42264 
-0.666387 -9.12921 3.53432 
-0.766367 -9.12474 3.49883 
-0.893436 -9.11919 3.45974 
-0.996795 -9.11167 3.28387 
-1.22685 -9.09828 3.05286 
-1.34875 -9.09504 3.11598 
-1.45271 -9.08786 2.95746 
-1.57757 -9.08466 3.02766 
-1.68137 -9.07783 2.88572 
-1.80677 -9.07232 2.84579 
-1.91128 -9.0636 2.61427 
-2.14117 -9.05249 2.49249 
-2.27722 -9.0382 2.05012 
-2.39153 -9.02396 1.57079 
-2.49803 -9.03781 2.42763 
-2.60343 -9.03051 2.2658 
-2.72692 -9.0279 2.36227 
-2.83229 -9.02251 2.29215 
-2.95957 -9.01544 2.18088 
-3.06283 -9.01068 2.13741 
-3.18352 -9.01084 2.36201 
-3.29152 -9.00259 2.15911 
-3.41136 -9.00286 2.38753 
-3.51573 -8.99697 2.29156 
-3.63897 -8.99499 2.41781 
-3.74104 -8.99069 2.39449 
-3.86827 -8.98665 2.4289 
-3.9652 -8.98402 2.47635 
-4.09012 -8.98266 2.63563 
-4.1827 -8.98103 2.72361 
-4.30454 -8.98099 2.94038 
-4.4026 -8.97805 2.97536 
-4.52567 -8.97591 3.0935 
-4.61979 -8.97486 3.21222 
-4.74109 -8.97244 3.31391 
-4.84856 -8.9667 3.23105 
-4.95248 -8.97173 3.65956 
-5.06487 -8.96369 3.47522 
-5.17419 -8.96582 3.77409 
-5.27907 -8.9613 3.74522 
-5.3891 -8.96249 4.0003 
-5.49621 -8.95699 3.92868 
-5.61766 -8.9527 3.94064 
-5.71813 -8.94999 3.99078 
-5.83714 -8.94765 4.09223 
-5.93949 -8.94288 4.04698 
-6.05392 -8.94266 4.24221 
-6.15834 -8.93702 4.1588 
-6.60893 -8.91952 4.12778 
-6.74083 -8.91303 4.05312 
-6.84122 -8.90796 3.98989 
-6.96831 -8.90395 4.02558 
-7.20423 -8.89188 3.86974 
2.78378 -9.07891 -3.22927 
2.64976 -9.07748 -3.0603 
1.36557 -9.16399 3.30361 
1.26523 -9.16186 3.38027 
1.13914 -9.15837 3.43806 
1.03984 -9.15434 3.42257 
0.912645 -9.15039 3.46084 
0.815374 -9.1437 3.31603 
0.584581 -9.13452 3.28939 
0.461962 -9.13849 3.69421 
0.359072 -9.13653 3.78338 
0.235036 -9.13369 3.86826 
0.134658 -9.12733 3.74495 
0.0125922 -9.11906 3.5694 
-0.0879743 -9.11504 3.55696 
-0.313728 -9.10263 3.36875 
-0.438762 -9.10155 3.53866 
-0.539262 -9.09405 3.36134 
-0.66569 -9.09128 3.45395 
-0.765875 -9.08567 3.36581 
-0.892598 -9.08078 3.35824 
-0.995099 -9.07646 3.33535 
-1.11976 -9.06909 3.20703 
-1.22434 -9.06268 3.08843 
-1.34779 -9.05819 3.09423 
-1.44946 -9.05179 2.97146 
-1.57918 -9.04402 2.83298 
-1.68016 -9.03952 2.79861 
-1.80507 -9.03696 2.8987 
-1.90889 -9.02839 2.67672 
-2.03862 -9.02278 2.64081 
-2.1401 -9.01591 2.49477 
-2.2711 -9.00762 2.33411 
-2.37566 -9.0006 2.18719 
-2.49737 -9.00003 2.37577 
-2.6009 -8.99524 2.33207 
-2.7258 -8.99043 2.32573 
-2.83402 -8.98227 2.13098 
-2.95954 -8.97863 2.18057 
-3.06055 -8.97445 2.1618 
-3.18366 -8.97334 2.32723 
-3.28821 -8.96646 2.18661 
-3.41148 -8.96427 2.30162 
-3.51172 -8.96239 2.38998 
-3.63708 -8.9595 2.47529 
-3.73909 -8.95297 2.34679 
-3.86715 -8.94962 2.41528 
-3.95937 -8.9499 2.59176 
-4.08857 -8.94607 2.63927 
-4.1857 -8.94152 2.59624 
-4.31551 -8.93799 2.65897 
-4.40161 -8.9409 2.94984 
-4.51728 -8.94283 3.24638 
-4.60939 -8.94182 3.36157 
-4.7449 -8.93394 3.22845 
-4.84264 -8.93187 3.30401 
-4.95967 -8.93121 3.4805 
-5.05997 -8.92864 3.53655 
-5.17532 -8.92788 3.7049 
-5.2815 -8.92303 3.66348 
-5.39163 -8.92441 3.92442 
-5.49279 -8.92135 3.95911 
-5.61411 -8.91722 3.97879 
-5.7177 -8.91291 3.9582 
-5.83501 -8.91104 4.07792 
-5.93521 -8.90784 4.10424 
-6.05451 -8.90505 4.18346 
-6.16001 -8.89925 4.09589 
-6.60917 -8.8824 4.09474 
-6.73896 -8.8765 4.04587 
-6.84338 -8.87012 3.9286 
-6.96312 -8.86903 4.08948 
-7.06832 -8.86212 3.9491 
-7.19883 -8.85652 3.91536 
2.53657 -9.04228 -2.7271 
1.36767 -9.12694 3.26141 
1.26852 -9.12268 3.23557 
1.14072 -9.1217 3.4128 
1.04174 -9.11911 3.46464 
0.914548 -9.11371 3.43471 
0.817871 -9.10783 3.32928 
0.587013 -9.09573 3.16728 
0.463747 -9.09968 3.56693 
0.360434 -9.101 3.80909 
0.237531 -9.0975 3.86051 
0.137441 -9.09052 3.70937 
0.014543 -9.08605 3.7154 
-0.0865096 -9.07964 3.59281 
-0.311731 -9.06772 3.42971 
-0.437966 -9.06468 3.50842 
-0.537971 -9.05725 3.3365 
-0.662641 -9.05654 3.52117 
-0.764833 -9.04852 3.32521 
-0.891079 -9.04442 3.35425 
-0.993468 -9.03862 3.26275 
-1.2219 -9.02592 3.06898 
-1.34507 -9.02233 3.11668 
-1.4485 -9.01479 2.94549 
-1.57603 -9.00879 2.88816 
-1.67911 -9.00249 2.77454 
-1.8052 -8.99855 2.81066 
-1.90611 -8.99281 2.71914 
-2.13739 -8.98112 2.57774 
-2.27092 -8.9687 2.23174 
-2.37118 -8.9665 2.30429 
-2.49652 -8.96301 2.36024 
-2.60064 -8.95641 2.23441 
-2.72549 -8.95203 2.24839 
-2.83083 -8.94649 2.17374 
-2.95725 -8.94136 2.15549 
-3.05878 -8.93849 2.19883 
-3.1809 -8.93692 2.33928 
-3.28879 -8.92869 2.14384 
-3.41167 -8.92667 2.26462 
-3.51579 -8.92131 2.19614 
-3.63523 -8.92251 2.46122 
-3.73809 -8.91636 2.35389 
-3.86436 -8.91459 2.49249 
-3.96103 -8.91083 2.48585 
-4.08085 -8.91279 2.78728 
-4.17995 -8.90775 2.72517 
-4.29996 -8.9084 2.96579 
-4.3979 -8.9052 2.98784 
-4.52082 -8.90314 3.10655 
-4.61964 -8.9005 3.1563 
-4.73786 -8.90007 3.34341 
-4.84051 -8.89569 3.31834 
-4.95104 -8.89787 3.61378 
-5.06249 -8.89022 3.4517 
-5.16492 -8.89618 3.90945 
-5.27876 -8.8867 3.66628 
-5.3915 -8.88741 3.89652 
-5.49354 -8.88404 3.91792 
-5.61412 -8.87994 3.93778 
-5.7165 -8.87632 3.94808 
-5.83352 -8.87481 4.08265 
-5.93687 -8.86986 4.03243 
-6.05461 -8.86851 4.17569 
-6.15665 -8.86375 4.13207 
-6.83792 -8.83547 4.005 
-6.96383 -8.83134 4.03287 
-7.06644 -8.82562 3.94585 
-7.19154 -8.82206 3.99846 
3.0033 -9.03041 -2.32755 
1.36889 -9.0921 3.32328 
1.2704 -9.08618 3.22078 
1.14144 -9.08832 3.54127 
1.04464 -9.08048 3.34775 
0.916468 -9.0759 3.35791 
0.820216 -9.07053 3.27653 
0.692148 -9.06308 3.1545 
0.58994 -9.05339 2.88525 
0.466059 -9.05803 3.31206 
0.363317 -9.06507 3.81326 
0.239354 -9.06121 3.84899 
0.139324 -9.05366 3.67429 
0.0151136 -9.04736 3.59835 
-0.0852171 -9.0409 3.47434 
-0.31088 -9.03144 3.42828 
-0.436027 -9.02964 3.56149 
-0.534346 -9.02365 3.45509 
-0.66119 -9.02095 3.54975 
-0.761503 -9.01448 3.42518 
-0.887831 -9.00948 3.41289 
-0.992326 -9.00221 3.25879 
-1.21962 -8.99146 3.15612 
-1.34536 -8.98463 3.05883 
-1.44643 -8.98032 3.03495 
-1.57411 -8.97303 2.91977 
-1.67543 -8.96789 2.85828 
-1.80414 -8.96011 2.72232 
-1.90548 -8.95461 2.64409 
-2.03065 -8.9524 2.75843 
-2.13376 -8.94351 2.52704 
-2.26615 -8.93555 2.38959 
-2.36902 -8.93068 2.34275 
-2.49486 -8.92605 2.34696 
-2.60034 -8.91936 2.22146 
-2.72549 -8.91439 2.20848 
-2.82849 -8.91052 2.2083 
-2.95445 -8.9054 2.19022 
-3.05619 -8.90181 2.20058 
-3.17717 -8.90161 2.40018 
-3.28698 -8.89147 2.12351 
-3.40605 -8.89311 2.40455 
-3.51119 -8.88671 2.29135 
-3.63425 -8.88455 2.40482 
-3.73708 -8.87895 2.32428 
-3.86228 -8.87708 2.45461 
-3.96111 -8.87271 2.42408 
-4.08574 -8.87134 2.57633 
-4.18591 -8.86779 2.58609 
-4.29834 -8.87225 2.98588 
-4.39532 -8.86892 3.0002 
-4.51282 -8.87031 3.26703 
-4.62294 -8.86208 3.07878 
-4.73476 -8.86463 3.3891 
-4.84128 -8.85872 3.30143 
-4.95261 -8.85988 3.5473 
-5.05709 -8.85497 3.50163 
-5.1627 -8.86007 3.91916 
-5.27695 -8.85046 3.67409 
-5.39021 -8.85069 3.88084 
-5.48811 -8.84933 3.98744 
-5.61152 -8.84406 3.95806 
-5.71039 -8.84219 4.04292 
-5.83051 -8.83921 4.1135 
-5.93217 -8.83516 4.10298 
-6.04985 -8.83336 4.22386 
-6.15269 -8.82843 4.17477 
-6.27635 -8.82405 4.18704 
-6.61244 -8.80695 3.98095 
-6.73567 -8.80376 4.04755 
-6.83718 -8.79852 3.98191 
-6.95735 -8.79724 4.13094 
-7.06435 -8.78937 3.95374 
1.37061 -9.05448 3.25702 
1.27155 -9.05181 3.30424 
1.14321 -9.05194 3.5288 
1.04611 -9.04535 3.39515 
0.917874 -9.04258 3.48757 
0.822473 -9.03333 3.23045 
0.591117 -9.02283 3.14763 
0.467589 -9.02184 3.31337 
0.364496 -9.02901 3.81391 
0.24129 -9.02356 3.77628 
0.141107 -9.01844 3.71475 
0.0168231 -9.01092 3.58519 
-0.0823649 -9.00643 3.55039 
-0.30689 -8.99814 3.55675 
-0.433285 -8.99379 3.57479 
-0.532699 -8.98635 3.4066 
-0.660079 -8.98103 3.38214 
-0.760812 -8.97813 3.42221 
-0.885744 -8.97385 3.44087 
-0.989408 -8.9654 3.2341 
-1.21584 -8.95599 3.19288 
-1.3432 -8.94876 3.08159 
-1.4462 -8.94232 2.96479 
-1.5731 -8.93605 2.89654 
-1.67328 -8.93109 2.84241 
-1.80125 -8.92501 2.78467 
-1.90417 -8.91748 2.61828 
-2.03227 -8.91434 2.69413 
-2.13196 -8.9075 2.55364 
-2.26329 -8.8993 2.40558 
-2.36957 -8.89108 2.21384 
-2.49233 -8.8906 2.4013 
-2.59344 -8.88655 2.38996 
-2.72374 -8.87759 2.20551 
-2.82773 -8.8735 2.19714 
-3.0538 -8.8652 2.2057 
-3.17908 -8.86194 2.27155 
-3.28308 -8.85715 2.23179 
-3.40404 -8.85541 2.35902 
-3.50982 -8.8495 2.27112 
-3.62684 -8.85109 2.54272 
-3.73173 -8.84432 2.41473 
-3.96097 -8.83541 2.40118 
-4.07816 -8.83826 2.73048 
-4.18335 -8.83124 2.59125 
-4.29978 -8.83366 2.89988 
-4.40021 -8.82976 2.89422 
-4.51451 -8.83203 3.19219 
-4.61662 -8.82687 3.13231 
-4.73359 -8.82786 3.37719 
-4.84106 -8.82102 3.25009 
-4.94816 -8.82504 3.61529 
-5.04989 -8.82013 3.56604 
-5.16748 -8.82036 3.77743 
-5.27143 -8.81616 3.7642 
-5.38225 -8.81774 4.02509 
-5.49376 -8.80927 3.83119 
-5.60769 -8.80897 4.01189 
-5.71604 -8.80199 3.8802 
-5.82835 -8.80295 4.11567 
-5.93044 -8.79882 4.10225 
-6.04496 -8.79862 4.28882 
-6.15127 -8.79213 4.17566 
-6.60028 -8.77507 4.16847 
-6.83187 -8.76374 4.04965 
-6.95484 -8.7609 4.13098 
-7.05748 -8.75503 4.04007 
-7.18529 -8.75024 4.041 
-7.29243 -8.74316 3.90253 
1.37249 -9.01896 3.28628 
1.27207 -9.01736 3.38335 
1.14485 -9.01601 3.5368 
1.04784 -9.01017 3.43868 
0.920344 -9.00566 3.45095 
0.824109 -8.99572 3.16809 
0.593324 -8.99852 3.68131 
0.469456 -8.99157 3.57888 
0.36638 -8.99258 3.79726 
0.242737 -8.99058 3.91553 
0.142107 -8.98437 3.80717 
0.0195688 -8.97685 3.67649 
-0.0812566 -8.96899 3.4947 
-0.30587 -8.95982 3.46221 
-0.432323 -8.95691 3.54452 
-0.532063 -8.95092 3.44428 
-0.656202 -8.95002 3.61302 
-0.759731 -8.94072 3.37107 
-0.884349 -8.93659 3.39581 
-0.98744 -8.92979 3.265 
-1.11244 -8.92461 3.24368 
-1.21576 -8.9186 3.14882 
-1.34215 -8.91074 3.00963 
-1.44617 -8.90407 2.88637 
-1.57084 -8.89908 2.87289 
-1.67417 -8.89196 2.72826 
-1.80089 -8.88706 2.72199 
-1.90027 -8.88352 2.73119 
-2.03138 -8.87693 2.65695 
-2.13239 -8.87085 2.555 
-2.26259 -8.86336 2.43881 
-2.36592 -8.8562 2.29218 
-2.49179 -8.85209 2.32037 
-2.59285 -8.84904 2.35401 
-2.72207 -8.8407 2.1984 
-2.82733 -8.83525 2.13167 
-2.94751 -8.83641 2.38606 
-3.05317 -8.82762 2.17087 
-3.1777 -8.82491 2.25892 
-3.28347 -8.81806 2.13061 
-3.40288 -8.81876 2.36318 
-3.50769 -8.81341 2.30043 
-3.63169 -8.81111 2.40631 
-3.7279 -8.80942 2.49264 
-3.85227 -8.80679 2.58435 
-3.95452 -8.80189 2.53744 
-4.07585 -8.80259 2.77315 
-4.17707 -8.7976 2.72067 
-4.29284 -8.79952 3.00175 
-4.39572 -8.79422 2.9376 
-4.5189 -8.7919 3.0413 
-4.61335 -8.79169 3.19147 
-4.73536 -8.78967 3.30642 
-4.83754 -8.78518 3.27781 
-4.94805 -8.78807 3.59359 
-5.05144 -8.78379 3.57621 
-5.16567 -8.78386 3.77175 
-5.2722 -8.77811 3.69417 
-5.38169 -8.78067 3.99334 
-5.48781 -8.7752 3.92762 
-5.60953 -8.771 3.94501 
-5.71276 -8.76657 3.92042 
-5.82848 -8.76572 4.07777 
-5.93088 -8.76142 4.05783 
-6.04591 -8.76116 4.24045 
-6.15017 -8.75548 4.16201 
-6.60238 -8.73701 4.09795 
-6.82596 -8.72903 4.11822 
-6.95132 -8.72538 4.1663 
-7.06103 -8.71661 3.95875 
-7.17996 -8.71571 4.11924 
-7.28322 -8.70972 4.02538 
1.37272 -8.98516 3.39296 
1.274 -8.98129 3.38626 
1.14542 -8.98086 3.58067 
1.04862 -8.97887 3.65371 
0.921355 -8.97066 3.50264 
0.824702 -8.96194 3.27831 
0.5948 -8.96124 3.62947 
0.470454 -8.95536 3.57637 
0.367933 -8.9541 3.69119 
0.243605 -8.95447 3.914 
0.144145 -8.94708 3.7532 
0.0207412 -8.94251 3.75654 
-0.0797881 -8.9335 3.52568 
-0.303831 -8.92536 3.53895 
-0.428412 -8.92314 3.6478 
-0.529594 -8.91599 3.50057 
-0.655563 -8.91194 3.53095 
-0.756108 -8.90653 3.45924 
-0.882345 -8.89995 3.37892 
-0.982448 -8.89714 3.42109 
-1.10996 -8.89025 3.32925 
-1.21318 -8.88159 3.1183 
-1.33851 -8.87791 3.16425 
-1.44385 -8.86825 2.91325 
-1.57018 -8.86175 2.83638 
-1.67138 -8.85747 2.8156 
-1.7975 -8.85196 2.78198 
-1.90177 -8.84361 2.58707 
-2.02795 -8.84025 2.64867 
-2.13025 -8.8346 2.56908 
-2.25884 -8.82839 2.50914 
-2.36549 -8.81729 2.19661 
-2.49026 -8.81543 2.32184 
-2.59544 -8.80929 2.22569 
-2.72144 -8.8038 2.19317 
-2.82336 -8.79883 2.14306 
-2.94664 -8.79792 2.30821 
-3.05212 -8.79161 2.2049 
-3.17493 -8.78916 2.3011 
-3.28141 -8.78144 2.13755 
-3.40128 -8.78345 2.42583 
-3.50379 -8.7776 2.33797 
-3.62428 -8.77764 2.54044 
-3.72894 -8.77066 2.40638 
-3.84916 -8.77205 2.66801 
-3.95643 -8.76244 2.42241 
-4.07904 -8.76324 2.6615 
-4.17319 -8.76272 2.79522 
-4.29185 -8.76334 3.02039 
-4.40062 -8.7545 2.81126 
-4.51 -8.75949 3.21368 
-4.60868 -8.75711 3.27276 
-4.72811 -8.75577 3.41241 
-4.83771 -8.74779 3.24258 
-4.94237 -8.75323 3.65705 
-5.05162 -8.74583 3.51254 
-5.17035 -8.74441 3.64726 
-5.27459 -8.73935 3.5975 
-5.38163 -8.74339 3.95421 
-5.48713 -8.73829 3.90484 
-5.60303 -8.73743 4.05998 
-5.70996 -8.73079 3.94504 
-5.82633 -8.7298 4.0951 
-5.92813 -8.7256 4.0795 
-6.04733 -8.72336 4.17891 
-6.14957 -8.71855 4.13728 
-6.60177 -8.70035 4.0873 
-6.72345 -8.69766 4.171 
-6.82689 -8.69164 4.07771 
-6.94911 -8.68915 4.17166 
-7.05312 -8.68292 4.07005 
-7.18328 -8.67752 4.04851 
-7.24953 -8.68666 4.56261 
1.37443 -8.94978 3.42604 
1.27578 -8.94328 3.30517 
1.14835 -8.94273 3.49005 
1.0505 -8.9407 3.56233 
0.924437 -8.93306 3.43662 
0.826118 -8.92772 3.36543 
0.595662 -8.92282 3.53007 
0.472442 -8.91934 3.58096 
0.369727 -8.91577 3.59388 
0.246016 -8.91809 3.89793 
0.145756 -8.91125 3.76458 
0.0229425 -8.90322 3.61688 
-0.0782461 -8.89718 3.51995 
-0.302163 -8.88793 3.48483 
-0.428977 -8.88504 3.56728 
-0.528186 -8.87978 3.50118 
-0.654201 -8.87514 3.50588 
-0.755912 -8.86804 3.3639 
-0.88274 -8.861 3.26579 
-0.983526 -8.85719 3.26509 
-1.11056 -8.85077 3.19436 
-1.21266 -8.84567 3.1398 
-1.33734 -8.83973 3.08615 
-1.44257 -8.83113 2.88465 
-1.56787 -8.82602 2.86777 
-1.67091 -8.82024 2.78527 
-1.79446 -8.81646 2.82365 
-1.89997 -8.80718 2.59299 
-2.03085 -8.79885 2.44553 
-2.13125 -8.79477 2.43273 
-2.25734 -8.79144 2.49506 
-2.35764 -8.78642 2.44127 
-2.48707 -8.77963 2.35828 
-2.59366 -8.77121 2.16682 
-2.71963 -8.76815 2.24048 
-2.8226 -8.76234 2.1565 
-2.94493 -8.76115 2.30602 
-3.04861 -8.7565 2.27395 
-3.17473 -8.75309 2.33278 
-3.27946 -8.74515 2.15906 
-3.39969 -8.74636 2.40949 
-3.49895 -8.74362 2.45333 
-3.62584 -8.73936 2.47647 
-3.72656 -8.73471 2.43936 
-3.85022 -8.73295 2.56617 
-3.9504 -8.72976 2.59212 
-4.08061 -8.72446 2.57509 
-4.18072 -8.71999 2.54518 
-4.29686 -8.7222 2.83226 
-4.4015 -8.71647 2.75499 
-4.51106 -8.72138 3.14905 
-4.60498 -8.72064 3.27154 
-4.72691 -8.71922 3.40992 
-4.83373 -8.71244 3.29061 
-4.94308 -8.71594 3.62308 
-5.05012 -8.70831 3.46688 
-5.16069 -8.7121 3.81359 
-5.26587 -8.70677 3.75459 
-5.38047 -8.70691 3.94941 
-5.48927 -8.69997 3.82606 
-5.60405 -8.69954 3.99635 
-5.70362 -8.69687 4.04396 
-5.82432 -8.69345 4.09395 
-5.92358 -8.69083 4.14284 
-6.04344 -8.68823 4.22694 
-6.14538 -8.68347 4.1875 
-6.59878 -8.6646 4.11216 
-6.82696 -8.6547 4.05682 
-6.94776 -8.6529 4.17736 
-7.05421 -8.64571 4.0394 
-7.292 -8.63193 3.83075 
1.37853 -8.90946 3.24241 
1.27772 -8.90812 3.34809 
1.15013 -8.90873 3.58123 
1.05186 -8.90202 3.45221 
0.925936 -8.89421 3.3209 
0.827113 -8.89088 3.33817 
0.5968 -8.88736 3.56049 
0.475075 -8.88346 3.59018 
0.372215 -8.87465 3.3786 
0.248057 -8.88238 3.91202 
0.148115 -8.87443 3.7326 
0.0238045 -8.87036 3.75936 
-0.0768153 -8.85951 3.45661 
-0.301014 -8.84925 3.37947 
-0.427018 -8.84822 3.5395 
-0.5287 -8.84165 3.42264 
-0.653163 -8.83677 3.41489 
-0.753976 -8.83125 3.34111 
-0.879961 -8.82727 3.37451 
-0.981073 -8.82309 3.35928 
-1.10758 -8.81605 3.26184 
-1.21132 -8.80777 3.07449 
-1.33882 -8.79982 2.93988 
-1.43999 -8.79543 2.9157 
-1.56682 -8.79085 2.92458 
-1.66614 -8.78654 2.90074 
-1.79501 -8.77849 2.76424 
-1.89803 -8.77139 2.62631 
-2.02469 -8.7657 2.58752 
-2.12626 -8.75996 2.5057 
-2.25462 -8.75452 2.48033 
-2.35839 -8.74543 2.25823 
-2.4858 -8.74308 2.36455 
-2.59217 -8.73386 2.14084 
-2.71537 -8.73242 2.27922 
-2.8219 -8.72509 2.13705 
-2.9441 -8.72288 2.24089 
-3.04886 -8.71752 2.18076 
-3.17282 -8.71474 2.26249 
-3.27534 -8.71005 2.22763 
-3.39657 -8.71034 2.43681 
-3.49773 -8.70636 2.43011 
-3.62716 -8.70098 2.40928 
-3.72337 -8.6995 2.50198 
-3.84706 -8.69801 2.63898 
-3.94772 -8.69349 2.60813 
-4.06563 -8.69591 2.90395 
-4.17024 -8.68809 2.73793 
-4.29233 -8.68785 2.92587 
-4.39404 -8.68279 2.87402 
-4.51329 -8.6829 3.0725 
-4.60439 -8.68395 3.26571 
-4.7247 -8.68338 3.43685 
-4.83373 -8.67538 3.27049 
-4.94143 -8.67958 3.6261 
-5.04866 -8.67286 3.5115 
-5.16143 -8.67438 3.75994 
-5.26972 -8.66806 3.6646 
-5.37461 -8.673 4.04759 
-5.4868 -8.66372 3.83128 
-5.60408 -8.66225 3.95887 
-5.70653 -8.65827 3.95427 
-5.82554 -8.65566 4.03585 
-5.92359 -8.65353 4.10365 
-6.04038 -8.65245 4.24724 
-6.14335 -8.64736 4.1962 
-6.59684 -8.62844 4.1209 
-6.8192 -8.62115 4.16916 
-6.9437 -8.61774 4.22546 
-7.05152 -8.6095 4.04685 
-7.17693 -8.60575 4.08988 
-7.27531 -8.60177 4.0786 
1.37939 -8.87514 3.32326 
1.2797 -8.87195 3.34768 
1.15154 -8.87125 3.52316 
1.05344 -8.87127 3.68138 
0.927134 -8.85907 3.36653 
0.830767 -8.85321 3.27244 
0.601242 -8.85229 3.60127 
0.475965 -8.84722 3.5869 
0.373535 -8.84457 3.63874 
0.24953 -8.84636 3.91352 
0.149342 -8.83943 3.78019 
0.0258099 -8.83298 3.70496 
-0.0748556 -8.82424 3.49583 
-0.298805 -8.81629 3.51792 
-0.425614 -8.81166 3.52493 
-0.527101 -8.80542 3.42297 
-0.650811 -8.8024 3.49337 
-0.752048 -8.7966 3.40973 
-0.879962 -8.78854 3.2735 
-0.980267 -8.78332 3.21303 
-1.20964 -8.7729 3.13908 
-1.33355 -8.76877 3.1628 
-1.43969 -8.75786 2.87025 
-1.56519 -8.75407 2.911 
-1.66555 -8.7492 2.86568 
-1.79275 -8.74282 2.79904 
-1.89506 -8.73607 2.67697 
-2.12384 -8.72476 2.56449 
-2.25501 -8.71578 2.3944 
-2.3548 -8.71143 2.37004 
-2.4881 -8.70224 2.19444 
-2.58832 -8.70129 2.31477 
-2.71508 -8.69341 2.18411 
-2.82019 -8.68891 2.16219 
-2.94249 -8.68623 2.24486 
-3.04654 -8.6817 2.21981 
-3.17269 -8.67733 2.23716 
-3.27427 -8.67302 2.21719 
-3.39558 -8.67232 2.38233 
-3.49674 -8.66953 2.42665 
-3.62135 -8.66833 2.57588 
-3.7222 -8.66268 2.49801 
-3.84228 -8.664 2.74686 
-3.94994 -8.65365 2.48082 
-4.06765 -8.65658 2.79402 
-4.16927 -8.65137 2.73647 
-4.29182 -8.65021 2.88417 
-4.38296 -8.65116 3.07102 
-4.50708 -8.64901 3.17921 
-4.60682 -8.64573 3.20044 
-4.72434 -8.64583 3.39339 
-4.81988 -8.64447 3.48907 
-4.94066 -8.64268 3.60728 
-5.04888 -8.63636 3.51335 
-5.1603 -8.63746 3.73881 
-5.26773 -8.63171 3.66769 
-5.37795 -8.63394 3.9397 
-5.48566 -8.62733 3.83238 
-5.59667 -8.62895 4.07942 
-5.70725 -8.62062 3.90387 
-5.82828 -8.61703 3.94618 
-5.9256 -8.61541 4.03393 
-6.03977 -8.61574 4.2314 
-6.14518 -8.60957 4.13923 
-6.59635 -8.59144 4.09608 
-6.72008 -8.58821 4.15791 
-6.81876 -8.58434 4.15242 
-6.94401 -8.58028 4.18199 
-7.04537 -8.57486 4.11504 
-7.17114 -8.57094 4.15112 
-7.28185 -8.56187 3.94429 
1.38015 -8.83969 3.35469 
1.28157 -8.83508 3.31782 
1.15333 -8.83743 3.61904 
1.05654 -8.8303 3.4743 
0.928472 -8.82567 3.48316 
0.831302 -8.81979 3.39106 
0.604961 -8.81525 3.5596 
0.477889 -8.81119 3.59103 
0.375795 -8.80239 3.38492 
0.252291 -8.80899 3.85663 
0.150931 -8.80112 3.68795 
0.026934 -8.79737 3.72727 
-0.0728733 -8.79131 3.63186 
-0.297752 -8.77819 3.43956 
-0.424064 -8.77691 3.586 
-0.524044 -8.77059 3.48016 
-0.647143 -8.76712 3.53006 
-0.751318 -8.75714 3.27753 
-0.8768 -8.75314 3.30897 
-0.978824 -8.74782 3.24827 
-1.20791 -8.73544 3.09318 
-1.33225 -8.73177 3.13691 
-1.43841 -8.72031 2.82568 
-1.56718 -8.71276 2.71384 
-1.66535 -8.71046 2.77341 
-1.79569 -8.70145 2.60324 
-1.89429 -8.69661 2.55691 
-2.02045 -8.69276 2.59581 
-2.12382 -8.6872 2.52728 
-2.25048 -8.68164 2.49528 
-2.35543 -8.67301 2.30086 
-2.48318 -8.66895 2.33352 
-2.5879 -8.66153 2.18917 
-2.71522 -8.65602 2.16049 
-2.81986 -8.65036 2.08946 
-2.9418 -8.64837 2.19975 
-3.04559 -8.64413 2.18721 
-3.16805 -8.64255 2.31528 
-3.27294 -8.6358 2.19908 
-3.39412 -8.63667 2.42773 
-3.49626 -8.63154 2.37537 
-3.6247 -8.6268 2.38083 
-3.72184 -8.62484 2.45317 
-3.84129 -8.62643 2.70908 
-3.94684 -8.6184 2.54065 
-4.06821 -8.61906 2.76113 
-4.16376 -8.61715 2.83249 
-4.2841 -8.61646 2.9949 
-4.38297 -8.61379 3.04001 
-4.50657 -8.61187 3.15616 
-4.60235 -8.61054 3.25235 
-4.7251 -8.60764 3.32596 
-4.83038 -8.60244 3.27569 
-4.94238 -8.60471 3.54847 
-5.04919 -8.59882 3.47169 
-5.15601 -8.60296 3.81467 
-5.26294 -8.59727 3.74648 
-5.37784 -8.59639 3.89222 
-5.48699 -8.58946 3.77535 
-5.60017 -8.58966 3.9637 
-5.70243 -8.58593 3.97019 
-5.82192 -8.58312 4.04234 
-5.92038 -8.58095 4.10805 
-6.0374 -8.57963 4.2386 
-6.1409 -8.57436 4.18267 
-6.26218 -8.57152 4.25646 
-6.71464 -8.55395 4.24008 
-6.82077 -8.54634 4.09014 
-6.94418 -8.54297 4.14538 
-7.04142 -8.53949 4.15449 
-7.28248 -8.5243 3.90163 
1.38057 -8.80799 3.54074 
1.28376 -8.79733 3.25207 
1.15498 -8.80059 3.58825 
1.05816 -8.79279 3.41778 
0.931379 -8.78918 3.46716 
0.83225 -8.77973 3.23226 
0.606359 -8.77355 3.33055 
0.479855 -8.77517 3.59547 
0.3777 -8.76629 3.38889 
0.254035 -8.77421 3.9095 
0.15341 -8.76689 3.76476 
0.0281791 -8.75867 3.6214 
-0.0710959 -8.75393 3.58152 
-0.294285 -8.744 3.52087 
-0.42172 -8.74078 3.5874 
-0.522101 -8.73272 3.4119 
-0.648382 -8.72932 3.46923 
-0.748068 -8.72428 3.41729 
-0.872985 -8.71953 3.41701 
-0.975154 -8.71372 3.33712 
-1.10152 -8.7074 3.274 
-1.20491 -8.7012 3.17989 
-1.33387 -8.69062 2.94517 
-1.43286 -8.68918 3.04069 
-1.56264 -8.67684 2.73426 
-1.66293 -8.67409 2.77792 
-1.79087 -8.66794 2.72467 
-1.89253 -8.65926 2.52537 
-2.02011 -8.65366 2.49429 
-2.12384 -8.64821 2.43166 
-2.2497 -8.64589 2.53301 
-2.35391 -8.63629 2.30016 
-2.48195 -8.63152 2.30361 
-2.58684 -8.62296 2.11468 
-2.71386 -8.61975 2.18128 
-2.81513 -8.6162 2.19353 
-2.9399 -8.61228 2.2271 
-3.04371 -8.60746 2.19081 
-3.1683 -8.60449 2.26372 
-3.27116 -8.5997 2.22702 
-3.39077 -8.60067 2.45469 
-3.49391 -8.59561 2.40756 
-3.62143 -8.59111 2.42204 
-3.71842 -8.58942 2.50432 
-3.8463 -8.58441 2.49776 
-3.94754 -8.57973 2.46343 
-4.06575 -8.58186 2.73695 
-4.16488 -8.57834 2.74712 
-4.28598 -8.57834 2.93724 
-4.38309 -8.5763 3.00556 
-4.50113 -8.57766 3.24701 
-4.60575 -8.57181 3.16945 
-4.72184 -8.57227 3.37092 
-4.82472 -8.5679 3.35198 
-4.94209 -8.56729 3.51099 
-5.04617 -8.56291 3.49329 
-5.15589 -8.56549 3.77261 
-5.26725 -8.55734 3.61059 
-5.37624 -8.55995 3.88954 
-5.48149 -8.55522 3.85936 
-5.59878 -8.55311 3.95665 
-5.70545 -8.54702 3.8725 
-5.81852 -8.54787 4.08529 
-5.927 -8.54045 3.949 
-6.03536 -8.54346 4.24378 
-6.14077 -8.5373 4.15481 
-6.58958 -8.52065 4.172 
-6.70805 -8.5198 4.32326 
-6.81753 -8.51045 4.1089 
-6.9408 -8.50732 4.17323 
-7.04522 -8.50063 4.06068 
-7.26813 -8.4934 4.1125 
1.38369 -8.76591 3.29503 
1.28444 -8.7634 3.34622 
1.15705 -8.76542 3.62589 
1.05914 -8.75976 3.54654 
0.933027 -8.75259 3.44949 
0.833996 -8.74358 3.23518 
0.609368 -8.73597 3.27295 
0.481636 -8.73911 3.59857 
0.379938 -8.73026 3.3952 
0.255547 -8.73713 3.86833 
0.154839 -8.73076 3.7643 
0.031354 -8.72403 3.6811 
-0.0689579 -8.71741 3.56655 
-0.293408 -8.70693 3.48699 
-0.419775 -8.70548 3.62349 
-0.519071 -8.6957 3.37862 
-0.64659 -8.69345 3.48414 
-0.747231 -8.68715 3.38336 
-0.872362 -8.68245 3.38542 
-0.973159 -8.67623 3.28803 
-1.1002 -8.67131 3.28436 
-1.20399 -8.66351 3.12697 
-1.3313 -8.65488 2.97255 
-1.43118 -8.65227 3.0206 
-1.5587 -8.6431 2.84445 
-1.66365 -8.63555 2.69916 
-1.78859 -8.63151 2.72783 
-1.89014 -8.62343 2.55598 
-2.01974 -8.61734 2.50858 
-2.12106 -8.614 2.52935 
-2.25157 -8.60505 2.36674 
-2.35375 -8.59701 2.19712 
-2.48155 -8.59273 2.22073 
-2.58605 -8.58507 2.07013 
-2.71333 -8.58167 2.12886 
-2.8145 -8.57634 2.06834 
-2.93801 -8.57634 2.26018 
-3.04124 -8.57125 2.21251 
-3.16724 -8.56605 2.19589 
-3.26928 -8.56283 2.22288 
-3.39146 -8.5622 2.3866 
-3.49543 -8.55602 2.2959 
-3.61926 -8.55309 2.36856 
-3.71942 -8.55063 2.42372 
-3.84195 -8.54974 2.57739 
-3.94238 -8.54551 2.56075 
-4.06322 -8.54476 2.71761 
-4.16197 -8.54242 2.77563 
-4.28311 -8.54325 2.99741 
-4.38432 -8.53793 2.93748 
-4.49951 -8.54109 3.24536 
-4.60152 -8.53633 3.20933 
-4.72625 -8.53226 3.23706 
-4.82664 -8.52931 3.27249 
-4.93903 -8.53177 3.54754 
-5.04879 -8.52418 3.40844 
-5.15603 -8.52769 3.71809 
-5.26502 -8.52047 3.59272 
-5.37446 -8.52379 3.89834 
-5.48324 -8.51648 3.76909 
-5.59954 -8.51521 3.89803 
-5.70682 -8.50892 3.80801 
-5.81517 -8.51294 4.14035 
-5.92163 -8.50579 4.01389 
-6.03855 -8.50467 4.15005 
-6.1362 -8.50242 4.20992 
-6.93481 -8.47359 4.27461 
-7.03831 -8.46679 4.15808 
-7.26628 -8.45694 4.11037 
1.38686 -8.72876 3.25357 
1.2873 -8.7243 3.22629 
1.15957 -8.72545 3.46828 
1.0607 -8.72082 3.43327 
0.934964 -8.71519 3.39923 
0.835612 -8.70855 3.28378 
0.609027 -8.69986 3.28077 
0.480955 -8.70897 3.84392 
0.381206 -8.70049 3.65508 
0.257203 -8.70028 3.83657 
0.15683 -8.69533 3.79097 
0.0318286 -8.6871 3.65097 
-0.0670217 -8.68269 3.62494 
-0.291431 -8.66895 3.41523 
-0.41873 -8.66714 3.53756 
-0.51812 -8.66017 3.40915 
-0.644821 -8.6571 3.47976 
-0.746056 -8.64957 3.33149 
-0.871335 -8.6442 3.30737 
-0.970023 -8.64201 3.37019 
-1.10024 -8.6318 3.15863 
-1.20308 -8.62636 3.09722 
-1.32725 -8.62216 3.11851 
-1.43319 -8.60997 2.78976 
-1.55763 -8.60593 2.81772 
-1.65864 -8.6028 2.8465 
-1.78868 -8.59165 2.59688 
-1.88787 -8.5885 2.6221 
-2.01666 -8.58208 2.56099 
-2.12227 -8.57349 2.37712 
-2.24817 -8.56947 2.40817 
-2.35003 -8.56224 2.27308 
-2.47983 -8.55561 2.20493 
-2.5856 -8.54809 2.06435 
-2.70995 -8.54571 2.15915 
-2.81526 -8.53792 2.00695 
-3.04141 -8.53265 2.14167 
-3.16083 -8.5338 2.37105 
-3.26608 -8.52737 2.27369 
-3.39436 -8.5223 2.26608 
-3.49121 -8.52106 2.36476 
-3.61225 -8.5205 2.52817 
-3.71735 -8.51489 2.46349 
-3.93928 -8.51109 2.65082 
-4.0574 -8.51193 2.86618 
-4.16235 -8.50499 2.74744 
-4.28444 -8.50407 2.89775 
-4.38668 -8.49899 2.85034 
-4.498 -8.50433 3.23644 
-4.59718 -8.5015 3.2747 
-4.71637 -8.50048 3.41667 
-4.83328 -8.48812 3.09788 
-4.93719 -8.49527 3.54589 
-5.0431 -8.48911 3.46009 
-5.15434 -8.49157 3.73041 
-5.26146 -8.48564 3.65569 
-5.37406 -8.48695 3.88146 
-5.47445 -8.48445 3.93528 
-5.59351 -8.48143 3.99644 
-5.70109 -8.47484 3.89619 
-5.82011 -8.47237 3.97946 
-5.91981 -8.46958 4.02012 
-6.03509 -8.46947 4.19307 
-6.13617 -8.46534 4.18182 
-6.25602 -8.46295 4.26986 
-6.70613 -8.44626 4.28931 
-6.81022 -8.43974 4.1863 
-6.93163 -8.43788 4.29802 
-7.03868 -8.42936 4.11948 
-7.26283 -8.42124 4.13668 
1.38789 -8.69521 3.35993 
1.28678 -8.69427 3.4757 
1.16091 -8.69018 3.5034 
1.06082 -8.68546 3.46751 
0.937536 -8.67926 3.40743 
0.838364 -8.67259 3.29259 
0.610516 -8.6621 3.22055 
0.483397 -8.6724 3.82273 
0.383555 -8.66456 3.66224 
0.259332 -8.66394 3.82589 
0.158936 -8.65509 3.62575 
0.0340054 -8.6517 3.68024 
-0.065395 -8.64669 3.63158 
-0.289879 -8.63418 3.47428 
-0.414351 -8.63473 3.68474 
-0.517925 -8.62383 3.40821 
-0.642485 -8.62219 3.53152 
-0.744215 -8.61483 3.39309 
-0.869616 -8.60994 3.3889 
-0.969259 -8.60448 3.32266 
-1.09837 -8.59666 3.20722 
-1.20222 -8.58817 3.02675 
-1.32722 -8.58348 3.03001 
-1.42793 -8.57851 2.9849 
-1.55634 -8.57085 2.87488 
-1.65921 -8.56294 2.71633 
-1.78672 -8.55533 2.60684 
-1.88889 -8.54812 2.47498 
-2.01783 -8.54326 2.47711 
-2.11707 -8.54044 2.51552 
-2.24655 -8.53139 2.35196 
-2.34758 -8.52623 2.29987 
-2.47567 -8.52115 2.292 
-2.58471 -8.50813 1.93927 
-2.70683 -8.50964 2.18466 
-2.81178 -8.50331 2.09194 
-2.93447 -8.503 2.26601 
-3.0382 -8.49698 2.18396 
-3.16179 -8.49577 2.32325 
-3.26445 -8.49004 2.25091 
-3.38575 -8.49063 2.45872 
-3.49062 -8.48426 2.36443 
-3.61312 -8.48291 2.49677 
-3.71385 -8.47932 2.50677 
-3.83906 -8.47646 2.58294 
-3.94385 -8.46894 2.44283 
-4.05884 -8.47379 2.81065 
-4.15785 -8.47021 2.81834 
-4.27493 -8.47282 3.10009 
-4.38499 -8.46286 2.87096 
-4.49662 -8.46806 3.24747 
-4.60232 -8.46204 3.16825 
-4.71524 -8.46381 3.41009 
-4.82969 -8.45294 3.15172 
-4.93996 -8.45619 3.44844 
-5.03902 -8.45397 3.51071 
-5.15656 -8.45306 3.6531 
-5.26086 -8.44807 3.613 
-5.37197 -8.45083 3.89157 
-5.47848 -8.44461 3.8058 
-5.59676 -8.44243 3.89884 
-5.69668 -8.43985 3.94798 
-5.81918 -8.43565 3.96716 
-5.91879 -8.43238 3.98847 
-6.03277 -8.43375 4.21604 
-6.14403 -8.42408 4.00042 
-6.25553 -8.42651 4.2665 
-6.93509 -8.39928 4.21603 
-7.03609 -8.3934 4.13554 
-7.26427 -8.38373 4.09788 
1.39008 -8.65841 3.33446 
1.28883 -8.65778 3.46112 
1.16189 -8.65438 3.51785 
1.06468 -8.64756 3.39565 
0.939273 -8.63884 3.24085 
0.840279 -8.63533 3.25123 
0.612968 -8.62471 3.17478 
0.485229 -8.63642 3.8263 
0.385702 -8.6286 3.66795 
0.261348 -8.62758 3.81448 
0.160155 -8.62011 3.67279 
0.0354514 -8.61588 3.69324 
-0.0635483 -8.6101 3.61481 
-0.288113 -8.59811 3.48027 
-0.412949 -8.59631 3.59665 
-0.515637 -8.5877 3.41242 
-0.641941 -8.58337 3.43141 
-0.741646 -8.57841 3.38616 
-0.868899 -8.5723 3.33712 
-0.968753 -8.56721 3.28673 
-1.09789 -8.55831 3.1306 
-1.19944 -8.55374 3.10325 
-1.32217 -8.55073 3.16895 
-1.42841 -8.53934 2.88101 
-1.55506 -8.53269 2.80949 
-1.65658 -8.52883 2.81001 
-1.78362 -8.52146 2.71099 
-1.88719 -8.51338 2.54897 
-2.01357 -8.5096 2.5902 
-2.11808 -8.49989 2.36525 
-2.24299 -8.49668 2.42648 
-2.34928 -8.48615 2.17231 
-2.47551 -8.48312 2.24246 
-2.57836 -8.47734 2.16989 
-2.70523 -8.47255 2.17192 
-2.80968 -8.46742 2.12723 
-2.93356 -8.46578 2.24846 
-3.03707 -8.4602 2.18463 
-3.16069 -8.45747 2.26285 
-3.26443 -8.45193 2.20085 
-3.38761 -8.45027 2.32089 
-3.48649 -8.44865 2.40558 
-3.61301 -8.44472 2.44099 
-3.71355 -8.44099 2.44538 
-3.8352 -8.44136 2.64259 
-3.94253 -8.43224 2.44529 
-4.05575 -8.43741 2.81858 
-4.16227 -8.42984 2.68128 
-4.27308 -8.43546 3.0687 
-4.38338 -8.42614 2.86777 
-4.49779 -8.42953 3.17326 
-4.59501 -8.42771 3.24755 
-4.71919 -8.42379 3.28031 
-4.82452 -8.41806 3.21319 
-4.93711 -8.4206 3.48217 
-5.03859 -8.41732 3.50587 
-5.15207 -8.41819 3.71051 
-5.25732 -8.413 3.66486 
-5.36985 -8.41465 3.89902 
-5.46988 -8.41254 3.9664 
-5.59161 -8.40806 3.9734 
-5.69394 -8.40421 3.97585 
-5.81236 -8.40223 4.07602 
-5.92245 -8.3936 3.90233 
-6.0369 -8.39406 4.0923 
-6.13398 -8.39208 4.16065 
-6.25825 -8.38765 4.17339 
-6.93111 -8.36375 4.24583 
-7.02646 -8.36092 4.27789 
-7.25751 -8.3495 4.17647 
1.39049 -8.62288 3.36144 
1.29175 -8.61911 3.3614 
1.16308 -8.62153 3.64582 
1.06535 -8.61398 3.49781 
0.940613 -8.60595 3.3711 
0.842299 -8.59843 3.22473 
0.61489 -8.59056 3.25641 
0.488683 -8.59625 3.66457 
0.387305 -8.59531 3.77845 
0.263371 -8.58957 3.73951 
0.161522 -8.58126 3.56778 
0.0378593 -8.57858 3.64731 
-0.0621296 -8.57176 3.53081 
-0.287229 -8.56094 3.44457 
-0.411115 -8.56175 3.66008 
-0.511746 -8.5546 3.53177 
-0.639674 -8.54665 3.41268 
-0.739939 -8.5417 3.36929 
-0.866887 -8.53684 3.36902 
-0.969527 -8.52727 3.14996 
-1.09488 -8.52347 3.18857 
-1.19652 -8.51992 3.20148 
-1.3225 -8.51232 3.09322 
-1.42532 -8.50581 2.99332 
-1.55369 -8.49512 2.76875 
-1.65669 -8.48928 2.69468 
-1.78395 -8.48322 2.64856 
-1.88699 -8.47704 2.56141 
-2.01269 -8.46951 2.45546 
-2.1151 -8.46486 2.42734 
-2.23817 -8.46139 2.47512 
-2.34419 -8.45307 2.30971 
-2.47537 -8.44457 2.17434 
-2.57981 -8.43687 2.03046 
-2.7059 -8.43431 2.11809 
-2.80856 -8.43025 2.11314 
-2.93117 -8.42955 2.26807 
-3.03621 -8.42252 2.1512 
-3.15639 -8.42386 2.38153 
-3.26086 -8.41638 2.24651 
-3.38544 -8.41488 2.37329 
-3.48515 -8.41202 2.41044 
-3.61126 -8.40851 2.46139 
-3.71356 -8.40324 2.40858 
-3.83367 -8.40391 2.61317 
-3.9353 -8.39946 2.59141 
-4.05406 -8.40203 2.86778 
-4.1537 -8.39761 2.84415 
-4.27891 -8.39446 2.90788 
-4.37837 -8.39164 2.94654 
-4.50244 -8.38865 3.01489 
-4.59256 -8.39123 3.2488 
-4.716 -8.38834 3.3203 
-4.81883 -8.3833 3.27718 
-4.93192 -8.3862 3.55801 
-5.03475 -8.38209 3.55148 
-5.15839 -8.37717 3.54412 
-5.25957 -8.37444 3.58867 
-5.36771 -8.37854 3.90863 
-5.47726 -8.37059 3.76299 
-5.59187 -8.37069 3.93718 
-5.69422 -8.36681 3.93879 
-5.81455 -8.36382 4.00172 
-5.91292 -8.3615 4.0582 
-6.03415 -8.35847 4.12067 
-6.12988 -8.35712 4.21088 
-6.25367 -8.35319 4.24249 
-7.02214 -8.32584 4.3239 
-7.2602 -8.31112 4.10619 
1.39502 -8.58454 3.27376 
1.29351 -8.58416 3.40805 
1.16756 -8.58006 3.4356 
1.06853 -8.57612 3.42997 
0.94082 -8.57379 3.5277 
0.843297 -8.56548 3.35209 
0.617946 -8.55631 3.33114 
0.490738 -8.55866 3.60779 
0.389694 -8.55733 3.70525 
0.265172 -8.55487 3.79361 
0.163808 -8.54677 3.63176 
0.0408722 -8.54273 3.65728 
-0.0600754 -8.53514 3.51436 
-0.285125 -8.52397 3.41589 
-0.410877 -8.52455 3.62298 
-0.508925 -8.51767 3.5029 
-0.637659 -8.51309 3.51621 
-0.738309 -8.50488 3.34899 
-0.864235 -8.5031 3.46572 
-0.966171 -8.49329 3.23889 
-1.09222 -8.48789 3.21702 
-1.19725 -8.47795 2.98984 
-1.321 -8.47627 3.10736 
-1.42406 -8.46664 2.88917 
-1.55049 -8.45937 2.79603 
-1.65569 -8.4493 2.56425 
-1.78248 -8.44653 2.64427 
-1.885 -8.44114 2.58803 
-2.01046 -8.43527 2.54709 
-2.11164 -8.42906 2.45733 
-2.2413 -8.42142 2.35485 
-2.34606 -8.41449 2.24295 
-2.47065 -8.41047 2.27153 
-2.57776 -8.40109 2.06932 
-2.70501 -8.39654 2.0815 
-2.80387 -8.3966 2.22908 
-2.93103 -8.39304 2.27971 
