ply
format ascii 1.0
element vertex 1828
property float x
property float y
property float z
end_header
-3.76749 6.03373 1.52979 
-4.01085 6.0977 1.192 
6.32241 6.44325 -5.15589 
5.88112 6.27782 -3.84422 
5.797 6.36171 -4.38299 
5.6084 6.18666 -3.10929 
5.37575 6.23153 -3.32047 
5.26114 6.20872 -3.11761 
5.10968 6.17382 -2.8169 
5.02146 6.21616 -3.07005 
4.83211 6.05882 -1.91717 
4.71177 6.02781 -1.65588 
4.58723 6.06195 -1.83809 
4.46608 6.01164 -1.44453 
4.23383 6.04816 -1.59882 
4.1142 6.09888 -1.89632 
3.8443 5.99639 -1.0852 
3.77301 6.1301 -1.96965 
3.63272 6.12018 -1.84428 
3.4961 5.98944 -0.894784 
3.24008 5.92344 -0.338639 
3.0088 5.95038 -0.427802 
2.89906 6.05829 -1.12017 
2.79136 6.05605 -1.06065 
2.2872 5.84917 0.560155 
2.15328 5.85278 0.590465 
2.04853 5.79081 1.05703 
1.92167 5.84194 0.759667 
1.81415 5.81278 1.00316 
1.68695 5.82971 0.939704 
1.5798 5.84432 0.883859 
1.45541 5.84486 0.931273 
1.34962 5.86985 0.803941 
1.22204 5.88088 0.781029 
1.1195 5.85734 0.984013 
0.987117 5.86828 0.963621 
0.886667 5.87803 0.938317 
0.753655 5.8961 0.869483 
0.650088 5.93902 0.618701 
0.520007 5.93101 0.726899 
0.415847 5.94645 0.664243 
0.288215 5.95322 0.670418 
0.181858 5.98101 0.524232 
0.0543132 5.95705 0.740399 
-0.0505148 5.99344 0.534827 
-0.180322 5.97835 0.691287 
-0.283598 6.01253 0.500196 
-0.412993 5.96668 0.866758 
-0.513844 6.00331 0.657887 
-0.651313 6.02173 0.588516 
-0.752943 6.01535 0.673988 
-0.882174 6.03077 0.621709 
-0.991412 6.08164 0.31899 
-1.11424 6.05536 0.54913 
-1.22692 6.11094 0.215622 
-1.46117 6.12608 0.208502 
-1.58686 6.08395 0.54818 
-1.69129 6.09453 0.518898 
-1.82893 6.16014 0.127102 
-1.93089 6.13795 0.320692 
-2.05494 6.09322 0.677531 
-2.16591 6.15745 0.284188 
-2.28629 6.0931 0.773569 
-2.38874 6.11008 0.699653 
-2.50923 6.0587 1.10045 
-2.60853 6.04656 1.22435 
-2.73788 6.05415 1.22571 
-2.85924 6.14863 0.629959 
-2.96625 6.03428 1.45558 
-3.07762 6.06907 1.26369 
-3.30329 6.04357 1.53095 
-3.42958 6.05354 1.51483 
-3.53676 6.06566 1.47612 
-3.66191 6.07368 1.47289 
-3.77038 6.09899 1.34454 
5.88263 6.31636 -3.84084 
5.78362 6.35389 -4.05614 
5.63773 6.324 -3.79254 
5.53204 6.33806 -3.8451 
5.39259 6.34046 -3.80432 
5.08968 6.14101 -2.32008 
5.0149 6.22884 -2.88833 
4.8322 6.09646 -1.91082 
4.73418 6.12812 -2.08651 
4.57391 6.05533 -1.52445 
4.50317 6.16301 -2.22976 
4.25506 6.14856 -2.02947 
4.11392 6.12402 -1.80434 
3.98128 6.04208 -1.19123 
3.85212 6.05297 -1.21249 
3.76092 6.12024 -1.63382 
3.63052 6.13441 -1.67702 
3.51682 6.11533 -1.50029 
3.23619 5.93766 -0.173702 
3.10947 5.9624 -0.290457 
3.03438 6.07449 -1.02403 
2.88455 6.02107 -0.598298 
2.38973 5.83728 0.85794 
2.15418 5.86871 0.740225 
2.05423 5.88151 0.693908 
1.92267 5.87841 0.769065 
1.81818 5.89692 0.685679 
1.68888 5.85976 0.992125 
1.58037 5.84747 1.12048 
1.45447 5.84721 1.17392 
1.35504 5.91424 0.75759 
1.22599 5.90193 0.894542 
1.11949 5.89111 1.01204 
0.988897 5.91613 0.894989 
0.885581 5.93102 0.835875 
0.757616 5.95042 0.756078 
0.653793 5.96794 0.679258 
0.522228 5.95433 0.826038 
0.41609 6.04472 0.25321 
0.289751 5.96271 0.864386 
0.184344 6.03096 0.442206 
0.0592492 5.98068 0.836495 
-0.0470015 6.04015 0.474573 
-0.179036 6.04826 0.47346 
-0.282342 6.06519 0.400431 
-0.413094 6.02641 0.718652 
-0.516881 6.06292 0.512236 
-0.648417 6.05815 0.598861 
-0.755906 6.0851 0.459221 
-0.882907 6.07828 0.557902 
-0.991863 6.13832 0.193195 
-1.11393 6.09451 0.542161 
-1.22695 6.16234 0.125973 
-1.35722 6.14211 0.317501 
-1.46308 6.17531 0.134567 
-1.58977 6.14029 0.425474 
-1.69324 6.16242 0.317094 
-1.81484 6.13322 0.566207 
-1.92474 6.16457 0.397602 
-2.0589 6.17802 0.361051 
-2.15523 6.15545 0.55459 
-2.38634 6.14715 0.70621 
-2.50682 6.09083 1.13982 
-2.60558 6.08294 1.23427 
-2.73421 6.0697 1.37746 
-2.84008 6.10227 1.19888 
-2.96224 6.04983 1.60681 
-3.07297 6.09598 1.33763 
-3.30118 6.07773 1.55599 
-3.42489 6.08303 1.57072 
-3.53491 6.10825 1.444 
-3.65374 6.081 1.67876 
-3.75619 6.07203 1.78208 
-3.99616 6.12791 1.49971 
6.05243 6.45532 -4.5896 
5.89319 6.38844 -4.06935 
5.81174 6.47769 -4.6433 
5.38046 6.32059 -3.39771 
5.12381 6.27364 -2.9732 
5.00659 6.24538 -2.73295 
4.83946 6.16165 -2.09478 
4.72795 6.14102 -1.90881 
4.57948 6.10633 -1.61196 
4.48336 6.1331 -1.75475 
4.26818 6.21109 -2.19732 
4.09688 6.09814 -1.35869 
3.98325 6.07494 -1.15433 
3.85991 6.11387 -1.36866 
3.75052 6.11617 -1.33953 
3.61538 6.10752 -1.2254 
3.50132 6.0828 -1.01043 
3.37857 6.10988 -1.14444 
3.2486 6.01163 -0.422737 
3.10737 5.98676 -0.195676 
3.01764 6.04443 -0.551308 
2.88768 6.0653 -0.640073 
2.75834 5.92178 0.389481 
2.38853 5.85297 1.00918 
2.29017 5.91605 0.620218 
2.14985 5.8576 1.07544 
2.05745 5.90568 0.786145 
1.92225 5.91542 0.775237 
1.81915 5.90115 0.914602 
1.68802 5.88646 1.06831 
1.58151 5.8959 1.04775 
1.46198 5.92158 0.921996 
1.35545 5.93114 0.900576 
1.22458 5.87949 1.30572 
1.12619 5.93808 0.947358 
0.988236 5.93257 1.04139 
0.890731 5.96975 0.828394 
0.757415 5.99779 0.692233 
0.652045 5.99414 0.760248 
0.524982 5.97786 0.923124 
0.421658 6.00735 0.764847 
0.294574 5.9973 0.885368 
0.186462 6.06036 0.500556 
0.0617385 6.02305 0.805635 
-0.0463202 6.0909 0.388214 
-0.175487 6.07604 0.542383 
-0.278208 6.06548 0.656374 
-0.41226 6.08471 0.580503 
-0.516212 6.1099 0.451716 
-0.645233 6.06923 0.78142 
-0.748826 6.06538 0.850117 
-0.8798 6.11451 0.569524 
-0.98632 6.13311 0.486704 
-1.11321 6.15313 0.402546 
-1.22928 6.20601 0.0903469 
-1.34257 6.11075 0.785083 
-1.45934 6.21527 0.121735 
-1.58472 6.16668 0.503867 
-1.69695 6.22327 0.164822 
-1.81686 6.17976 0.510168 
-1.92057 6.19873 0.423627 
-2.05447 6.19889 0.477522 
-2.14382 6.14151 0.904752 
-2.28464 6.176 0.727857 
-2.37582 6.13343 1.05503 
-2.50938 6.15808 0.942075 
-2.59952 6.08238 1.49433 
-2.73846 6.13662 1.18229 
-2.8344 6.10901 1.40954 
-2.96862 6.15094 1.17936 
-3.06713 6.09171 1.62294 
-3.30049 6.12447 1.49591 
-3.4236 6.12091 1.5707 
-3.53146 6.14425 1.45622 
-3.6548 6.12838 1.61487 
-3.76035 6.12987 1.64817 
-3.89098 6.14702 1.58516 
5.90809 6.46365 -4.31988 
5.75733 6.3384 -3.40785 
5.64127 6.40764 -3.83052 
5.11414 6.27107 -2.68768 
4.99822 6.25592 -2.53739 
4.83773 6.18258 -1.97388 
4.7362 6.19753 -2.03386 
4.57677 6.13248 -1.52701 
4.45974 6.08776 -1.17552 
4.24163 6.16214 -1.59133 
4.09648 6.12791 -1.29959 
3.98703 6.12336 -1.22393 
3.85766 6.13632 -1.25903 
3.78436 6.27353 -2.16067 
3.62036 6.15178 -1.26692 
3.48519 6.04963 -0.518076 
3.23556 5.95565 0.222077 
3.1231 6.07348 -0.531935 
3.00876 6.03183 -0.202357 
2.88525 6.08581 -0.518358 
2.76334 5.9742 0.289356 
2.64452 6.05667 -0.222004 
2.38179 5.85057 1.28487 
2.29778 6.01691 0.189821 
2.14925 5.87796 1.19404 
2.0543 5.92292 0.927646 
1.92145 5.93233 0.918093 
1.82254 5.96116 0.762883 
1.68971 5.92388 1.07032 
1.58479 5.94379 0.97811 
1.45994 5.93074 1.11784 
1.35866 5.97765 0.840801 
1.22524 5.94024 1.14942 
1.12443 5.9676 1.00494 
0.990737 5.98887 0.915213 
0.888933 6.03412 0.649668 
0.755769 6.00608 0.894622 
0.656525 6.05376 0.611497 
0.524822 6.03035 0.824375 
0.42046 6.08059 0.526023 
0.295433 6.03781 0.867671 
0.188409 6.10272 0.470788 
0.060748 6.06835 0.756464 
-0.0454994 6.11421 0.488568 
-0.175063 6.11249 0.553371 
-0.280466 6.15931 0.278649 
-0.407121 6.10929 0.670161 
-0.51735 6.16234 0.355115 
-0.645394 6.13871 0.568078 
-0.745234 6.11395 0.77708 
-0.878513 6.16812 0.463879 
-0.983539 6.16864 0.503409 
-1.11358 6.20396 0.316866 
-1.22136 6.21033 0.317834 
-1.3458 6.19037 0.504343 
-1.45463 6.21973 0.349611 
-1.583 6.20272 0.517782 
-1.6966 6.27335 0.0847091 
-1.82291 6.25765 0.24313 
-1.92279 6.26478 0.235647 
-2.05492 6.24072 0.453226 
-2.15596 6.24639 0.456219 
-2.27559 6.1877 0.903817 
-2.37885 6.1989 0.870103 
-2.51033 6.20711 0.868315 
-2.6132 6.20272 0.940311 
-2.73835 6.18574 1.10696 
-2.84314 6.18355 1.16486 
-2.96562 6.17498 1.27334 
-3.06488 6.13378 1.59382 
-3.41952 6.13447 1.73474 
-3.52997 6.18154 1.4604 
-3.65757 6.18436 1.49363 
-3.75547 6.15585 1.72746 
-3.8825 6.15149 1.8092 
-3.99119 6.20115 1.51662 
6.34008 6.61551 -5.25906 
6.06791 6.56756 -4.82299 
5.65196 6.47819 -4.04764 
5.26626 6.34527 -2.98952 
5.12949 6.34722 -2.94689 
4.9927 6.27005 -2.36818 
4.83924 6.22117 -1.97437 
4.74038 6.23699 -2.0412 
4.60821 6.26041 -2.1459 
4.48339 6.2039 -1.71205 
4.2499 6.22416 -1.75391 
4.09631 6.16771 -1.30876 
4.00905 6.23132 -1.70408 
3.87081 6.21218 -1.51795 
3.7455 6.15896 -1.10622 
3.63014 6.22415 -1.50073 
3.50336 6.15564 -0.984771 
3.3529 6.06551 -0.312661 
3.25519 6.12082 -0.647513 
3.15024 6.22604 -1.31752 
3.01039 6.06969 -0.201076 
2.89484 6.16224 -0.780885 
2.76452 6.01249 0.286922 
2.63325 6.01151 0.347221 
2.53094 6.01176 0.387342 
2.38887 5.93987 0.932456 
2.29578 5.97825 0.710455 
2.15572 5.95084 0.953438 
2.0517 5.89838 1.35139 
1.92284 5.95324 1.0324 
1.82427 5.96596 0.986469 
1.69305 5.96935 1.01715 
1.58746 6.00069 0.847992 
1.45911 5.96883 1.11633 
1.35906 6.00549 0.908903 
1.22838 5.98135 1.12585 
1.12405 5.98652 1.13352 
0.993568 5.99726 1.1141 
0.894893 6.05672 0.751618 
0.759777 6.0552 0.817141 
0.656905 6.1126 0.470312 
0.527893 6.06633 0.836586 
0.421347 6.13129 0.440058 
0.296081 6.05931 0.978987 
0.191101 6.10595 0.705962 
0.0588512 6.13491 0.563857 
-0.0462506 6.20924 0.103236 
-0.17542 6.15592 0.51733 
-0.280029 6.16682 0.48632 
-0.408209 6.15715 0.604272 
-0.514306 6.18696 0.44576 
-0.643062 6.16423 0.652444 
-0.743905 6.1827 0.568586 
-0.875675 6.18915 0.578829 
-0.987284 6.26867 0.0857074 
-1.1162 6.27092 0.123244 
-1.22328 6.30929 -0.0929007 
-1.35145 6.28567 0.119597 
-1.45856 6.30856 0.0083932 
-1.58597 6.29152 0.176032 
-1.68624 6.26102 0.423785 
-1.82262 6.3122 0.132833 
-1.92256 6.3041 0.22863 
-2.04821 6.2503 0.644693 
-2.15806 6.31057 0.281306 
-2.2813 6.27581 0.567289 
-2.37253 6.20652 1.07423 
-2.50544 6.22433 1.00798 
-2.59844 6.15959 1.48482 
-2.73524 6.20672 1.22147 
-2.83954 6.23065 1.10206 
-2.96101 6.18957 1.43028 
-3.06216 6.16579 1.63287 
-3.41475 6.15353 1.86051 
-3.52995 6.22525 1.42168 
-3.65024 6.19162 1.69892 
6.03592 6.51087 -4.16007 
5.79822 6.53786 -4.24559 
5.36526 6.36662 -2.91125 
5.25912 6.35853 -2.81328 
5.10511 6.30844 -2.41179 
5.01188 6.3565 -2.69871 
4.86269 6.32503 -2.42504 
4.73459 6.25348 -1.88911 
4.58912 6.22669 -1.64864 
4.48121 6.24056 -1.69838 
4.2631 6.30005 -2.01157 
4.11514 6.26444 -1.71051 
4.01382 6.27329 -1.72904 
3.87301 6.25122 -1.52237 
3.76217 6.25471 -1.50073 
3.63418 6.27607 -1.59295 
3.2584 6.14747 -0.570181 
3.11359 6.10042 -0.193018 
3.01323 6.12145 -0.294242 
2.76979 6.07257 0.135589 
2.63024 5.99232 0.735073 
2.53272 6.04505 0.418439 
2.39708 6.00509 0.743918 
2.29567 5.99445 0.857252 
2.15959 5.98811 0.955701 
2.05277 5.95209 1.24282 
1.92837 6.01787 0.848912 
1.82284 5.98955 1.08345 
1.6959 6.01631 0.954373 
1.5906 6.05061 0.76544 
1.46204 5.99832 1.17148 
1.36148 6.05337 0.840371 
1.22476 5.98743 1.34205 
1.12979 6.05174 0.94604 
0.9958 6.04568 1.04173 
0.895378 6.11433 0.618658 
0.763095 6.09155 0.826688 
0.658533 6.21175 0.0567625 
0.529733 6.09332 0.910062 
0.42448 6.12067 0.768137 
0.295806 6.18592 0.379555 
0.191287 6.1936 0.370394 
0.0550252 6.21711 0.267106 
-0.0425462 6.21487 0.322154 
-0.17317 6.18618 0.569487 
-0.278527 6.23375 0.290959 
-0.407141 6.20052 0.568203 
-0.514812 6.24121 0.337074 
-0.641985 6.21678 0.554273 
-0.74657 6.2523 0.356874 
-0.877892 6.26902 0.297533 
-0.986449 6.30744 0.0820968 
-1.12036 6.3343 -0.0447204 
-1.22247 6.34295 -0.0614679 
-1.34492 6.28336 0.391553 
-1.46108 6.37178 -0.158776 
-1.57663 6.27814 0.521598 
-1.6869 6.32392 0.257226 
-1.81244 6.30538 0.433899 
-1.917 6.3261 0.336605 
-2.05148 6.31969 0.434985 
-2.14817 6.30972 0.541909 
-2.2676 6.24373 1.03699 
-2.38154 6.30003 0.70294 
-2.50434 6.27404 0.928947 
-2.59856 6.23302 1.24488 
-2.73356 6.25966 1.12 
-2.84003 6.28337 1.00324 
-2.967 6.28226 1.06273 
-3.06289 6.20715 1.60991 
-3.41357 6.19603 1.82867 
-3.52392 6.23223 1.6291 
-3.65069 6.24697 1.58132 
-3.75184 6.22979 1.73893 
-3.98849 6.27544 1.52717 
6.06283 6.622 -4.65606 
5.90205 6.55372 -4.12991 
5.81308 6.60845 -4.46287 
5.63295 6.47354 -3.47936 
5.37682 6.43432 -3.11041 
5.0848 6.28642 -1.99371 
4.99123 6.33379 -2.27514 
4.84923 6.30497 -2.02285 
4.76709 6.38723 -2.54427 
4.56999 6.2088 -1.26032 
4.50435 6.33901 -2.11197 
4.25376 6.29999 -1.74661 
4.10228 6.25272 -1.36601 
4.02158 6.33514 -1.88914 
3.89255 6.36225 -2.01947 
3.75409 6.2517 -1.21728 
3.62345 6.25808 -1.20703 
3.25713 6.18163 -0.542043 
3.12206 6.16618 -0.382758 
3.00159 6.08107 0.240523 
2.88806 6.17631 -0.355711 
2.76161 6.04842 0.558597 
2.62894 5.98665 1.02945 
2.39937 6.05204 0.681881 
2.29618 6.01542 0.970994 
2.15667 6.01285 1.04524 
2.06532 6.08189 0.616727 
1.92234 5.99089 1.28891 
1.82553 6.05152 0.919367 
1.69389 6.02622 1.14375 
1.58934 6.06144 0.948834 
1.46258 6.02885 1.2204 
1.35881 6.05306 1.09938 
1.23322 6.04762 1.18732 
1.12715 6.046 1.24155 
0.993068 6.10466 0.900499 
0.898374 6.13174 0.756458 
0.765116 6.16165 0.60902 
0.661778 6.19811 0.405189 
0.530722 6.09574 1.14936 
0.42632 6.19321 0.534346 
0.299175 6.22779 0.352942 
0.192531 6.23175 0.369742 
0.0587316 6.24619 0.326978 
-0.0406633 6.23399 0.449838 
-0.171202 6.24493 0.429302 
-0.274989 6.24046 0.50189 
-0.406154 6.22675 0.647903 
-0.51128 6.25249 0.517175 
-0.641089 6.26081 0.514055 
-0.744634 6.29654 0.315275 
-0.87771 6.32064 0.207041 
-0.983658 6.33132 0.178274 
-1.1079 6.30193 0.427284 
-1.21793 6.35166 0.136735 
-1.34909 6.36678 0.0882842 
-1.45373 6.37218 0.094617 
-1.58066 6.34091 0.357436 
-1.68463 6.37268 0.18558 
-1.81754 6.37775 0.205635 
-1.91424 6.36214 0.35049 
-2.05445 6.39125 0.211407 
-2.14293 6.33764 0.609288 
-2.27214 6.31131 0.839706 
-2.37009 6.29303 1.00311 
-2.5035 6.32423 0.847121 
-2.60138 6.30921 0.988499 
-2.72923 6.28737 1.18814 
-2.83275 6.28141 1.27066 
-2.95767 6.25669 1.48856 
-3.05899 6.2358 1.67096 
-3.41342 6.24897 1.72702 
-3.52307 6.28434 1.53319 
-3.64015 6.2436 1.85602 
-3.74812 6.24352 1.90071 
5.93058 6.67143 -4.66982 
5.82984 6.69461 -4.78487 
5.64184 6.53626 -3.64237 
5.36997 6.44166 -2.89492 
5.11175 6.39641 -2.48523 
4.9841 6.34789 -2.1066 
4.87152 6.41028 -2.48082 
4.73476 6.32331 -1.83969 
4.59327 6.30771 -1.67713 
4.5023 6.36175 -2.00384 
4.37125 6.35812 -1.92608 
4.25541 6.3383 -1.74551 
4.10501 6.2893 -1.35447 
4.03146 6.41111 -2.14453 
3.89754 6.41944 -2.14604 
3.76129 6.31074 -1.35891 
3.63362 6.33661 -1.48106 
3.52441 6.30967 -1.25523 
3.23267 6.06726 0.495312 
3.12173 6.18638 -0.261364 
3.01452 6.18438 -0.20425 
2.87167 6.08536 0.520454 
2.76775 6.10499 0.430641 
2.63947 6.11786 0.39622 
2.5351 6.08948 0.629801 
2.29717 6.08457 0.759728 
2.16399 6.09702 0.730164 
2.05886 6.039 1.16357 
1.93188 6.0927 0.853808 
1.82249 6.04213 1.23876 
1.69972 6.06962 1.10372 
1.59165 6.08581 1.0388 
1.23301 6.07784 1.23859 
1.13228 6.12236 0.979889 
0.995155 6.14171 0.905531 
0.897269 6.15843 0.832833 
0.768011 6.16832 0.818957 
0.663687 6.19984 0.649274 
0.534361 6.22678 0.520645 
0.427787 6.2585 0.350498 
0.302108 6.26338 0.368947 
0.194593 6.28398 0.274096 
0.0610502 6.31711 0.105443 
-0.0388378 6.2857 0.357657 
-0.172931 6.30683 0.270086 
-0.271589 6.29218 0.40893 
-0.401959 6.25132 0.737177 
-0.506377 6.27253 0.637023 
-0.637222 6.28317 0.61874 
-0.742439 6.33978 0.280533 
-0.872994 6.32582 0.427736 
-0.985506 6.42404 -0.187624 
-1.10888 6.34593 0.388629 
-1.21848 6.40841 0.0127014 
-1.34096 6.35699 0.40885 
-1.45103 6.40251 0.147292 
-1.58051 6.40475 0.185044 
-1.68239 6.39848 0.268843 
-1.81031 6.39387 0.352057 
-1.91136 6.40523 0.316825 
-2.05057 6.41856 0.283957 
-2.14473 6.40113 0.439705 
-2.26549 6.32173 1.02362 
-2.37315 6.35297 0.857186 
-2.4942 6.30484 1.2307 
-2.59594 6.30891 1.24488 
-2.72341 6.30234 1.34114 
-2.83312 6.33092 1.19348 
-2.95849 6.32214 1.3038 
-3.05697 6.2788 1.63583 
-3.4079 6.26877 1.84675 
-3.5192 6.306 1.64154 
-3.75149 6.32331 1.61991 
-3.98578 6.35587 1.49641 
6.09093 6.771 -5.13922 
5.78669 6.58368 -3.75718 
5.64247 6.56838 -3.59574 
5.37303 6.47801 -2.8792 
5.24542 6.41859 -2.42817 
5.11674 6.44322 -2.5413 
5.00396 6.43169 -2.41801 
4.85867 6.39441 -2.1085 
4.71446 6.29309 -1.36928 
4.59883 6.35901 -1.76511 
4.51977 6.44412 -2.30468 
4.35488 6.33958 -1.5354 
4.2349 6.29959 -1.21804 
4.10427 6.31806 -1.289 
4.03334 6.45871 -2.20494 
3.85209 6.27237 -0.879528 
3.7698 6.35932 -1.43014 
3.48722 6.20595 -0.285023 
3.35275 6.17585 -0.0281968 
3.2431 6.18008 -0.0119852 
3.01438 6.20804 -0.106804 
2.87457 6.12132 0.532616 
2.76622 6.11439 0.623198 
2.6383 6.11233 0.689081 
2.29249 6.07165 1.10302 
2.16081 6.07809 1.11333 
2.06636 6.1098 0.938738 
1.93108 6.11071 0.987666 
1.82822 6.08305 1.21532 
1.6979 6.09031 1.21954 
1.59792 6.13434 0.964508 
1.36536 6.14326 0.999194 
1.23456 6.14425 1.04576 
1.1323 6.17012 0.913627 
0.999684 6.19227 0.818789 
0.898789 6.19491 0.842131 
0.768479 6.22793 0.673392 
0.666451 6.21472 0.803674 
0.536629 6.24121 0.678549 
0.429327 6.26013 0.595161 
0.30437 6.26317 0.625577 
0.195386 6.30849 0.365547 
0.0678278 6.33865 0.214829 
-0.0375177 6.35829 0.125802 
-0.172579 6.35154 0.22617 
-0.272206 6.36973 0.144566 
-0.40206 6.32483 0.499108 
-0.509056 6.35603 0.333082 
-0.636239 6.31575 0.655502 
-0.735905 6.34171 0.52169 
-0.873702 6.3938 0.227858 
-0.979086 6.41294 0.142239 
-1.10581 6.40035 0.27843 
-1.21427 6.43207 0.109561 
-1.34207 6.41641 0.266845 
-1.45044 6.46257 0.000899622 
-1.57555 6.4269 0.291538 
-1.68062 6.42456 0.350094 
-1.80622 6.41274 0.480713 
-1.90813 6.42942 0.410213 
-2.04106 6.41177 0.582986 
-2.14539 6.43337 0.480412 
-2.27056 6.40257 0.738335 
-2.36799 6.38037 0.927248 
-2.48152 6.25454 1.81892 
-2.5851 6.26884 1.76513 
-2.72581 6.36999 1.14295 
-2.82453 6.34495 1.35142 
-2.94839 6.30154 1.69362 
-3.0558 6.32805 1.5593 
-3.40909 6.32431 1.72859 
-3.51875 6.35024 1.59911 
-3.7484 6.35399 1.66765 
-3.98593 6.40013 1.45464 
6.30871 6.70111 -4.49408 
6.08337 6.77954 -4.92827 
5.94434 6.77457 -4.83847 
5.66307 6.65948 -3.95283 
5.26797 6.51404 -2.81743 
5.10625 6.44708 -2.30297 
4.99991 6.44631 -2.25461 
4.87251 6.4742 -2.38987 
4.77287 6.5056 -2.55988 
4.61558 6.44348 -2.07961 
4.48898 6.37784 -1.58822 
4.3796 6.45444 -2.05727 
4.24787 6.376 -1.47797 
4.10103 6.34729 -1.22591 
4.0355 6.48828 -2.14438 
3.84059 6.26166 -0.546177 
3.75628 6.33708 -1.01749 
3.63229 6.37911 -1.24888 
3.51301 6.32905 -0.864882 
3.25345 6.25026 -0.231289 
3.12815 6.27597 -0.352777 
3.00523 6.17921 0.345772 
2.87875 6.17874 0.400269 
2.76806 6.1465 0.66135 
2.63999 6.14751 0.706633 
2.53468 6.13517 0.832115 
2.40431 6.16482 0.68636 
2.29955 6.14079 0.889984 
2.1667 6.1326 0.998871 
2.06454 6.12699 1.07801 
1.93423 6.14825 0.988397 
1.82537 6.12603 1.1816 
1.701 6.13539 1.16944 
1.59331 6.13866 1.19126 
1.36465 6.16979 1.07556 
1.2372 6.17422 1.09764 
1.1332 6.17976 1.10279 
1.00336 6.1995 1.02324 
0.902043 6.23544 0.823547 
0.768641 6.3266 0.266663 
0.664614 6.30778 0.435181 
0.539054 6.27838 0.68332 
0.431638 6.31354 0.491284 
0.307805 6.26229 0.885239 
0.197314 6.30672 0.632317 
0.0719698 6.34679 0.41467 
-0.0320563 6.34257 0.485255 
-0.169689 6.3807 0.285636 
-0.270351 6.35405 0.505254 
-0.397758 6.35072 0.579404 
-0.504436 6.39752 0.309105 
-0.634616 6.35939 0.617709 
-0.74191 6.42304 0.234636 
-0.874618 6.46233 0.0252663 
-0.980691 6.50977 -0.249603 
-1.10613 6.45489 0.169402 
-1.21345 6.46885 0.119496 
-1.33869 6.44379 0.338425 
-1.4462 6.47207 0.192661 
-1.57537 6.45487 0.360499 
-1.68027 6.47548 0.265032 
-1.80112 6.44267 0.534243 
-1.90319 6.42881 0.668691 
-2.04039 6.45882 0.523378 
-2.14829 6.48732 0.376245 
-2.26315 6.39889 1.01589 
-2.35412 6.32554 1.54472 
-2.48835 6.35222 1.42052 
-2.59367 6.38515 1.24269 
-2.71982 6.36032 1.46055 
-2.81876 6.36155 1.49259 
-2.94483 6.33879 1.69657 
-3.05476 6.35804 1.61228 
-3.40797 6.35795 1.75686 
-3.51375 6.36196 1.77308 
-3.63706 6.35322 1.88194 
-3.74113 6.36395 1.8524 
5.91563 6.71795 -4.18414 
5.65212 6.65589 -3.66215 
5.12998 6.55607 -2.78269 
4.99878 6.47733 -2.20281 
4.87121 6.51013 -2.37047 
4.7412 6.44783 -1.90099 
4.61665 6.47008 -1.9993 
4.50109 6.45111 -1.82557 
4.37576 6.47858 -1.9585 
4.24652 6.40557 -1.41774 
4.12161 6.45444 -1.69398 
4.03236 6.5113 -2.03808 
3.87214 6.40995 -1.29515 
3.36456 6.29936 -0.349544 
3.27568 6.36915 -0.780319 
3.11934 6.26022 0.011687 
3.00091 6.16054 0.726504 
2.87672 6.18652 0.603137 
2.77136 6.19463 0.591638 
2.63979 6.1711 0.802434 
2.53838 6.22701 0.469604 
2.40308 6.1721 0.891802 
2.30416 6.20075 0.740299 
2.16244 6.13329 1.24906 
2.06863 6.18233 0.959098 
1.93099 6.14613 1.25707 
1.82515 6.14636 1.29854 
1.6981 6.14057 1.38881 
1.59748 6.18187 1.15343 
1.46738 6.14345 1.46324 
1.36873 6.22054 0.987656 
1.23989 6.19703 1.19722 
1.13531 6.20594 1.1801 
1.00538 6.30729 0.554861 
0.903624 6.28383 0.753134 
0.770084 6.2829 0.813572 
0.666216 6.3714 0.263762 
0.538724 6.3475 0.47541 
0.437327 6.35858 0.442501 
0.308648 6.33361 0.661789 
0.200108 6.40203 0.24819 
0.0728487 6.42414 0.152027 
-0.0320726 6.42701 0.175475 
-0.168414 6.40504 0.377816 
-0.273495 6.5073 -0.263531 
-0.390586 6.36246 0.752955 
-0.504279 6.45277 0.194999 
-0.632516 6.39665 0.622548 
-0.736087 6.43084 0.435919 
-0.86958 6.44801 0.375322 
-0.979426 6.51445 -0.0244903 
-1.10421 6.50364 0.098605 
-1.2097 6.49574 0.194311 
-1.34028 6.49263 0.268188 
-1.44207 6.4978 0.275013 
-1.57181 6.48412 0.419277 
-1.67515 6.48945 0.42565 
-1.80281 6.49813 0.419508 
-1.90898 6.49945 0.453847 
-2.03797 6.49614 0.528506 
-2.12168 6.38156 1.32903 
-2.2632 6.43956 0.998583 
-2.35678 6.43723 1.05226 
-2.49351 6.4448 1.05728 
-2.59244 6.41076 1.32524 
-2.72214 6.42991 1.24994 
-2.82045 6.41053 1.41959 
-2.94929 6.40452 1.5122 
-3.0544 6.40705 1.53808 
-3.51553 6.41981 1.64041 
-3.7426 6.42545 1.69516 
-3.98351 6.47563 1.45753 
5.90134 6.70476 -3.82828 
5.40884 6.6957 -3.56826 
5.27462 6.60317 -2.89625 
5.11426 6.54082 -2.41516 
4.99709 6.51128 -2.17048 
4.86496 6.52629 -2.21715 
4.75572 6.52417 -2.1588 
4.62486 6.5356 -2.18205 
4.51903 6.5359 -2.1412 
4.35349 6.43467 -1.39846 
4.27682 6.54249 -2.08706 
4.10979 6.44486 -1.36776 
3.85458 6.37832 -0.820204 
3.75921 6.42271 -1.07787 
3.64398 6.4842 -1.44164 
3.52034 6.42049 -0.966262 
3.37765 6.38254 -0.655139 
3.26656 6.36887 -0.518892 
3.11458 6.24866 0.345055 
3.01616 6.29319 0.0877258 
2.87354 6.2064 0.724849 
2.76515 6.17818 0.957095 
2.64221 6.18984 0.929135 
2.30305 6.19541 1.02939 
2.16769 6.17939 1.19121 
2.0631 6.18473 1.198 
1.92966 6.17852 1.29351 
1.8282 6.18589 1.28544 
1.69862 6.17163 1.43323 
1.59466 6.19992 1.28652 
1.36904 6.24871 1.05236 
1.23669 6.21663 1.32016 
1.14362 6.30162 0.790622 
1.00567 6.29501 0.89068 
0.902522 6.36739 0.449336 
0.774189 6.33745 0.701284 
0.670604 6.35978 0.594252 
0.436054 6.38378 0.529235 
0.31037 6.34557 0.835281 
0.20253 6.41777 0.397058 
0.0760599 6.40785 0.514632 
-0.030409 6.42719 0.428745 
-0.165824 6.43703 0.418033 
-0.271321 6.47414 0.213079 
-0.388433 6.39488 0.789734 
-0.500748 6.46815 0.346242 
-0.634069 6.4666 0.410685 
-0.741913 6.52998 0.0313516 
-0.87094 6.54798 -0.0364143 
-0.977145 6.54984 -0.0056626 
-1.10311 6.53701 0.1311 
-1.21029 6.537 0.174696 
-1.33381 6.50645 0.428781 
-1.44094 6.53071 0.310385 
-1.66908 6.513 0.52127 
-1.80783 6.56402 0.237021 
-1.90072 6.50364 0.677843 
-2.0298 6.50231 0.739179 
-2.12438 6.46655 1.01634 
-2.25749 6.44919 1.18632 
-2.36795 6.52313 0.73759 
-2.58654 6.42973 1.44994 
-2.7174 6.4386 1.44388 
-2.81847 6.43955 1.47863 
-2.94773 6.45181 1.44937 
-3.04981 6.42244 1.68689 
-3.40613 6.43878 1.72271 
-3.51201 6.44639 1.71497 
-3.74391 6.47927 1.58974 
-3.87052 6.46627 1.72804 
5.93276 6.83887 -4.47351 
5.26154 6.6109 -2.68347 
5.01243 6.5867 -2.42142 
4.86738 6.56351 -2.2083 
4.75432 6.55239 -2.08851 
4.62087 6.54546 -1.98833 
4.50421 6.52857 -1.82862 
4.37572 6.53866 -1.84386 
4.23052 6.40858 -0.918664 
4.11106 6.47337 -1.3019 
4.00539 6.47753 -1.2868 
3.86104 6.42114 -0.852853 
3.75774 6.4493 -0.998565 
3.61602 6.40712 -0.660302 
3.50226 6.3767 -0.41163 
3.36717 6.37174 -0.323933 
3.25408 6.32757 0.0160478 
3.11522 6.27833 0.400224 
3.01211 6.29905 0.30397 
2.87542 6.24083 0.747083 
2.77173 6.25626 0.686236 
2.63802 6.19755 1.13145 
2.5341 6.21528 1.05543 
2.40862 6.23128 0.999669 
2.30463 6.22684 1.07131 
2.16798 6.21247 1.22237 
2.06424 6.22859 1.15699 
1.92951 6.19682 1.42321 
1.83048 6.21665 1.33124 
1.70139 6.21374 1.40289 
1.60161 6.2652 1.10054 
1.23949 6.27745 1.16559 
1.1439 6.32015 0.919899 
1.01276 6.31834 0.985131 
0.907536 6.35837 0.761106 
0.774946 6.35302 0.850474 
0.676616 6.33452 1.01355 
0.543184 6.35235 0.948822 
0.439143 6.44382 0.381738 
0.309954 6.39946 0.729557 
0.203044 6.45825 0.381281 
0.0727645 6.49189 0.21005 
-0.0311397 6.4741 0.370642 
-0.164333 6.5222 0.104207 
-0.270986 6.5453 -0.00638929 
-0.3961 6.49251 0.395972 
-0.499667 6.54608 0.0811117 
-0.63644 6.5582 0.0558582 
-0.735899 6.54873 0.159285 
-0.87401 6.61992 -0.258934 
-0.978025 6.59716 -0.0651628 
-1.10024 6.56627 0.190158 
-1.20561 6.56292 0.255206 
-1.32931 6.51695 0.611625 
-1.44212 6.59337 0.14832 
-1.57025 6.57636 0.313614 
-1.67332 6.59753 0.214438 
-1.80404 6.58982 0.318801 
-1.90729 6.59663 0.315324 
-2.03323 6.55654 0.633499 
-2.11647 6.4491 1.38301 
-2.25613 6.5055 1.06402 
-2.35488 6.49219 1.19274 
-2.48303 6.47332 1.37047 
-2.58587 6.47995 1.36808 
-2.71915 6.50015 1.28757 
-2.81992 6.48448 1.43289 
-2.94383 6.47677 1.53455 
-3.0457 6.44315 1.7999 
-3.40178 6.45812 1.84478 
-3.50914 6.48294 1.72306 
-3.73922 6.49466 1.73846 
-3.97374 6.52007 1.66442 
6.34866 6.95685 -5.16428 
5.93886 6.89079 -4.5595 
5.65483 6.77659 -3.68565 
5.13111 6.66759 -2.74947 
4.98345 6.53605 -1.81545 
4.83779 6.50362 -1.54108 
4.76501 6.61073 -2.22352 
4.62234 6.58414 -1.98919 
4.51653 6.60179 -2.06371 
4.37343 6.57133 -1.80344 
4.24744 6.5042 -1.30634 
4.11713 6.51518 -1.32661 
4.00733 6.51529 -1.28299 
3.87327 6.49717 -1.10833 
3.75319 6.45956 -0.809877 
3.65263 6.58159 -1.58027 
3.50773 6.42839 -0.503478 
3.37332 6.43083 -0.465328 
3.25737 6.37778 -0.0658504 
3.12375 6.36214 0.0921215 
3.0116 6.31679 0.43885 
2.88806 6.3511 0.260783 
2.77266 6.29012 0.712744 
2.6457 6.28048 0.828143 
2.31089 6.28805 0.913267 
2.17265 6.26538 1.11987 
2.06924 6.26988 1.13179 
1.93312 6.2448 1.35354 
1.8367 6.26989 1.22577 
1.69902 6.23811 1.49268 
1.60023 6.29696 1.14147 
1.36606 6.27735 1.3666 
1.24094 6.29902 1.27319 
1.14529 6.36144 0.896981 
1.01401 6.3456 1.05537 
0.906199 6.38904 0.810263 
0.778211 6.40645 0.746357 
0.672955 6.4405 0.562656 
0.542727 6.36327 1.12869 
0.439914 6.45236 0.578097 
0.313201 6.45227 0.630055 
0.205743 6.46226 0.607116 
0.076964 6.50548 0.371942 
-0.0280518 6.51794 0.331694 
-0.162358 6.53192 0.293151 
-0.26528 6.54682 0.235757 
-0.394358 6.52018 0.465094 
-0.492131 6.51059 0.568494 
-0.629917 6.55163 0.351429 
-0.736972 6.62033 -0.0618568 
-0.867613 6.63223 -0.0880293 
-0.977986 6.66111 -0.235305 
-1.09802 6.60275 0.201277 
-1.20484 6.59725 0.281141 
-1.329 6.56812 0.525083 
-1.44245 6.65539 -0.00911804 
-1.5727 6.63446 0.1828 
-1.67379 6.66433 0.0252334 
-1.80047 6.60947 0.441248 
-1.90606 6.63301 0.32756 
-2.0288 6.59144 0.653638 
-2.12303 6.55851 0.910728 
-2.24366 6.43288 1.79481 
-2.34401 6.45665 1.67744 
-2.47748 6.47871 1.58491 
-2.58537 6.53401 1.2611 
-2.71572 6.53306 1.32024 
-2.81219 6.49362 1.62154 
-2.93875 6.48457 1.73302 
-3.04367 6.49011 1.7388 
-3.39874 6.48588 1.91092 
-3.50579 6.52266 1.70987 
-3.97036 6.55388 1.69083 
5.95094 6.95831 -4.75095 
5.01064 6.65285 -2.34531 
4.84644 6.56126 -1.67159 
4.77185 6.66439 -2.32545 
4.61578 6.60886 -1.89412 
4.53357 6.68833 -2.38804 
4.37992 6.63381 -1.96443 
4.12737 6.57855 -1.49594 
3.61997 6.48216 -0.651767 
3.50363 6.44053 -0.328682 
3.35762 6.37991 0.132325 
3.25197 6.38697 0.128191 
3.11361 6.31877 0.636368 
3.01825 6.3809 0.262795 
2.88367 6.34809 0.534773 
2.77185 6.30475 0.867411 
2.64581 6.31954 0.820237 
2.40559 6.28296 1.15989 
2.30336 6.27519 1.25272 
2.1688 6.25084 1.46858 
2.07162 6.34205 0.902855 
1.93355 6.27754 1.38656 
1.83668 6.31641 1.16785 
1.70798 6.30652 1.28549 
1.60173 6.32866 1.18152 
1.24369 6.34581 1.21252 
1.14333 6.37627 1.05105 
1.01003 6.40072 0.942756 
0.915011 6.39684 1.0069 
0.674691 6.48678 0.507445 
0.440545 6.50545 0.478282 
0.313191 6.50237 0.55022 
0.206596 6.52705 0.429612 
0.080154 6.52206 0.513824 
-0.0263869 6.555 0.338407 
-0.162393 6.60626 0.0534223 
-0.259815 6.5586 0.408966 
-0.392942 6.56829 0.398561 
-0.4985 6.65833 -0.156008 
-0.627617 6.59864 0.292169 
-0.734529 6.62661 0.149853 
-0.86189 6.64726 0.0643992 
-0.971942 6.6461 0.116621 
-1.09957 6.65309 0.121936 
-1.20457 6.6624 0.102655 
-1.32647 6.60501 0.532706 
-1.44082 6.69244 -0.00100102 
-1.57456 6.6879 0.0832566 
-1.66346 6.63894 0.443982 
-1.80349 6.6713 0.286019 
-1.88647 6.57487 0.959306 
-2.01714 6.57701 0.998025 
-2.12008 6.57257 1.06913 
-2.24933 6.53959 1.34024 
-2.34429 6.51157 1.56458 
-2.48021 6.55561 1.32752 
-2.57795 6.52608 1.563 
-2.71361 6.57304 1.3064 
-2.80728 6.51176 1.75088 
-2.93578 6.50431 1.85231 
-3.04216 6.52197 1.77831 
-3.27553 6.55811 1.63311 
-3.38978 6.48328 2.17581 
-3.5009 6.55527 1.74326 
-3.96273 6.57304 1.81254 
6.33474 6.98739 -4.83721 
6.07216 6.94704 -4.4642 
5.39957 6.78641 -3.12974 
5.26938 6.71467 -2.60241 
5.10407 6.65095 -2.11403 
4.99908 6.65244 -2.08154 
4.86809 6.65951 -2.07553 
4.77062 6.69145 -2.24763 
4.62186 6.64966 -1.91103 
4.51051 6.63223 -1.75076 
4.36528 6.60915 -1.53944 
4.22811 6.51131 -0.83658 
4.12066 6.58231 -1.26314 
4.01495 6.58515 -1.23935 
3.8454 6.44303 -0.2303 
3.72517 6.40701 0.0566099 
3.61562 6.49402 -0.475154 
3.50344 6.48108 -0.344263 
3.38122 6.51488 -0.518692 
3.25944 6.45786 -0.0921695 
3.12857 6.44778 0.0273375 
3.01199 6.36011 0.654651 
2.88218 6.34097 0.833677 
2.77987 6.3823 0.601418 
2.64023 6.29772 1.2176 
2.53746 6.32228 1.09647 
2.29952 6.29108 1.39898 
2.1708 6.31434 1.29701 
2.0672 6.30923 1.37258 
1.93829 6.33621 1.24603 
1.83336 6.32995 1.32984 
1.70676 6.3326 1.3634 
1.6043 6.35819 1.23538 
1.37604 6.39367 1.09266 
1.24343 6.38471 1.20555 
1.1442 6.40205 1.13081 
1.01225 6.43759 0.948844 
0.913013 6.49924 0.580864 
0.781375 6.50871 0.571285 
0.677877 6.5206 0.534378 
0.548211 6.51964 0.593121 
0.442661 6.55074 0.429885 
0.314853 6.55397 0.460121 
0.210459 6.62921 0.00426306 
0.0817014 6.57966 0.384247 
-0.0274176 6.62238 0.145567 
-0.154478 6.53371 0.783821 
-0.257751 6.63888 0.129402 
-0.393869 6.63798 0.190375 
-0.49408 6.64001 0.217375 
-0.624175 6.61494 0.435925 
-0.737424 6.70884 -0.139877 
-0.860312 6.6653 0.197982 
-0.967609 6.67827 0.155514 
-1.09197 6.64161 0.448446 
-1.20148 6.6962 0.131355 
-1.32457 6.64255 0.53623 
-1.43936 6.7252 0.0355619 
-1.56744 6.68757 0.336417 
-1.65967 6.65463 0.591751 
-1.79616 6.67354 0.521775 
-1.89208 6.6527 0.698489 
-2.01785 6.61711 0.984986 
-2.1185 6.61031 1.07069 
-2.24514 6.54651 1.54427 
-2.34442 6.56956 1.43183 
-2.4803 6.59874 1.29362 
-2.57739 6.58672 1.41248 
-2.71361 6.61567 1.27597 
-2.81058 6.57082 1.6121 
-2.93545 6.55922 1.73938 
-3.04063 6.56651 1.73369 
-3.27406 6.58393 1.71286 
-3.38948 6.55052 1.98072 
-3.50375 6.60424 1.6714 
-3.96826 6.64245 1.60646 
5.88124 6.80196 -3.16913 
5.65513 6.86117 -3.46912 
5.27417 6.76821 -2.70167 
5.01437 6.72919 -2.33931 
4.85714 6.66094 -1.82518 
4.75361 6.67407 -1.87021 
4.60633 6.63619 -1.5607 
4.52625 6.70309 -1.97031 
4.3826 6.6976 -1.87619 
4.11779 6.61777 -1.24224 
3.99924 6.56007 -0.813428 
3.87264 6.59565 -0.997434 
3.76004 6.57092 -0.788726 
3.36536 6.48229 -0.044351 
3.25151 6.41732 0.430679 
3.11631 6.37785 0.745804 
3.01438 6.40473 0.609362 
2.88518 6.38728 0.776676 
2.77372 6.36543 0.965921 
2.64898 6.39462 0.82334 
2.54656 6.40673 0.784634 
2.31316 6.37421 1.09353 
2.17553 6.37698 1.13067 
2.0694 6.33137 1.47473 
1.93767 6.35125 1.39649 
1.83667 6.36987 1.31423 
1.70134 6.32304 1.67814 
1.60129 6.36449 1.44467 
1.37197 6.38372 1.41013 
1.24472 6.40479 1.32229 
1.14742 6.43744 1.14585 
1.0156 6.45833 1.06102 
0.913139 6.51009 0.760455 
0.784883 6.52705 0.700159 
0.68116 6.57223 0.443609 
0.550019 6.51496 0.874769 
0.443667 6.62328 0.202176 
0.316071 6.59805 0.420294 
0.211572 6.62661 0.273825 
0.0822843 6.64484 0.205537 
-0.0274808 6.6558 0.177474 
-0.150922 6.59088 0.656069 
-0.25993 6.70023 -0.02224 
-0.388541 6.62514 0.525673 
-0.498359 6.72428 -0.0848829 
-0.622249 6.66216 0.375476 
-0.7319 6.70954 0.106739 
-0.864386 6.77877 -0.297074 
-0.963411 6.69535 0.293985 
-1.08777 6.68388 0.4199 
-1.19905 6.72396 0.200088 
-1.32785 6.7051 0.376693 
-1.4389 6.76442 0.0297011 
-1.55935 6.70201 0.490599 
-1.66707 6.73914 0.288839 
-1.79391 6.70798 0.545876 
-1.8855 6.66139 0.890673 
-2.02107 6.68503 0.789273 
-2.11505 6.63407 1.16382 
-2.24397 6.61685 1.32968 
-2.34839 6.66482 1.05498 
-2.4797 6.63986 1.27291 
-2.57275 6.60434 1.54516 
-2.70699 6.62231 1.48072 
-2.80769 6.59034 1.73263 
-2.93253 6.59626 1.74395 
-3.03756 6.59641 1.7854 
-3.39289 6.61116 1.83165 
-3.49944 6.6202 1.81499 
-3.72772 6.61997 1.90883 
6.33327 7.04374 -4.68792 
5.27238 6.80413 -2.68171 
5.11965 6.74885 -2.25587 
5.00848 6.7497 -2.21676 
4.86137 6.7072 -1.87747 
4.78008 6.7913 -2.39906 
4.61989 6.7123 -1.8139 
4.53736 6.78336 -2.24904 
4.37061 6.68255 -1.51755 
4.11708 6.63874 -1.12681 
3.98646 6.54545 -0.459348 
3.83712 6.47138 0.0889563 
3.76199 6.60852 -0.784739 
3.62898 6.61664 -0.784749 
3.50146 6.53233 -0.1777 
3.37228 6.53344 -0.133046 
3.25133 6.4478 0.480055 
3.12397 6.45689 0.471391 
3.0175 6.45365 0.535626 
2.8822 6.38455 1.04554 
2.77004 6.36936 1.19081 
2.63939 6.34258 1.41987 
2.30737 6.37489 1.34061 
2.17232 6.38932 1.2998 
2.07092 6.37319 1.44698 
1.93946 6.38845 1.39933 
1.83496 6.38511 1.46341 
1.70586 6.37901 1.55561 
1.606 6.42571 1.28803 
1.24129 6.39457 1.64018 
1.15026 6.49164 1.03701 
1.01398 6.47908 1.17467 
0.916167 6.55333 0.724699 
0.551058 6.54172 0.948306 
0.318925 6.6227 0.508103 
0.213933 6.67005 0.238294 
0.0825263 6.66383 0.332209 
-0.0248813 6.69046 0.200006 
-0.144097 6.60009 0.843744 
-0.254643 6.67542 0.391739 
-0.390041 6.7313 0.0779764 
-0.490752 6.68358 0.433132 
-0.620949 6.70807 0.3242 
-0.730846 6.76577 -0.0118178 
-0.857811 6.75198 0.13025 
-0.960239 6.73728 0.268465 
-1.08711 6.72147 0.423814 
-1.2006 6.78832 0.0289316 
-1.32413 6.74228 0.382231 
-1.42903 6.74134 0.430745 
-1.56584 6.78595 0.191898 
-1.66367 6.77524 0.301952 
-1.78251 6.71206 0.766365 
-1.8908 6.73965 0.628168 
-2.01336 6.67315 1.11597 
-2.11346 6.67352 1.15394 
-2.24844 6.71852 0.911792 
-2.34674 6.67239 1.25552 
-2.47912 6.69196 1.17996 
-2.56803 6.61002 1.75599 
-2.70661 6.68732 1.30237 
-2.8044 6.64548 1.61767 
-2.93001 6.63027 1.76861 
-3.02812 6.60982 1.94307 
-3.27379 6.68675 1.53512 
-3.39737 6.69001 1.56349 
-3.49703 6.65887 1.80902 
-3.72822 6.67053 1.82559 
-3.96145 6.7017 1.71428 
5.91514 6.98807 -3.89446 
4.99607 6.74598 -1.93271 
4.8752 6.78468 -2.13869 
4.77687 6.80778 -2.25109 
4.61632 6.72132 -1.61789 
4.53899 6.82214 -2.24992 
4.11704 6.67996 -1.14525 
3.73757 6.52487 0.0273243 
3.62969 6.64351 -0.709603 
3.3614 6.50076 0.337115 
3.26612 6.55131 0.0429091 
3.12959 6.51647 0.326971 
3.01588 6.47432 0.649917 
2.88549 6.42798 1.00714 
2.7814 6.46294 0.819022 
2.64614 6.4151 1.18811 
2.54265 6.42659 1.15409 
2.3126 6.43737 1.17573 
2.17237 6.41016 1.41109 
2.07684 6.45726 1.1397 
1.94394 6.44205 1.2932 
1.8369 6.41395 1.52104 
1.70893 6.41719 1.55122 
1.60565 6.4434 1.42038 
1.24703 6.46112 1.44807 
1.14411 6.46625 1.45574 
1.019 6.53279 1.06841 
0.919092 6.56585 0.89117 
0.787798 6.62415 0.560529 
0.683732 6.67795 0.248513 
0.447086 6.75738 -0.178688 
0.319998 6.67562 0.410225 
0.213113 6.73496 0.0629396 
0.0830825 6.71851 0.223497 
-0.0225474 6.71561 0.285084 
-0.146866 6.67961 0.571981 
-0.253832 6.74766 0.167408 
-0.490546 6.74907 0.253413 
-0.619415 6.74715 0.31794 
-0.728866 6.78818 0.0921441 
-0.857963 6.80193 0.0536869 
-0.958017 6.75251 0.419042 
-1.08662 6.75894 0.428542 
-1.19932 6.81959 0.0750361 
-1.43035 6.81508 0.197776 
-1.5511 6.75435 0.645916 
-1.65359 6.75034 0.713583 
-1.78569 6.7795 0.574998 
-1.88537 6.758 0.756573 
-2.01826 6.75769 0.812204 
-2.11043 6.70187 1.21654 
-2.24187 6.71636 1.1742 
-2.33695 6.66091 1.57728 
-2.47452 6.70387 1.35013 
-2.57267 6.6826 1.52965 
-2.69799 6.6657 1.69135 
-2.79502 6.63655 1.92219 
-2.92903 6.66727 1.77416 
-3.03338 6.66979 1.79965 
-3.38301 6.641 2.13009 
-3.49695 6.70412 1.76083 
-3.62299 6.71485 1.74104 
-3.72383 6.68983 1.94637 
-3.9593 6.73608 1.7371 
6.07104 7.07407 -4.26433 
5.91087 7.00178 -3.72552 
5.39627 6.90562 -2.88773 
5.27375 6.87259 -2.62177 
5.15167 6.90628 -2.79384 
5.01594 6.82962 -2.23621 
4.87053 6.80648 -2.02597 
4.77218 6.82659 -2.11847 
4.62023 6.76195 -1.63318 
4.53644 6.85009 -2.17807 
4.38699 6.80288 -1.80824 
4.25295 6.71085 -1.15035 
4.10419 6.66805 -0.809723 
4.03457 6.79649 -1.62477 
3.89231 6.76732 -1.37621 
3.73773 6.56481 0.0150018 
3.62516 6.65301 -0.518734 
3.50674 6.58493 -0.0242912 
3.36036 6.51073 0.521478 
3.26981 6.61313 -0.114251 
3.12989 6.53574 0.449867 
3.02045 6.50153 0.718339 
2.88774 6.46051 1.04085 
2.78389 6.51173 0.746406 
2.64752 6.45282 1.18783 
2.31201 6.47196 1.19692 
2.17019 6.41878 1.60298 
2.07243 6.45247 1.4211 
1.94074 6.45172 1.47891 
1.83771 6.446 1.55786 
1.70999 6.44813 1.59523 
1.6078 6.48017 1.42596 
1.38623 6.54461 1.09203 
1.24883 6.51355 1.35111 
1.15132 6.53245 1.26622 
1.01721 6.57828 1.01936 
0.923425 6.6091 0.854707 
0.787758 6.61791 0.851393 
0.685555 6.68614 0.44468 
0.554582 6.76138 0.00339428 
0.448066 6.68324 0.559149 
0.324092 6.70098 0.492546 
0.217938 6.6859 0.634189 
0.0863923 6.77808 0.082051 
-0.0234165 6.78862 0.0569779 
-0.149854 6.76572 0.258154 
-0.251286 6.78291 0.18609 
-0.384225 6.7662 0.349293 
-0.489819 6.786 0.261775 
-0.618468 6.78917 0.292733 
-0.725946 6.84902 -0.0568968 
-0.85445 6.82126 0.176994 
-0.958426 6.79079 0.41886 
-1.08535 6.80132 0.400767 
-1.18905 6.78262 0.565236 
-1.31575 6.79145 0.558283 
-1.42707 6.8331 0.329674 
-1.55356 6.8266 0.423249 
-1.65408 6.80694 0.592779 
-1.77583 6.78405 0.792015 
-1.88262 6.78316 0.840868 
-2.01912 6.81281 0.701165 
-2.10785 6.75692 1.1038 
-2.34034 6.73913 1.31417 
-2.47539 6.78364 1.07638 
-2.5714 6.70912 1.60424 
-2.70298 6.75354 1.36561 
-2.79463 6.67929 1.88998 
-2.92158 6.6741 1.97513 
-3.0349 6.72572 1.68189 
-3.26621 6.72853 1.75665 
-3.3862 6.7226 1.84395 
-3.49031 6.71425 1.94068 
-3.61499 6.72314 1.93255 
-3.72061 6.72026 1.99407 
-3.84781 6.71655 2.06969 
-3.95642 6.7666 1.78488 
5.90633 7.0207 -3.59129 
5.79861 7.03204 -3.62232 
5.14517 6.92269 -2.64404 
5.00912 6.84165 -2.0587 
4.85487 6.79343 -1.68097 
4.76057 6.82697 -1.86283 
4.61397 6.78178 -1.50811 
4.53808 6.8886 -2.17733 
4.26838 6.79306 -1.44342 
4.12369 6.76913 -1.22861 
3.99946 6.70177 -0.737616 
3.8872 6.7737 -1.16376 
3.62062 6.67053 -0.381089 
3.37094 6.62037 0.0475928 
3.25688 6.5575 0.505127 
3.12734 6.54922 0.611302 
3.01082 6.49321 1.02489 
2.89315 6.53672 0.787138 
2.78438 6.53286 0.856048 
2.64613 6.47117 1.31559 
2.55223 6.53365 0.944008 
2.31189 6.49558 1.28978 
2.17853 6.48234 1.43004 
2.07424 6.47986 1.48808 
1.94435 6.4947 1.443 
1.84101 6.49579 1.47732 
1.71332 6.49072 1.56182 
1.61161 6.52262 1.3937 
1.2521 6.54276 1.40606 
1.1546 6.59317 1.11499 
1.02039 6.58239 1.23949 
0.923404 6.65621 0.794899 
0.790415 6.68656 0.649464 
0.685809 6.72556 0.435996 
0.55579 6.7556 0.291415 
0.450796 6.70556 0.661387 
0.326517 6.69411 0.786332 
0.217287 6.74956 0.466922 
0.0879155 6.79247 0.23785 
-0.0168073 6.82969 0.0360986 
-0.144443 6.76975 0.480007 
-0.254669 6.87614 -0.172635 
-0.490842 6.84795 0.106907 
-0.614852 6.81262 0.388162 
-0.722852 6.87345 0.0330675 
-0.852645 6.87564 0.0708718 
-0.956546 6.84045 0.343121 
-1.08227 6.8365 0.419526 
-1.19019 6.85859 0.318201 
-1.4238 6.86928 0.342095 
-1.54781 6.82025 0.713139 
-1.65054 6.83075 0.685624 
-1.78206 6.84505 0.644867 
-1.88884 6.8734 0.502041 
-2.01698 6.85011 0.70614 
-2.10541 6.79378 1.11071 
-2.23762 6.76596 1.34613 
-2.34121 6.815 1.06654 
-2.46774 6.76302 1.45794 
-2.57228 6.75373 1.56086 
-2.69779 6.75119 1.62797 
-2.79646 6.72868 1.81513 
-2.9219 6.72635 1.88089 
-3.03257 6.75148 1.7608 
-3.26437 6.77183 1.72077 
-3.38237 6.74061 1.97279 
-3.49016 6.76817 1.83557 
-3.72162 6.77899 1.85791 
-3.84428 6.76755 1.98222 
-3.95441 6.79644 1.83724 
5.03849 6.9569 -2.57102 
4.85719 6.83065 -1.67324 
4.78333 6.93465 -2.3234 
4.63665 6.89955 -2.0352 
4.52685 6.88882 -1.92114 
4.03412 6.85597 -1.50902 
3.84375 6.64894 -0.0795561 
3.62593 6.7297 -0.520185 
3.36741 6.61457 0.335916 
3.25632 6.57837 0.617027 
3.12566 6.5531 0.834524 
3.02048 6.5774 0.717808 
2.89594 6.5881 0.697775 
2.78193 6.53563 1.08645 
2.6428 6.46728 1.58895 
2.54534 6.52262 1.26627 
2.41286 6.51275 1.38385 
2.31442 6.52383 1.35088 
2.17917 6.51378 1.47084 
2.07788 6.5168 1.49166 
1.94401 6.51649 1.54738 
1.84517 6.54675 1.38915 
1.71631 6.54194 1.47228 
1.60854 6.53129 1.5851 
1.38094 6.56053 1.48521 
1.25582 6.57643 1.43145 
1.15793 6.63809 1.06767 
1.02684 6.65727 0.994806 
0.926253 6.69238 0.805666 
0.791843 6.68124 0.932396 
0.687343 6.75009 0.524225 
0.559536 6.78688 0.335023 
0.453631 6.81392 0.200729 
0.328462 6.73174 0.78812 
0.219421 6.78918 0.456447 
0.0924811 6.80621 0.396046 
-0.0138681 6.84287 0.199072 
-0.143579 6.84939 0.208454 
-0.248872 6.83782 0.326374 
-0.382249 6.86017 0.233778 
-0.487533 6.86539 0.241921 
-0.617415 6.90462 0.0375583 
-0.723007 6.91039 0.0422047 
-0.85192 6.92129 0.022719 
-0.957013 6.9111 0.131503 
-1.08063 6.88248 0.368234 
-1.18615 6.86881 0.499932 
-1.30922 6.85497 0.639816 
-1.42221 6.91259 0.308534 
-1.55049 6.90663 0.399016 
-1.6491 6.87428 0.650081 
-1.78133 6.88674 0.621693 
-1.87614 6.84337 0.94331 
-2.00792 6.84328 0.996871 
-2.11171 6.86336 0.907234 
-2.23744 6.8301 1.17523 
-2.33707 6.81437 1.31803 
-2.47239 6.85386 1.11425 
-2.5674 6.78175 1.62383 
-2.69486 6.78738 1.63827 
-2.79457 6.76255 1.84065 
-2.92023 6.76218 1.89356 
-3.02404 6.75398 1.98891 
-3.38377 6.79241 1.88225 
-3.48577 6.78049 2.00123 
-3.61486 6.80929 1.86482 
-3.72021 6.81839 1.84768 
-3.95452 6.85492 1.70309 
5.79828 7.08111 -3.43201 
5.13411 6.96195 -2.38899 
4.99499 6.86222 -1.68281 
4.87901 6.91901 -2.00684 
4.78613 6.9699 -2.30163 
4.62817 6.89846 -1.77242 
4.55708 7.01807 -2.52419 
4.13357 6.85662 -1.3016 
3.99728 6.75207 -0.56512 
3.73835 6.65802 0.151891 
3.60916 6.66202 0.177491 
3.37468 6.69809 0.0360679 
3.26576 6.65554 0.357221 
3.13059 6.6245 0.613787 
3.02544 6.63061 0.615966 
2.89584 6.62567 0.700103 
2.78488 6.57358 1.08429 
2.65099 6.54383 1.33189 
2.31696 6.56005 1.3598 
2.17901 6.53419 1.58372 
2.07826 6.57384 1.3654 
1.94973 6.58037 1.37431 
1.84543 6.56908 1.48969 
1.71301 6.53625 1.75687 
1.61346 6.60945 1.31922 
1.3832 6.61123 1.39984 
1.25903 6.62228 1.37753 
1.15223 6.63154 1.35987 
1.02814 6.7074 0.914746 
0.929545 6.7085 0.94705 
0.790087 6.68002 1.18866 
0.691217 6.76987 0.642178 
0.560879 6.83365 0.278348 
0.45631 6.79895 0.546583 
0.33025 6.75753 0.867322 
0.221228 6.78127 0.756123 
0.0895137 6.88824 0.111145 
-0.0152136 6.87944 0.210497 
-0.138338 6.82953 0.585426 
-0.37833 6.86123 0.474785 
-0.482236 6.88898 0.335411 
-0.614676 6.91906 0.192326 
-0.717753 6.9297 0.164217 
-0.850774 6.94825 0.0965579 
-0.95779 6.99908 -0.192182 
-1.07691 6.91543 0.401294 
-1.19076 6.97985 0.0266867 
-1.30757 6.91067 0.524863 
-1.41549 6.91185 0.560412 
-1.53968 6.88865 0.761577 
-1.65048 6.92794 0.549753 
-1.77704 6.90905 0.723743 
-1.87732 6.89603 0.848924 
-2.00365 6.89607 0.899303 
-2.23256 6.86455 1.19678 
-2.33555 6.85868 1.2764 
-2.46789 6.86514 1.28738 
-2.56379 6.81747 1.63688 
-2.69333 6.82648 1.63009 
-2.79388 6.79309 1.88827 
-2.91549 6.77657 2.04483 
-3.02407 6.79975 1.93722 
-3.26276 6.86314 1.61953 
-3.4851 6.82139 1.98113 
-3.61396 6.85474 1.81534 
-3.7155 6.83582 1.97955 
-3.84592 6.85625 1.89866 
-3.95081 6.8759 1.81253 
-4.18672 6.91197 1.67202 
-4.30777 6.87854 1.93874 
5.92783 7.17522 -3.8422 
5.68706 7.20459 -3.93714 
5.13206 6.98867 -2.30976 
5.02217 6.97075 -2.14918 
4.89153 6.99321 -2.24315 
4.78313 6.99228 -2.1938 
4.64786 6.99708 -2.17097 
4.53096 6.96435 -1.91125 
4.28307 6.94975 -1.71712 
3.7717 6.83704 -0.779098 
3.61035 6.72799 -0.00478799 
3.50433 6.70551 0.183927 
3.36216 6.6423 0.652236 
3.26336 6.65486 0.609978 
3.1308 6.65329 0.673176 
3.01939 6.61857 0.943742 
2.89151 6.59706 1.13482 
2.78462 6.60617 1.11825 
2.65739 6.60442 1.18052 
2.31136 6.55991 1.60863 
2.17536 6.54585 1.75456 
2.07606 6.57375 1.61267 
1.94752 6.58519 1.58955 
1.84831 6.61645 1.42577 
1.71925 6.60693 1.53934 
1.61514 6.64007 1.36524 
1.38518 6.65445 1.36368 
1.26 6.65049 1.43953 
1.15551 6.69189 1.21179 
1.02393 6.69651 1.23438 
0.92957 6.75754 0.874876 
0.797752 6.74626 1.00103 
0.694175 6.80026 0.690942 
0.563744 6.83358 0.526218 
0.459519 6.78183 0.904835 
0.33121 6.83066 0.638308 
0.224606 6.86931 0.429378 
0.096498 6.88313 0.39068 
-0.0144055 6.91333 0.238463 
-0.142875 6.92809 0.193815 
-0.244884 6.91189 0.340119 
-0.379715 6.96357 0.057658 
-0.483918 6.962 0.109639 
-0.61221 6.94279 0.286065 
-0.717284 6.96518 0.182344 
-0.849145 6.98588 0.100411 
-0.948397 6.96583 0.27065 
-1.07293 6.92069 0.614413 
-1.18609 6.98463 0.243513 
-1.30614 6.93946 0.58563 
-1.41898 6.98308 0.346862 
-1.54173 6.96049 0.543124 
-1.64841 6.95917 0.59443 
-1.77611 6.95653 0.662788 
-1.87373 6.92419 0.912453 
-1.99973 6.89779 1.13485 
-2.10168 6.88038 1.28903 
-2.22654 6.8721 1.39297 
-2.33269 6.9179 1.13738 
-2.4629 6.87586 1.46324 
-2.56201 6.86191 1.59379 
-2.69151 6.86391 1.63272 
-2.79216 6.85716 1.71698 
-2.91832 6.84659 1.83638 
-3.02459 6.85043 1.85403 
-3.25717 6.8635 1.86218 
-3.38175 6.88426 1.77701 
-3.48419 6.85962 1.97849 
-3.60875 6.87152 1.95096 
-3.71872 6.90027 1.80793 
-3.95141 6.92846 1.71774 
-4.18292 6.94126 1.72729 
5.82246 7.25069 -4.03586 
4.87955 6.98931 -1.96147 
4.79274 7.05937 -2.3819 
4.62136 6.94073 -1.54278 
4.54504 7.04201 -2.17027 
4.11578 6.85317 -0.772204 
3.753 6.79713 -0.263365 
3.60503 6.71962 0.299252 
3.36735 6.69576 0.549138 
3.26186 6.66139 0.81451 
3.13086 6.67115 0.803419 
3.02025 6.63303 1.09523 
2.88235 6.58961 1.43233 
2.78525 6.63511 1.17551 
2.65395 6.61906 1.33225 
2.55149 6.63578 1.26451 
2.31507 6.6152 1.49263 
2.17856 6.60586 1.60786 
2.07794 6.62457 1.52651 
1.94921 6.61804 1.62035 
1.84945 6.63238 1.56705 
1.71738 6.62285 1.68173 
1.61926 6.68559 1.31334 
1.38548 6.67495 1.47589 
1.25894 6.68047 1.49059 
1.1605 6.71923 1.27817 
1.02879 6.73833 1.20668 
0.92945 6.7479 1.18421 
0.799132 6.80593 0.859368 
0.691186 6.83483 0.714764 
0.56416 6.78692 1.07673 
0.461192 6.80917 0.973361 
0.334064 6.86673 0.650263 
0.226048 6.90694 0.432206 
0.0977904 6.89831 0.539565 
-0.0132985 6.97357 0.0950779 
-0.135696 6.91842 0.502301 
-0.248243 6.99329 0.0609189 
-0.371411 6.90009 0.715623 
-0.483186 6.99262 0.159223 
-0.608975 6.96478 0.390431 
-0.720979 7.02951 0.0146975 
-0.845048 7.00803 0.203828 
-0.947445 6.99961 0.299544 
-1.07394 6.97959 0.480172 
-1.18532 7.03509 0.164188 
-1.30847 6.99757 0.457231 
-1.42126 7.07388 0.00658659 
-1.53772 6.99002 0.597986 
-1.64499 6.9999 0.576746 
-1.76768 6.97294 0.800965 
-1.86592 6.93406 1.09291 
-1.99545 6.9119 1.28871 
-2.22002 6.84979 1.78219 
-2.33047 6.91996 1.37048 
-2.45844 6.89642 1.57464 
-2.55668 6.89068 1.65133 
-2.68583 6.87119 1.82966 
-2.79191 6.89361 1.72645 
-2.91691 6.87864 1.87379 
-3.02247 6.90024 1.77574 
-3.25774 6.91843 1.75178 
-3.37946 6.91317 1.83474 
-3.48352 6.91154 1.88703 
-3.71792 6.94087 1.79039 
-3.83718 6.90152 2.09387 
-3.94474 6.94088 1.8812 
-4.17865 6.9667 1.80718 
6.19655 7.31733 -4.36264 
5.67688 7.2256 -3.56069 
5.03174 7.07173 -2.30591 
4.88591 7.03514 -2.01051 
4.78619 7.06738 -2.17979 
4.63021 7.00537 -1.71558 
4.55376 7.10079 -2.30366 
4.0142 6.91144 -0.861077 
3.8557 6.80496 -0.107547 
3.74453 6.79601 -0.00519204 
3.6119 6.77842 0.161688 
3.51612 6.81246 -0.0207794 
3.37342 6.75782 0.390369 
3.26155 6.69331 0.85313 
3.13433 6.72343 0.708623 
3.02209 6.68409 1.00843 
2.89415 6.67283 1.13244 
2.79029 6.6854 1.09238 
