ply
format ascii 1.0
element vertex 1791
property float x
property float y
property float z
end_header
-3.37296 -7.49376 1.24114 
-3.47145 -7.49524 1.40312 
-3.60714 -7.48203 1.16706 
-3.70949 -7.47936 1.20891 
-3.84156 -7.46964 1.07362 
-3.93663 -7.47554 1.3649 
-4.06558 -7.46912 1.32545 
-4.1646 -7.46921 1.44632 
-4.2952 -7.46107 1.35713 
-4.38906 -7.46403 1.55825 
-4.51968 -7.45841 1.54501 
-4.62587 -7.45116 1.45327 
-4.74804 -7.45162 1.61314 
-4.85291 -7.44615 1.57342 
-4.97163 -7.44883 1.79631 
-5.07299 -7.44514 1.80596 
-5.1987 -7.44264 1.88091 
-5.29358 -7.44295 2.00375 
-5.42175 -7.43804 2.00886 
-5.52988 -7.42949 1.88031 
-5.65152 -7.42835 1.99133 
-5.74249 -7.43148 2.19452 
-5.86959 -7.42754 2.22756 
-5.97091 -7.42405 2.24353 
-6.09537 -7.42157 2.31776 
-6.18182 -7.42669 2.57525 
-6.32671 -7.41024 2.25277 
-6.41931 -7.41124 2.39369 
-6.64832 -7.40369 2.4397 
-6.86526 -7.40047 2.60231 
-6.98488 -7.4011 2.76438 
-7.07999 -7.39855 2.8013 
-7.21937 -7.38796 2.64858 
-7.31852 -7.38422 2.65448 
-7.78492 -7.36408 2.60543 
3.46373 -7.56515 -3.59977 
3.35125 -7.56775 -3.38952 
3.20945 -7.56799 -3.21517 
3.10235 -7.56009 -3.32435 
2.96788 -7.56051 -3.15331 
2.85414 -7.56772 -2.80381 
2.71244 -7.57266 -2.48898 
2.60993 -7.56298 -2.65682 
2.46926 -7.57481 -2.13779 
1.69596 -7.66138 1.35937 
1.45802 -7.66503 1.74952 
1.35511 -7.66533 1.88008 
1.22278 -7.67644 2.368 
1.11764 -7.68123 2.63531 
0.992002 -7.67748 2.67178 
0.886104 -7.67273 2.65516 
0.661563 -7.67215 2.90335 
0.534823 -7.67057 3.00612 
0.434608 -7.66682 3.01265 
0.306986 -7.66083 2.98485 
0.205947 -7.65839 3.03142 
0.0804729 -7.6576 3.15637 
-0.0186622 -7.65807 3.28749 
-0.246117 -7.64254 3.09287 
-0.37253 -7.63386 2.98342 
-0.474958 -7.63372 3.10028 
-0.600584 -7.6158 2.71394 
-0.699758 -7.62272 3.03794 
-0.828326 -7.60895 2.77896 
-0.930761 -7.60822 2.87831 
-1.15698 -7.59745 2.82441 
-1.28547 -7.58686 2.66038 
-1.38354 -7.59052 2.88563 
-1.51517 -7.5728 2.51234 
-1.61285 -7.57311 2.63718 
-1.74246 -7.55949 2.38419 
-1.8456 -7.55228 2.29074 
-2.07931 -7.53389 2.01834 
-2.21059 -7.51955 1.74584 
-2.31298 -7.51409 1.70383 
-2.44327 -7.50398 1.55628 
-2.54391 -7.5017 1.60731 
-2.67866 -7.487 1.32813 
-2.77657 -7.48843 1.48676 
-2.91217 -7.47324 1.19382 
-3.01502 -7.46889 1.18571 
-3.14704 -7.45872 1.03846 
-3.24563 -7.4583 1.14267 
-3.37472 -7.45394 1.16514 
-3.46873 -7.45898 1.42722 
-3.60589 -7.44398 1.14173 
-3.70335 -7.44606 1.31941 
-3.83377 -7.43969 1.28358 
-3.93855 -7.43413 1.24169 
-4.06136 -7.43408 1.38559 
-4.16509 -7.42886 1.35265 
-4.29156 -7.42521 1.39355 
-4.39286 -7.42254 1.434 
-4.51987 -7.41996 1.50744 
-4.62371 -7.41419 1.45825 
-4.74437 -7.41669 1.67595 
-4.84894 -7.41098 1.62923 
-4.97263 -7.41036 1.75746 
-5.071 -7.40753 1.78962 
-5.1942 -7.40739 1.93152 
-5.29224 -7.40591 2.00352 
-5.42328 -7.39866 1.94235 
-5.52783 -7.39258 1.88469 
-5.64277 -7.3969 2.15008 
-5.7593 -7.38107 1.8155 
-5.86017 -7.39536 2.36205 
-5.97128 -7.38552 2.19969 
-6.09365 -7.38437 2.31063 
-6.17685 -7.39211 2.64037 
-6.32662 -7.37299 2.24723 
-6.41945 -7.37277 2.35059 
-6.642 -7.36927 2.51028 
-6.76907 -7.36404 2.50471 
-6.8609 -7.36488 2.63891 
-6.9863 -7.36193 2.69948 
-7.07306 -7.3645 2.87948 
-7.21961 -7.35065 2.63963 
-7.31977 -7.34607 2.62173 
-7.78073 -7.32711 2.60263 
3.35423 -7.52603 -3.49503 
3.19374 -7.54533 -2.7363 
3.0947 -7.53429 -2.947 
2.94751 -7.5441 -2.48448 
2.85517 -7.5295 -2.80797 
2.61128 -7.52551 -2.64026 
2.37119 -7.52541 -2.36191 
1.70218 -7.61971 1.21069 
1.4594 -7.63558 1.96473 
1.35671 -7.63344 2.02202 
1.2223 -7.6425 2.44749 
1.12034 -7.64255 2.56864 
0.991687 -7.64048 2.65839 
0.889622 -7.63389 2.58318 
0.66392 -7.6346 2.86871 
0.536181 -7.63577 3.05329 
0.432652 -7.63209 3.06588 
0.308177 -7.62753 3.077 
0.207826 -7.62376 3.08326 
0.0826838 -7.62066 3.13853 
-0.0177932 -7.62072 3.25821 
-0.243148 -7.60992 3.20327 
-0.369863 -7.59853 3.0151 
-0.472763 -7.59534 3.04154 
-0.597513 -7.59193 3.08712 
-0.6976 -7.58723 3.06545 
-0.826081 -7.57458 2.84208 
-0.924757 -7.57458 2.95794 
-1.0554 -7.56315 2.7732 
-1.15504 -7.56103 2.82752 
-1.2835 -7.55052 2.66754 
-1.38302 -7.54682 2.67482 
-1.514 -7.53396 2.44828 
-1.6104 -7.54024 2.74709 
-1.74163 -7.51779 2.23733 
-1.84073 -7.52424 2.5445 
-1.97371 -7.50128 2.02124 
-2.07799 -7.49716 2.02197 
-2.2102 -7.47895 1.63855 
-2.31251 -7.47878 1.7537 
-2.44546 -7.46038 1.36567 
-2.54184 -7.4678 1.69835 
-2.68004 -7.44602 1.21643 
-2.91087 -7.43613 1.19513 
-3.01244 -7.43243 1.20496 
-3.14353 -7.42314 1.08409 
-3.24471 -7.42045 1.12332 
-3.37138 -7.41744 1.18311 
-3.46905 -7.42087 1.39957 
-3.60508 -7.40692 1.14668 
-3.70759 -7.40635 1.25039 
-3.83284 -7.40224 1.27587 
-3.93787 -7.39641 1.22692 
-4.05924 -7.39705 1.3886 
-4.16491 -7.39071 1.32508 
-4.29808 -7.38157 1.21133 
-4.38922 -7.38994 1.56614 
-4.51627 -7.38507 1.57154 
-4.61427 -7.38445 1.6685 
-4.74297 -7.3772 1.6053 
-4.84503 -7.37398 1.63002 
-4.96677 -7.37473 1.79549 
-5.06897 -7.37263 1.85344 
-5.19989 -7.36386 1.74813 
-5.29023 -7.36902 2.00709 
-5.42131 -7.361 1.92386 
-5.52374 -7.35747 1.93993 
-5.63885 -7.36113 2.18366 
-5.75144 -7.34988 1.9834 
-5.87169 -7.34967 2.11864 
-5.96421 -7.35172 2.28811 
-6.09485 -7.34503 2.24401 
-6.17808 -7.35309 2.58043 
-6.32186 -7.33796 2.30205 
-6.41826 -7.33577 2.35058 
-6.64333 -7.32984 2.44012 
-6.76686 -7.32801 2.53148 
-6.85235 -7.33177 2.7432 
-6.98405 -7.32566 2.71761 
-7.07773 -7.32486 2.80427 
-7.22138 -7.31153 2.57896 
-7.31607 -7.31087 2.67102 
-7.55954 -7.29494 2.48621 
-7.77841 -7.29146 2.64106 
3.46782 -7.48833 -3.60929 
3.34931 -7.49348 -3.32052 
3.21553 -7.49022 -3.26062 
3.10192 -7.489 -3.16442 
2.957 -7.49826 -2.72483 
2.84952 -7.50052 -2.53371 
2.72216 -7.48803 -2.75166 
2.61604 -7.48281 -2.78113 
1.7003 -7.58817 1.37126 
1.45742 -7.60432 2.12719 
1.35922 -7.59697 2.02603 
1.22363 -7.60808 2.50942 
1.12196 -7.60741 2.60805 
0.994234 -7.60306 2.62922 
0.764038 -7.60134 2.84683 
0.664832 -7.59145 2.67259 
0.538168 -7.59679 2.97634 
0.434791 -7.59354 3.00156 
0.312042 -7.5835 2.85019 
0.209844 -7.58157 2.91272 
0.0835923 -7.58241 3.08415 
-0.0164799 -7.58575 3.29858 
-0.141672 -7.57321 3.07692 
-0.241256 -7.57254 3.17311 
-0.366069 -7.56435 3.07851 
-0.46791 -7.56251 3.14333 
-0.596535 -7.55037 2.93734 
-0.695398 -7.55369 3.1496 
-0.82389 -7.54004 2.89923 
-0.924976 -7.53636 2.90927 
-1.0527 -7.52515 2.72923 
-1.15227 -7.52408 2.81391 
-1.28144 -7.51291 2.63717 
-1.38144 -7.51482 2.80974 
-1.51214 -7.49848 2.48292 
-1.60881 -7.50285 2.72382 
-1.74071 -7.48395 2.32335 
-1.84034 -7.48402 2.44146 
-2.07778 -7.45704 1.92747 
-2.20659 -7.4456 1.74231 
-2.30911 -7.44236 1.76674 
-2.44134 -7.42856 1.51626 
-2.54121 -7.42771 1.60789 
-2.68021 -7.40767 1.18235 
-2.77357 -7.41316 1.4521 
-3.01411 -7.39023 1.06067 
-3.14628 -7.38306 1.0043 
-3.24158 -7.38481 1.16679 
-3.3727 -7.3785 1.13474 
-3.46573 -7.38528 1.44208 
-3.60183 -7.37226 1.21922 
-3.70462 -7.36908 1.24574 
-3.82903 -7.36578 1.29416 
-3.93215 -7.3622 1.30941 
-4.05998 -7.35801 1.33577 
-4.16436 -7.35443 1.35251 
-4.28758 -7.35268 1.44516 
-4.39111 -7.34961 1.47599 
-4.51748 -7.34441 1.47078 
-4.61866 -7.3414 1.5006 
-4.74794 -7.33494 1.46229 
-4.8432 -7.33769 1.65406 
-4.96591 -7.33711 1.78016 
-5.07231 -7.33019 1.70146 
-5.19784 -7.32821 1.78987 
-5.29434 -7.32731 1.87621 
-5.42086 -7.32354 1.9134 
-5.52606 -7.31675 1.8373 
-5.65118 -7.31428 1.91093 
-5.74097 -7.31916 2.15871 
-5.86855 -7.31359 2.14435 
-5.96625 -7.31234 2.222 
-6.09587 -7.30615 2.19169 
-6.1772 -7.31568 2.56628 
-6.31655 -7.30332 2.36668 
-6.42479 -7.29413 2.22356 
-6.77412 -7.28546 2.37745 
-6.86196 -7.28946 2.5974 
-6.98282 -7.2883 2.70456 
-7.0744 -7.28905 2.83361 
-7.22081 -7.27434 2.57327 
-7.31243 -7.27525 2.70721 
-7.77806 -7.25305 2.60014 
3.46473 -7.45476 -3.46709 
3.35585 -7.45118 -3.44555 
3.20312 -7.46884 -2.75688 
3.09686 -7.46565 -2.72678 
2.95536 -7.46974 -2.44489 
2.85475 -7.45609 -2.72518 
2.72281 -7.44894 -2.78062 
2.61389 -7.44891 -2.65589 
2.36696 -7.45606 -2.16347 
1.70436 -7.55 1.32938 
1.45788 -7.56561 2.06755 
1.35953 -7.56043 2.03055 
1.2259 -7.57001 2.46326 
1.12455 -7.56698 2.49225 
0.994515 -7.56911 2.70434 
0.896909 -7.55532 2.41655 
0.766868 -7.56901 2.96422 
0.66489 -7.56382 2.93137 
0.540547 -7.5602 2.96981 
0.436593 -7.55479 2.93285 
0.312966 -7.5501 2.93964 
0.212452 -7.55025 3.06006 
0.0836098 -7.54637 3.09608 
-0.0141715 -7.54758 3.24422 
-0.239523 -7.5362 3.17413 
-0.365618 -7.52872 3.10261 
-0.466406 -7.52148 3.00886 
-0.595463 -7.51203 2.88367 
-0.694432 -7.51466 3.07439 
-0.82316 -7.50183 2.85054 
-0.921821 -7.50333 3.00829 
-1.15277 -7.48302 2.68535 
-1.28174 -7.47357 2.56002 
-1.3803 -7.47217 2.63325 
-1.50953 -7.45764 2.36067 
-1.60786 -7.46348 2.64394 
-1.73855 -7.44477 2.25146 
-1.84185 -7.43984 2.22789 
-1.96934 -7.42884 2.05562 
-2.07284 -7.42581 2.08754 
-2.20346 -7.41309 1.86905 
-2.30681 -7.40803 1.84147 
-2.44118 -7.39246 1.54465 
-2.53492 -7.39591 1.75335 
-2.67705 -7.374 1.28137 
-2.90441 -7.36572 1.30376 
-3.01218 -7.35347 1.07276 
-3.13962 -7.34794 1.05942 
-3.24082 -7.34484 1.08666 
-3.36866 -7.3432 1.18689 
-3.46403 -7.34746 1.42113 
-3.60346 -7.33115 1.10854 
-3.70047 -7.33243 1.25808 
-3.82636 -7.33013 1.33705 
-3.92709 -7.32882 1.41545 
-4.05976 -7.31935 1.29411 
-4.15602 -7.32123 1.45999 
-4.28588 -7.31479 1.42323 
-4.38344 -7.31726 1.60804 
-4.50985 -7.31271 1.62227 
-4.60865 -7.31245 1.72917 
-4.73811 -7.30549 1.67672 
-4.84626 -7.29604 1.52745 
-4.96366 -7.30029 1.78712 
-5.06284 -7.29987 1.88961 
-5.19804 -7.28842 1.71374 
-5.28551 -7.29634 2.0451 
-5.42493 -7.2827 1.81041 
-5.51905 -7.28396 1.95611 
-5.63862 -7.28489 2.12142 
-5.74521 -7.27698 2.01535 
-5.87084 -7.27463 2.09244 
-5.9649 -7.27582 2.23598 
-6.08564 -7.27444 2.33589 
-6.17145 -7.28125 2.63349 
-6.31757 -7.26454 2.31726 
-6.41864 -7.25977 2.29562 
-6.64007 -7.25548 2.42784 
-6.76366 -7.25392 2.52575 
-6.86334 -7.25054 2.54321 
-6.98463 -7.24986 2.66406 
-7.07307 -7.2522 2.83444 
-7.22171 -7.23594 2.53441 
-7.31665 -7.23497 2.61649 
-7.78686 -7.21096 2.46407 
3.46556 -7.41582 -3.48683 
3.35179 -7.42108 -3.20511 
3.21066 -7.42312 -2.98501 
3.12279 -7.39817 -3.60234 
2.95987 -7.42658 -2.59826 
2.84384 -7.43327 -2.27295 
2.7285 -7.40981 -2.81609 
2.61973 -7.40746 -2.75904 
1.46102 -7.52951 2.08084 
1.36182 -7.52563 2.08304 
1.22806 -7.53266 2.43876 
1.12547 -7.53278 2.55983 
0.99914 -7.53232 2.69122 
0.896693 -7.52575 2.61953 
0.769261 -7.52477 2.73745 
0.666054 -7.52136 2.75757 
0.539928 -7.52272 2.94129 
0.439272 -7.52173 3.02834 
0.315087 -7.51549 2.99124 
0.212948 -7.51206 3.00943 
0.0870105 -7.50981 3.08929 
-0.0121158 -7.51089 3.23409 
-0.237976 -7.50147 3.22181 
-0.364889 -7.4887 2.99991 
-0.46579 -7.48771 3.08718 
-0.590928 -7.47853 2.96628 
-0.691561 -7.48242 3.19377 
-0.820758 -7.46473 2.83279 
-0.921336 -7.46357 2.91496 
-1.1474 -7.45186 2.83705 
-1.27876 -7.43758 2.57689 
-1.37863 -7.43618 2.65108 
-1.5083 -7.42414 2.45315 
-1.60632 -7.42691 2.64539 
-1.73911 -7.4069 2.22174 
-1.83496 -7.41521 2.57117 
-1.96819 -7.38715 1.91634 
-2.07354 -7.38332 1.92705 
-2.2041 -7.37038 1.70428 
-2.30184 -7.37078 1.82788 
-2.43448 -7.35914 1.64516 
-2.53838 -7.35487 1.64164 
-2.67145 -7.33914 1.34142 
-2.77107 -7.33899 1.4515 
-2.90914 -7.31692 0.974686 
-3.00783 -7.32144 1.21808 
-3.13767 -7.30996 1.03682 
-3.23757 -7.31073 1.17348 
-3.36803 -7.30622 1.19347 
-3.46193 -7.31122 1.44556 
-3.59675 -7.29909 1.25119 
-3.69882 -7.29535 1.26069 
-3.82982 -7.28743 1.183 
-3.92958 -7.28863 1.33228 
-4.05463 -7.28503 1.3724 
-4.15419 -7.28379 1.45105 
-4.28698 -7.27707 1.41008 
-4.38393 -7.27639 1.502 
-4.5126 -7.27048 1.47954 
-4.61188 -7.27059 1.59695 
-4.7425 -7.26231 1.50872 
-4.84438 -7.25911 1.53354 
-4.96443 -7.2608 1.72019 
-5.06273 -7.2619 1.86508 
-5.19695 -7.25079 1.69942 
-5.29318 -7.25153 1.83138 
-5.41566 -7.25057 1.94449 
-5.51846 -7.24585 1.92685 
-5.64379 -7.24194 1.95838 
-5.75079 -7.23409 1.85527 
-5.86517 -7.2402 2.16303 
-5.97261 -7.23227 2.05809 
-6.09592 -7.22933 2.1153 
-6.17904 -7.23849 2.47465 
-6.30919 -7.23145 2.42171 
-6.42327 -7.21951 2.20896 
-6.64402 -7.21594 2.36033 
-6.76131 -7.21761 2.54344 
-6.86054 -7.21401 2.55402 
-6.98309 -7.21286 2.66177 
-7.07342 -7.21398 2.79813 
-7.21638 -7.20045 2.57292 
-7.31558 -7.1969 2.58481 
-7.54413 -7.18984 2.6445 
-7.77213 -7.18126 2.66 
3.47039 -7.37569 -3.54432 
3.36226 -7.37373 -3.47747 
3.22603 -7.37104 -3.39925 
3.10091 -7.38425 -2.88028 
2.97013 -7.37974 -2.86054 
2.85427 -7.39141 -2.39605 
2.72617 -7.37742 -2.64956 
2.61869 -7.3728 -2.65911 
2.37015 -7.37696 -2.25799 
1.70939 -7.47111 1.179 
1.46733 -7.48688 1.90446 
1.36731 -7.47985 1.81745 
1.23015 -7.49563 2.42389 
1.12986 -7.49163 2.42376 
1.00098 -7.4915 2.56661 
0.898148 -7.49057 2.65706 
0.669763 -7.49043 2.91307 
0.543165 -7.4815 2.80234 
0.440181 -7.48804 3.10632 
0.316667 -7.47698 2.93134 
0.214584 -7.47681 3.04263 
0.0889615 -7.47486 3.12998 
-0.0109533 -7.47343 3.20286 
-0.23685 -7.46347 3.17581 
-0.361441 -7.45556 3.09206 
-0.464096 -7.45042 3.06224 
-0.590403 -7.44172 2.95778 
-0.690147 -7.44333 3.11731 
-0.817658 -7.42716 2.80126 
-0.920071 -7.42441 2.83949 
-1.148 -7.41279 2.76757 
-1.27624 -7.40568 2.7105 
-1.37576 -7.40282 2.74238 
-1.5075 -7.38166 2.28878 
-1.60333 -7.39203 2.69371 
-1.73686 -7.37074 2.23841 
-1.83303 -7.38002 2.61289 
-1.96749 -7.35152 1.95258 
-2.07328 -7.34355 1.8459 
-2.20431 -7.33215 1.66979 
-2.30167 -7.33841 1.95929 
-2.43782 -7.31584 1.4704 
-2.53142 -7.32221 1.75887 
-2.67036 -7.30099 1.31173 
-3.00963 -7.27776 1.03555 
-3.13431 -7.27503 1.09974 
-3.23358 -7.27622 1.24678 
-3.36511 -7.26962 1.2084 
-3.46112 -7.27301 1.41483 
-3.5954 -7.26123 1.23152 
-3.7 -7.25512 1.17656 
-3.82388 -7.25557 1.33066 
-3.92562 -7.2536 1.39044 
-4.0546 -7.24521 1.29821 
-4.15342 -7.24611 1.43651 
-4.28706 -7.23699 1.3286 
-4.38577 -7.23757 1.45796 
-4.51209 -7.23226 1.45028 
-4.60782 -7.23464 1.62761 
-4.73463 -7.23139 1.67957 
-4.83332 -7.2312 1.7866 
-4.95882 -7.22717 1.81489 
-5.06636 -7.21958 1.72081 
-5.19302 -7.21691 1.78921 
-5.29108 -7.2149 1.84391 
-5.416 -7.21148 1.8889 
-5.52399 -7.2035 1.78428 
-5.64023 -7.20739 2.02784 
-5.74134 -7.20235 1.99965 
-5.86377 -7.20302 2.15849 
-5.9593 -7.20357 2.28315 
-6.09093 -7.19578 2.21126 
-6.19062 -7.19287 2.2419 
-6.31084 -7.19132 2.33489 
-6.42199 -7.1826 2.21291 
-6.75861 -7.18087 2.54823 
-6.86304 -7.175 2.49988 
-6.98479 -7.1738 2.60466 
-7.06935 -7.1787 2.84126 
-7.21865 -7.1617 2.52625 
-7.3175 -7.15866 2.55242 
-7.78264 -7.1382 2.49998 
3.36657 -7.3317 -3.58743 
3.22048 -7.34239 -3.12041 
3.12077 -7.32755 -3.42748 
2.96443 -7.35113 -2.58447 
2.86649 -7.3405 -2.77456 
2.73022 -7.33741 -2.70824 
2.61816 -7.33959 -2.52025 
1.46511 -7.45916 2.16214 
1.36656 -7.44846 1.97091 
1.23062 -7.46214 2.51115 
1.13229 -7.45312 2.36712 
1.00148 -7.45705 2.62615 
0.901475 -7.44878 2.50523 
0.671384 -7.4505 2.81359 
0.543598 -7.45047 2.95721 
0.443336 -7.45168 3.10471 
0.315405 -7.43736 2.84423 
0.216613 -7.43877 2.99582 
0.0914594 -7.43751 3.10152 
-0.00973223 -7.42964 2.99332 
-0.234884 -7.42744 3.18552 
-0.36278 -7.41312 2.92506 
-0.462898 -7.41266 3.0253 
-0.58934 -7.40686 3.00402 
-0.687794 -7.40784 3.1431 
-0.817306 -7.38945 2.76934 
-0.915885 -7.39045 2.90906 
-1.04593 -7.37814 2.70802 
-1.1471 -7.37797 2.81759 
-1.27521 -7.36753 2.66712 
-1.37443 -7.36772 2.78479 
-1.50558 -7.34853 2.39013 
-1.60182 -7.35663 2.7282 
-1.7325 -7.33826 2.35639 
-1.83454 -7.33338 2.33384 
-1.96684 -7.31091 1.84768 
-2.06888 -7.31227 2.00163 
-2.20204 -7.29518 1.66887 
-2.30628 -7.28997 1.63936 
-2.43664 -7.27816 1.4528 
-2.52952 -7.28212 1.67 
-2.66792 -7.26622 1.37678 
-2.76882 -7.26165 1.36173 
-3.00211 -7.24899 1.26763 
-3.13702 -7.2328 0.962095 
-3.23108 -7.24263 1.34661 
-3.36113 -7.23355 1.23713 
-3.46244 -7.23309 1.33859 
-3.59463 -7.2212 1.15181 
-3.69835 -7.22 1.23546 
-3.92795 -7.21121 1.24665 
-4.05169 -7.21038 1.36322 
-4.15185 -7.20946 1.45054 
-4.28773 -7.1973 1.26032 
-4.37779 -7.20761 1.65422 
-4.51655 -7.18988 1.30971 
-4.60894 -7.19572 1.57955 
-4.73389 -7.19378 1.66616 
-4.84582 -7.17993 1.40102 
-4.96172 -7.18806 1.76246 
-5.06205 -7.18542 1.80129 
-5.18299 -7.18507 1.92853 
-5.28332 -7.18245 1.96785 
-5.41742 -7.17321 1.85852 
-5.5246 -7.16411 1.72239 
-5.6467 -7.16504 1.88715 
-5.747 -7.16002 1.85867 
-5.86016 -7.16774 2.20552 
-5.96518 -7.16076 2.127 
-6.08339 -7.16249 2.30991 
-6.18162 -7.15963 2.34018 
-6.31396 -7.15203 2.27511 
-6.42646 -7.14095 2.08937 
-6.64554 -7.13833 2.26346 
-6.75906 -7.14289 2.52138 
-6.85354 -7.14389 2.65672 
-6.97022 -7.14433 2.8014 
-7.07374 -7.13875 2.76108 
-7.21652 -7.12519 2.53924 
-7.30911 -7.12557 2.65499 
-7.55415 -7.10875 2.45686 
-7.76953 -7.1073 2.6602 
3.46777 -7.30616 -3.34186 
3.36206 -7.29901 -3.42383 
3.22237 -7.30302 -3.15503 
3.11736 -7.2942 -3.2848 
2.98026 -7.29398 -3.13734 
2.85774 -7.31408 -2.43696 
2.72899 -7.30129 -2.65117 
2.62773 -7.29281 -2.77542 
2.37085 -7.30789 -2.065 
1.46738 -7.42027 2.09753 
1.36827 -7.41313 2.00844 
1.23577 -7.41955 2.33694 
1.12985 -7.42734 2.6741 
1.00704 -7.41707 2.52374 
0.899763 -7.41546 2.59891 
0.774903 -7.42515 3.01063 
0.6735 -7.4152 2.84538 
0.546073 -7.41382 2.94954 
0.445537 -7.41021 2.96124 
0.318551 -7.40549 2.97116 
0.218822 -7.40293 3.01143 
0.091029 -7.39974 3.06512 
-0.00830136 -7.38638 2.80213 
-0.133247 -7.39452 3.17058 
-0.232463 -7.39473 3.2876 
-0.360101 -7.37698 2.93308 
-0.461178 -7.37944 3.1156 
-0.588179 -7.36736 2.9195 
-0.684759 -7.37324 3.19278 
-0.814439 -7.35677 2.87639 
-0.91028 -7.35551 2.94866 
-1.14397 -7.34235 2.84194 
-1.27798 -7.3288 2.61237 
-1.37303 -7.33083 2.77614 
-1.5039 -7.31373 2.44347 
-1.60079 -7.32001 2.72822 
-1.73205 -7.29927 2.29422 
-1.83374 -7.29549 2.30231 
-2.0696 -7.27092 1.87825 
-2.19922 -7.25974 1.7102 
-2.29563 -7.26063 1.8436 
-2.43272 -7.24451 1.54549 
-2.5309 -7.2464 1.70877 
-2.66656 -7.22676 1.31027 
-2.76984 -7.22028 1.24458 
-3.00546 -7.20587 1.10531 
-3.1358 -7.19823 1.03742 
-3.23222 -7.20151 1.23766 
-3.36197 -7.19481 1.19553 
-3.46301 -7.19532 1.32345 
-3.5911 -7.18572 1.19811 
-3.69665 -7.18295 1.23919 
-3.81971 -7.18139 1.33347 
-3.92469 -7.17523 1.27874 
-4.05196 -7.17113 1.30679 
-4.15125 -7.17097 1.41393 
-4.28411 -7.16188 1.30846 
-4.38531 -7.16133 1.40674 
-4.51347 -7.1543 1.3537 
-4.60995 -7.15659 1.52639 
-4.73352 -7.15563 1.63827 
-4.83597 -7.14971 1.58762 
-4.95938 -7.15043 1.74635 
-5.06368 -7.14435 1.69335 
-5.19187 -7.1393 1.69582 
-5.28927 -7.13897 1.79613 
-5.42137 -7.13179 1.74326 
-5.52342 -7.12773 1.74412 
-5.63579 -7.13469 2.06578 
-5.74596 -7.12388 1.88647 
-5.8685 -7.12426 2.03489 
-5.96091 -7.12532 2.16868 
-6.07845 -7.12763 2.36574 
-6.17637 -7.1261 2.43294 
-6.30996 -7.11726 2.33546 
-6.41388 -7.11112 2.28006 
-6.64617 -7.10126 2.26497 
-6.75887 -7.10513 2.50052 
-6.85681 -7.10266 2.54141 
-6.97972 -7.10056 2.62075 
-7.07064 -7.10223 2.77005 
-7.21166 -7.08978 2.5796 
-7.31756 -7.08333 2.51789 
-7.54468 -7.07571 2.55975 
-7.77962 -7.06363 2.48546 
3.2289 -7.25868 -3.33235 
3.11229 -7.26215 -3.10623 
2.96594 -7.27598 -2.55948 
2.8767 -7.25246 -3.1138 
2.73155 -7.26364 -2.64183 
2.61885 -7.26729 -2.41498 
2.37849 -7.2645 -2.22529 
1.46975 -7.38122 2.02916 
1.36853 -7.37242 1.89742 
1.23591 -7.38859 2.49437 
1.13514 -7.37872 2.33216 
1.00594 -7.38453 2.63758 
0.908361 -7.36489 2.20018 
0.777541 -7.38815 2.99224 
0.675782 -7.37675 2.78872 
0.547187 -7.37897 2.99358 
0.448681 -7.37259 2.92606 
0.319498 -7.36601 2.88683 
0.220859 -7.37454 3.23379 
0.0936713 -7.3632 3.06034 
-0.00684619 -7.34623 2.70062 
-0.131587 -7.35693 3.13683 
-0.231338 -7.35827 3.28541 
-0.357893 -7.34225 2.98094 
-0.458668 -7.34326 3.12136 
-0.584737 -7.32905 2.86676 
-0.684711 -7.33486 3.13973 
-0.813546 -7.31894 2.84079 
-0.910767 -7.31916 2.95514 
-1.04169 -7.3089 2.81568 
-1.14098 -7.31091 2.98243 
-1.2726 -7.29527 2.69421 
-1.36817 -7.29502 2.79366 
-1.50249 -7.27522 2.39313 
-1.60033 -7.28221 2.69652 
-1.73056 -7.26256 2.29537 
-1.82984 -7.26344 2.43046 
-2.06437 -7.24121 2.07403 
-2.19459 -7.2275 1.83806 
-2.29297 -7.22906 1.99102 
-2.42948 -7.20845 1.5704 
-2.52956 -7.20925 1.70402 
-2.66344 -7.19453 1.44433 
-2.76447 -7.19105 1.46008 
-3.00389 -7.167 1.05847 
-3.13088 -7.16243 1.073 
-3.23228 -7.16474 1.25036 
-3.35944 -7.15781 1.19972 
-3.45923 -7.16018 1.3767 
-3.59168 -7.14687 1.1546 
-3.69037 -7.14942 1.33555 
-3.81962 -7.14359 1.31748 
-3.92227 -7.13776 1.26991 
-4.04799 -7.13631 1.37001 
-4.14357 -7.14088 1.60364 
-4.28544 -7.1199 1.17879 
-4.37934 -7.12688 1.47749 
-4.50387 -7.12457 1.5522 
-4.60938 -7.11858 1.50348 
-4.72877 -7.12177 1.72538 
-4.83966 -7.10794 1.46477 
-4.95775 -7.11272 1.72958 
-5.05652 -7.11258 1.83572 
-5.19017 -7.10288 1.71531 
-5.28566 -7.10512 1.88422 
-5.41788 -7.09627 1.78589 
-5.5229 -7.0887 1.69258 
-5.64209 -7.09107 1.8917 
-5.74296 -7.08785 1.91483 
-5.8612 -7.09076 2.1276 
-5.96368 -7.08532 2.09079 
-6.0759 -7.09135 2.38389 
-6.18197 -7.08488 2.32257 
-6.31875 -7.07258 2.1333 
-6.41241 -7.07411 2.28063 
-6.7537 -7.07029 2.55568 
-6.85277 -7.06757 2.5907 
-6.98033 -7.06244 2.59068 
-7.06733 -7.06631 2.79541 
-7.21818 -7.04781 2.44953 
-7.30828 -7.05051 2.62523 
-7.67063 -7.03295 2.54218 
-7.76922 -7.03069 2.58943 
3.46847 -7.22824 -3.3808 
3.21029 -7.24081 -2.74957 
3.10111 -7.24044 -2.63925 
2.97831 -7.22577 -2.9078 
2.86843 -7.22538 -2.7973 
2.73736 -7.21986 -2.80477 
2.63029 -7.21804 -2.73673 
2.49064 -7.22465 -2.40044 
2.37489 -7.2342 -2.00971 
1.4729 -7.34292 1.98219 
1.37139 -7.34161 2.05813 
1.23805 -7.34637 2.3367 
1.13419 -7.34841 2.50779 
1.00904 -7.34558 2.56785 
0.908979 -7.3412 2.558 
0.678024 -7.3434 2.87372 
0.549856 -7.3389 2.8915 
0.449237 -7.3427 3.10732 
0.322589 -7.33145 2.9374 
0.222595 -7.33674 3.19374 
0.0947086 -7.32606 3.04078 
-0.00457616 -7.31134 2.7451 
-0.230073 -7.31797 3.17696 
-0.355004 -7.30948 3.08131 
-0.456488 -7.30769 3.14415 
-0.58394 -7.29456 2.92332 
-0.684061 -7.29431 3.0271 
-0.813213 -7.28269 2.84984 
-0.909857 -7.27983 2.87779 
-1.04125 -7.26834 2.70651 
-1.14168 -7.26858 2.82414 
-1.26972 -7.26043 2.74126 
-1.36914 -7.25666 2.74737 
-1.49936 -7.24121 2.46573 
-1.59864 -7.24488 2.67679 
-1.73055 -7.22043 2.14892 
-1.82908 -7.2259 2.40869 
-1.96077 -7.20369 1.94225 
-2.06504 -7.19825 1.90777 
-2.19825 -7.17928 1.5324 
-2.29117 -7.18681 1.84265 
-2.4309 -7.16359 1.35744 
-2.53199 -7.16447 1.49366 
-2.66299 -7.15352 1.33694 
-3.00114 -7.12991 1.06047 
-3.13001 -7.12719 1.1283 
-3.23388 -7.12356 1.14303 
-3.35709 -7.122 1.2365 
-3.4607 -7.11791 1.23852 
-3.5931 -7.10717 1.08924 
-3.69166 -7.10796 1.22 
-3.81557 -7.10742 1.34246 
-3.92226 -7.1004 1.26726 
-4.04665 -7.09929 1.37445 
-4.14911 -7.09464 1.35967 
-4.27902 -7.08717 1.29771 
-4.37296 -7.09497 1.61668 
-4.50348 -7.08382 1.45412 
-4.60927 -7.08036 1.476 
-4.728 -7.08208 1.65488 
-4.83606 -7.07352 1.53881 
-4.95639 -7.07573 1.73303 
-5.06064 -7.07021 1.69644 
-5.19132 -7.06248 1.62817 
-5.28905 -7.064 1.77826 
-5.41588 -7.05955 1.7964 
-5.52437 -7.04874 1.61862 
-5.63993 -7.05513 1.9228 
-5.7418 -7.05004 1.8955 
-5.85416 -7.05731 2.2205 
-5.96154 -7.0473 2.0637 
-6.08541 -7.04592 2.16284 
-6.1792 -7.04709 2.2992 
-6.3165 -7.03659 2.16217 
-6.40015 -7.0442 2.46462 
-6.63561 -7.02983 2.32965 
-6.75479 -7.03154 2.50906 
-6.85711 -7.02681 2.49218 
-6.98089 -7.02436 2.56191 
-7.07383 -7.02448 2.66851 
-7.22088 -7.0082 2.38275 
-7.31036 -7.01119 2.56455 
-7.55326 -6.99436 2.36998 
-7.6696 -6.99599 2.54413 
-7.77419 -6.99017 2.49965 
3.3609 -7.19207 -3.20527 
3.21722 -7.19654 -2.92569 
3.11179 -7.19017 -2.98414 
2.97799 -7.18943 -2.85764 
2.74185 -7.17795 -2.91263 
2.63049 -7.18072 -2.71493 
2.49318 -7.18561 -2.43083 
2.3768 -7.19654 -2.00452 
1.47321 -7.2992 1.79086 
1.37339 -7.30134 1.95882 
1.23814 -7.31499 2.48022 
1.13574 -7.30971 2.44816 
1.01161 -7.31346 2.68684 
0.907277 -7.30625 2.60435 
0.780909 -7.31032 2.85436 
0.680108 -7.30105 2.71164 
0.551342 -7.30561 2.97767 
0.452413 -7.30391 3.03977 
0.325197 -7.29565 2.95364 
0.223617 -7.29821 3.13518 
0.0957812 -7.28392 2.88516 
-0.00180143 -7.27502 2.74899 
-0.128098 -7.28489 3.15724 
-0.227154 -7.28466 3.25976 
-0.354633 -7.26938 2.98236 
-0.455519 -7.26879 3.07688 
-0.580332 -7.25765 2.90972 
-0.681788 -7.26045 3.09743 
-0.811007 -7.24558 2.83306 
-0.909009 -7.24891 3.03183 
-1.03692 -7.2397 2.92077 
-1.13939 -7.23559 2.92096 
-1.26967 -7.21503 2.50214 
-1.36807 -7.21956 2.73403 
-1.49943 -7.2003 2.352 
-1.59868 -7.20397 2.5614 
-1.72685 -7.18297 2.12849 
-1.82818 -7.18646 2.33512 
-1.95928 -7.16645 1.9323 
-2.05798 -7.17255 2.20743 
-2.19333 -7.14936 1.72247 
-2.28893 -7.15553 1.99637 
-2.42904 -7.12823 1.40408 
-2.52869 -7.12904 1.53582 
-2.65942 -7.12065 1.45037 
-2.76471 -7.10981 1.26973 
-2.89893 -7.09599 1.03953 
-2.99711 -7.09715 1.17925 
-3.12785 -7.09206 1.18401 
-3.22759 -7.08827 1.19004 
-3.3542 -7.08492 1.23761 
-3.45825 -7.0803 1.22568 
-3.58984 -7.07307 1.17301 
-3.69219 -7.07 1.2016 
-3.81457 -7.06906 1.31037 
-3.91651 -7.06753 1.38083 
-4.04931 -7.05704 1.24013 
-4.14846 -7.05816 1.37968 
-4.28184 -7.04509 1.16934 
-4.37555 -7.05366 1.50679 
-4.50191 -7.04839 1.50173 
-4.60518 -7.04479 1.51685 
-4.73097 -7.04232 1.58782 
-4.84121 -7.02964 1.36245 
-4.95936 -7.03532 1.64772 
-5.05762 -7.03463 1.73714 
-5.18318 -7.031 1.776 
-5.28277 -7.02942 1.84234 
-5.41805 -7.0181 1.68206 
-5.51272 -7.01995 1.8368 
-5.64341 -7.0126 1.77976 
-5.74371 -7.0089 1.78908 
-5.86477 -7.01097 1.97896 
-5.96224 -7.00921 2.03802 
-6.09146 -7.00317 2.0154 
-6.17835 -7.00984 2.2932 
-6.31421 -7.00005 2.17539 
-6.39765 -7.00841 2.49572 
-6.62456 -6.99944 2.50046 
-6.74956 -6.99717 2.57621 
-6.85674 -6.989 2.4708 
-6.98628 -6.98251 2.43631 
-7.06531 -6.99237 2.7928 
-7.21214 -6.97519 2.48485 
-7.31297 -6.97188 2.50555 
-7.55149 -6.9576 2.37796 
-7.66771 -6.95877 2.53799 
3.46852 -7.15842 -3.19809 
3.21831 -7.16 -2.88291 
3.12363 -7.14142 -3.28318 
2.97991 -7.15149 -2.85409 
2.88255 -7.13728 -3.13319 
2.74054 -7.14787 -2.69167 
2.62843 -7.1475 -2.57972 
2.38216 -7.15337 -2.15263 
1.47202 -7.27341 2.09039 
1.37324 -7.27096 2.13141 
1.24069 -7.27678 2.43356 
1.13688 -7.27478 2.49246 
1.01108 -7.2791 2.74655 
0.907384 -7.27223 2.67353 
0.781948 -7.2759 2.90967 
0.678259 -7.27206 2.91871 
0.554131 -7.26798 2.94323 
0.45235 -7.27024 3.11546 
0.325858 -7.25687 2.89115 
0.22584 -7.26139 3.12253 
0.0986609 -7.24045 2.694 
-0.00143333 -7.23933 2.7727 
-0.125158 -7.25112 3.22711 
-0.226054 -7.24886 3.27573 
-0.353144 -7.23314 2.98849 
-0.451911 -7.23689 3.19784 
-0.580018 -7.22217 2.93868 
-0.681969 -7.2197 2.98283 
-0.80781 -7.2087 2.82212 
-0.910318 -7.20561 2.85026 
-1.03652 -7.19749 2.76792 
-1.13725 -7.19566 2.82798 
-1.26553 -7.18602 2.70688 
-1.36491 -7.18435 2.76991 
-1.49492 -7.17235 2.58665 
-1.5951 -7.17097 2.65854 
-1.72405 -7.14973 2.2236 
-1.95849 -7.12874 1.91067 
-2.05998 -7.12096 1.81057 
-2.19465 -7.10556 1.54047 
-2.2925 -7.10929 1.74807 
-2.42627 -7.09347 1.46564 
-2.52212 -7.10077 1.76805 
-2.65938 -7.07735 1.28323 
-2.76115 -7.07659 1.37366 
-2.89473 -7.06405 1.17953 
-2.99755 -7.05619 1.07878 
-3.12632 -7.05482 1.18224 
-3.22502 -7.05094 1.18503 
-3.35422 -7.04748 1.23227 
-3.45442 -7.04423 1.25352 
-3.58429 -7.03899 1.25326 
-3.68941 -7.03423 1.2392 
-3.81633 -7.02809 1.21125 
-3.92061 -7.02411 1.21742 
-4.04328 -7.02504 1.37653 
-4.14413 -7.02392 1.45632 
-4.27691 -7.01367 1.32351 
-4.37748 -7.01129 1.36888 
-4.50006 -7.01127 1.5024 
-4.60444 -7.00656 1.48886 
-4.72771 -7.00528 1.58881 
-4.83463 -6.99666 1.47191 
-4.9537 -7.00141 1.73088 
-5.05438 -6.99852 1.76241 
-5.18396 -6.99191 1.72506 
-5.28041 -6.99124 1.81237 
-5.41639 -6.97957 1.64458 
-5.50913 -6.98401 1.86631 
-5.63025 -6.98342 1.98262 
-5.73428 -6.9788 1.97114 
-5.85791 -6.97726 2.06465 
-5.96206 -6.97066 1.99954 
-6.08278 -6.97032 2.1224 
-6.18375 -6.96753 2.15728 
-6.3219 -6.95667 2.01394 
-6.40611 -6.96424 2.3113 
-6.75831 -6.95303 2.39247 
-6.8519 -6.954 2.52135 
-6.97798 -6.94972 2.54317 
-7.07848 -6.94629 2.56017 
-7.21198 -6.93794 2.47997 
-7.31094 -6.93522 2.51432 
-7.67619 -6.91592 2.39078 
3.22233 -7.12043 -2.92553 
3.10888 -7.12655 -2.63847 
2.99596 -7.09875 -3.26329 
2.86044 -7.12948 -2.29149 
2.73956 -7.11474 -2.55673 
2.62151 -7.11878 -2.32071 
2.38662 -7.11207 -2.2469 
1.47726 -7.23003 1.9053 
1.37755 -7.2267 1.92359 
1.24209 -7.23986 2.42383 
1.14221 -7.23241 2.33165 
1.01298 -7.23992 2.67341 
0.912111 -7.23056 2.53097 
0.682025 -7.23248 2.83144 
0.554955 -7.2362 3.06904 
0.452985 -7.23305 3.09474 
0.326449 -7.22714 3.07296 
0.227798 -7.22134 3.02394 
0.102031 -7.20062 2.60349 
0.000145287 -7.20296 2.77647 
-0.224626 -7.21143 3.24755 
-0.352682 -7.19562 2.96134 
-0.450517 -7.19752 3.11843 
-0.576827 -7.18754 2.98706 
-0.679214 -7.18463 3.01957 
-0.806907 -7.17051 2.77863 
-0.906543 -7.1733 2.96135 
-1.03523 -7.16384 2.84659 
-1.13704 -7.15873 2.81955 
-1.26455 -7.14211 2.51123 
-1.36457 -7.1478 2.7723 
-1.49306 -7.1339 2.53798 
-1.59267 -7.13463 2.66564 
-1.7225 -7.11322 2.23103 
-1.82381 -7.11181 2.30277 
-1.9595 -7.0899 1.8611 
-2.05923 -7.08983 1.96724 
-2.1923 -7.07345 1.67133 
-2.28885 -7.08084 1.97447 
-2.42713 -7.0492 1.27417 
-2.52343 -7.0612 1.70121 
-2.65819 -7.03905 1.25195 
-2.75925 -7.03899 1.35981 
-2.89433 -7.02271 1.06881 
-2.99313 -7.02314 1.18752 
-3.12509 -7.0137 1.07677 
-3.22399 -7.01448 1.20513 
-3.35728 -7.00516 1.09913 
-3.45184 -7.01023 1.33782 
-3.57948 -7.00338 1.29214 
-3.68788 -6.99617 1.21587 
-3.81426 -6.99299 1.26762 
-3.91739 -6.98679 1.21282 
-4.04498 -6.98405 1.27758 
-4.1452 -6.98269 1.34978 
-4.27666 -6.97393 1.25683 
-4.36922 -6.98277 1.59494 
-4.50145 -6.97203 1.44978 
-4.60252 -6.96955 1.4926 
-4.72736 -6.96776 1.58004 
-4.83735 -6.95407 1.33154 
-4.95138 -6.96527 1.75619 
-5.05602 -6.95716 1.65166 
-5.18634 -6.95189 1.65161 
-5.27995 -6.95431 1.81815 
-5.40772 -6.94923 1.8205 
-5.51697 -6.93906 1.66553 
-5.63288 -6.94314 1.90117 
-5.74729 -6.93167 1.71693 
-5.85655 -6.94022 2.06544 
-5.96397 -6.93191 1.95866 
-6.08188 -6.93441 2.154 
-6.17867 -6.93363 2.23802 
-6.3063 -6.92784 2.22111 
-6.41077 -6.92218 2.18239 
-6.75681 -6.91621 2.39791 
-6.85131 -6.91571 2.487 
-6.97438 -6.91421 2.58053 
-7.0727 -6.91338 2.66501 
-7.21844 -6.89572 2.34842 
-7.30089 -6.90285 2.62978 
-7.66814 -6.88264 2.48564 
-7.89708 -6.87319 2.4804 
3.24772 -7.05863 -3.58249 
3.12064 -7.079 -2.90341 
2.97588 -7.09162 -2.41197 
2.86929 -7.08383 -2.50513 
2.63732 -7.06737 -2.69471 
2.49068 -7.08206 -2.14598 
2.38721 -7.07454 -2.23499 
1.47566 -7.20266 2.15732 
1.24481 -7.20269 2.40602 
1.14316 -7.20082 2.46547 
1.0167 -7.1996 2.56879 
0.913759 -7.19311 2.5067 
0.784502 -7.20286 2.90514 
0.682999 -7.1912 2.7037 
0.557021 -7.19389 2.91065 
0.45629 -7.19254 2.98319 
0.329358 -7.18861 3.01485 
0.228801 -7.18373 2.99296 
0.104763 -7.16184 2.54285 
0.00231501 -7.1722 2.92926 
-0.122164 -7.1753 3.14553 
-0.222882 -7.17649 3.28568 
-0.350012 -7.16326 3.06968 
-0.449306 -7.16174 3.13595 
-0.575571 -7.14994 2.95753 
-0.676904 -7.14902 3.04201 
-0.804702 -7.13901 2.91249 
-0.906778 -7.13408 2.89108 
-1.03473 -7.12163 2.69695 
-1.13532 -7.12152 2.80228 
-1.26385 -7.10634 2.53593 
-1.36408 -7.10739 2.67186 
-1.49056 -7.09438 2.46104 
-1.59055 -7.09821 2.67084 
-1.72191 -7.07218 2.11842 
-1.82044 -7.07847 2.39203 
-1.95541 -7.05883 2.01404 
-2.05733 -7.05204 1.94283 
-2.19069 -7.03453 1.61955 
-2.29319 -7.03318 1.69391 
-2.42246 -7.01849 1.44171 
-2.52243 -7.02458 1.71157 
-2.65625 -7.00261 1.27018 
-2.75251 -7.0094 1.55462 
-2.89384 -6.98176 0.970082 
-2.99819 -6.97584 0.924801 
-3.12488 -6.97619 1.07034 
-3.22337 -6.98028 1.28546 
-3.34923 -6.97443 1.26509 
-3.45049 -6.96995 1.25468 
-3.5801 -6.96249 1.1954 
-3.68567 -6.95963 1.23313 
-3.81556 -6.95194 1.16793 
-3.91604 -6.95038 1.23454 
-4.04043 -6.95088 1.3818 
-4.14622 -6.94146 1.24485 
-4.27476 -6.93853 1.30519 
-4.36795 -6.94198 1.49757 
-4.4987 -6.93494 1.45082 
-4.60708 -6.92596 1.32817 
-4.72548 -6.93082 1.58533 
-4.83429 -6.91938 1.39759 
-4.94999 -6.92825 1.75886 
-5.05488 -6.92037 1.66171 
-5.19454 -6.90589 1.42632 
-5.27847 -6.91771 1.83195 
-5.40778 -6.91073 1.78512 
-5.51801 -6.90017 1.62263 
-5.63665 -6.90304 1.82685 
-5.74195 -6.89575 1.74623 
-5.85213 -6.9051 2.11432 
-5.96134 -6.89481 1.95771 
-6.0882 -6.89135 2.00228 
-6.17455 -6.89873 2.29223 
-6.30872 -6.88869 2.16907 
-6.62936 -6.88267 2.35462 
-6.75817 -6.87721 2.34802 
-6.84466 -6.88225 2.57564 
-6.97648 -6.87448 2.51068 
-7.07942 -6.8707 2.52109 
-7.21242 -6.8619 2.42989 
-7.31267 -6.8579 2.43157 
-7.54263 -6.84915 2.44652 
-7.67319 -6.84175 2.39003 
-7.87664 -6.84739 2.76007 
3.23361 -7.03643 -3.14038 
3.12511 -7.03865 -2.96598 
2.97687 -7.0546 -2.38663 
2.87556 -7.03998 -2.66479 
2.73709 -7.04679 -2.33745 
2.63851 -7.03178 -2.62885 
2.49232 -7.04576 -2.10374 
2.3833 -7.04363 -2.04367 
1.47743 -7.16593 2.15424 
1.38012 -7.15662 2.01206 
1.24839 -7.16625 2.40705 
1.14499 -7.16574 2.50393 
1.01872 -7.16453 2.60681 
0.9176 -7.16385 2.69677 
0.78722 -7.16534 2.87526 
0.685301 -7.15698 2.76308 
0.558811 -7.15979 2.97248 
0.459698 -7.15788 3.02787 
0.331589 -7.14895 2.9286 
0.230163 -7.15145 3.10297 
0.105942 -7.1297 2.66081 
0.00398832 -7.13517 2.91427 
-0.221782 -7.13461 3.14053 
-0.348392 -7.12926 3.13444 
-0.447244 -7.12576 3.14748 
-0.576203 -7.11243 2.93284 
-0.674195 -7.11682 3.15356 
-0.802797 -7.10199 2.89889 
-0.902278 -7.10038 2.96283 
-1.1324 -7.08503 2.80291 
-1.26056 -7.06934 2.52516 
-1.36249 -7.07261 2.72052 
-1.48921 -7.05931 2.50445 
-1.59011 -7.05955 2.61844 
-1.71999 -7.03993 2.23878 
-1.82176 -7.03733 2.27873 
-1.95709 -7.01228 1.76134 
-2.05909 -7.0056 1.69377 
-2.19007 -6.9963 1.58797 
-2.28977 -6.99771 1.73193 
-2.41795 -6.98752 1.59954 
-2.51902 -6.98962 1.76317 
-2.65729 -6.9586 1.09109 
-2.75616 -6.96452 1.35323 
-2.88876 -6.95328 1.19791 
-2.9846 -6.95849 1.43803 
-3.12014 -6.9405 1.1076 
-3.21914 -6.94372 1.29853 
-3.34804 -6.93096 1.09921 
-3.45217 -6.93076 1.20509 
-3.57943 -6.92302 1.1366 
-3.68171 -6.9232 1.25084 
-3.81273 -6.9175 1.24032 
-3.91185 -6.91509 1.28263 
-4.04226 -6.90918 1.26606 
-4.13901 -6.90986 1.38746 
-4.26836 -6.90564 1.41421 
-4.36825 -6.90198 1.42437 
-4.50059 -6.89522 1.38733 
-4.60935 -6.88496 1.23252 
-4.73147 -6.88614 1.39433 
-4.82453 -6.8913 1.63033 
-4.94932 -6.88897 1.70235 
-5.05303 -6.88393 1.68025 
-5.18552 -6.87487 1.5825 
-5.28153 -6.87646 1.72742 
-5.40658 -6.87282 1.76483 
-5.51633 -6.86232 1.60481 
-5.64075 -6.86052 1.69038 
-5.74057 -6.85816 1.73497 
-5.8581 -6.86249 1.97527 
-5.95132 -6.86419 2.12011 
-6.08471 -6.8552 2.0252 
-6.16852 -6.86388 2.34449 
-6.29559 -6.85936 2.36109 
-6.38712 -6.86279 2.54988 
-6.63623 -6.8395 2.20109 
-6.75526 -6.84015 2.3457 
-6.85899 -6.83567 2.33856 
-6.9697 -6.84139 2.60844 
-7.06363 -6.84182 2.7203 
-7.20883 -6.82588 2.45446 
-7.31188 -6.82066 2.42684 
-7.54074 -6.81194 2.4416 
-7.68204 -6.79872 2.24346 
-7.87891 -6.80848 2.71283 
4.30539 -6.92219 -6.26581 
4.03773 -6.93367 -5.68192 
3.22376 -7.01152 -2.78071 
3.1252 -7.00506 -2.84571 
2.9831 -7.01102 -2.53894 
2.86418 -7.01922 -2.19837 
2.74553 -6.99866 -2.61149 
2.6339 -7.0011 -2.42928 
2.39505 -6.99238 -2.4049 
1.48056 -7.12457 2.0286 
1.38356 -7.11397 1.85341 
1.25006 -7.12856 2.37741 
1.14935 -7.12102 2.28657 
1.01921 -7.12826 2.61421 
0.918173 -7.12512 2.63904 
0.788448 -7.12831 2.86024 
0.686576 -7.11892 2.72214 
0.55978 -7.12755 3.08273 
0.46091 -7.11496 2.85752 
0.332232 -7.11323 2.94871 
0.234635 -7.11421 3.07778 
0.108297 -7.09159 2.61898 
0.00624765 -7.0988 2.91607 
-0.119529 -7.10362 3.17581 
-0.220471 -7.09645 3.09501 
-0.347149 -7.08837 3.01766 
-0.446609 -7.08903 3.14033 
-0.575054 -7.07373 2.8756 
-0.671953 -7.08263 3.21175 
-0.801441 -7.06702 2.94003 
-0.901155 -7.06108 2.88995 
-1.03058 -7.05013 2.74041 
-1.13141 -7.04406 2.6883 
-1.25776 -7.03446 2.57076 
-1.3613 -7.03189 2.61322 
-1.48621 -7.0214 2.47085 
-1.58913 -7.0198 2.53794 
-1.71564 -7.00814 2.36657 
-1.95169 -6.98228 1.93919 
-2.05489 -6.97615 1.88828 
-2.18607 -6.963 1.68277 
-2.28533 -6.96379 1.80893 
-2.42296 -6.93891 1.30266 
-2.51399 -6.95525 1.82773 
-2.65345 -6.92951 1.30111 
-2.75303 -6.93071 1.43813 
-2.88429 -6.91982 1.29219 
-2.98306 -6.92142 1.43908 
-3.11901 -6.90078 1.04224 
-3.21831 -6.90397 1.23135 
-3.34777 -6.89196 1.05405 
-3.45315 -6.88967 1.10579 
-3.57857 -6.88444 1.10189 
-3.67968 -6.88643 1.26161 
-3.81545 -6.8746 1.09556 
-3.90658 -6.88041 1.34478 
-4.03791 -6.87461 1.33231 
-4.13825 -6.8717 1.36275 
-4.26822 -6.86553 1.33911 
-4.3608 -6.87288 1.63004 
-4.49508 -6.86143 1.47271 
-4.59504 -6.85971 1.53374 
-4.72947 -6.8491 1.39849 
-4.83001 -6.8466 1.4397 
-4.95074 -6.84838 1.6148 
-5.05369 -6.84349 1.59613 
-5.18235 -6.83755 1.57709 
-5.28969 -6.83069 1.51129 
-5.4064 -6.83422 1.72793 
-5.52538 -6.81579 1.37128 
-5.63631 -6.82538 1.74071 
-5.73053 -6.82826 1.91637 
-5.85632 -6.82546 1.97675 
-5.96424 -6.81649 1.85654 
-6.07909 -6.82092 2.0949 
-6.17414 -6.82235 2.23336 
-6.31166 -6.80945 2.04159 
-6.40359 -6.81313 2.23567 
-6.62886 -6.80593 2.28668 
-6.75112 -6.80485 2.38842 
-6.85339 -6.80138 2.40631 
-6.97816 -6.79775 2.44386 
-7.06453 -6.80305 2.67494 
-7.20921 -6.7871 2.41057 
-7.3124 -6.78238 2.39659 
-7.54217 -6.77304 2.39625 
-7.68151 -6.76063 2.21905 
-7.77221 -6.76412 2.4072 
3.38537 -6.94851 -3.59762 
3.24655 -6.95009 -3.41047 
3.13473 -6.95863 -3.07101 
2.9748 -6.98439 -2.23301 
2.87141 -6.97698 -2.31702 
2.74611 -6.96351 -2.53533 
2.6467 -6.9486 -2.81854 
2.50288 -6.96173 -2.3259 
2.39064 -6.96436 -2.13943 
1.48964 -7.07857 1.77807 
1.38618 -7.07879 1.89257 
1.25307 -7.08828 2.27947 
1.15155 -7.08645 2.33876 
1.02101 -7.09352 2.66017 
0.920199 -7.08578 2.56504 
0.789916 -7.09458 2.93088 
0.689976 -7.08281 2.73025 
0.561954 -7.08962 3.04215 
0.462163 -7.08092 2.92094 
0.334482 -7.07147 2.80986 
0.234884 -7.07402 2.98097 
0.109724 -7.05699 2.67014 
0.00890548 -7.06795 3.06118 
-0.217885 -7.06387 3.19413 
-0.34426 -7.05497 3.096 
-0.443923 -7.05351 3.16301 
-0.57382 -7.03373 2.78566 
-0.671286 -7.04135 3.08648 
-0.801213 -7.02276 2.73986 
-0.900855 -7.02813 2.98455 
-1.12851 -7.01343 2.84245 
-1.25698 -7.00053 2.64233 
-1.3576 -6.99912 2.71162 
-1.48668 -6.98291 2.42637 
-1.58507 -6.98871 2.68073 
-1.71754 -6.96007 2.07577 
-1.81843 -6.96284 2.25412 
-2.05286 -6.94052 1.92095 
-2.18488 -6.92036 1.53609 
-2.28445 -6.92542 1.77248 
-2.41316 -6.91557 1.65219 
-2.51558 -6.91287 1.68997 
-2.65027 -6.89441 1.35195 
-2.74931 -6.89566 1.48906 
-2.88675 -6.87374 1.06402 
-2.98233 -6.88392 1.42962 
-3.11888 -6.86246 1.01554 
-3.21621 -6.86722 1.24185 
-3.34443 -6.86107 1.2173 
-3.45439 -6.84992 1.04327 
-3.57985 -6.84615 1.0778 
-3.6806 -6.84882 1.25338 
-3.80698 -6.84623 1.31955 
-3.90818 -6.84137 1.29982 
-4.03414 -6.84 1.39712 
-4.13691 -6.8359 1.39906 
-4.26856 -6.82653 1.29426 
-4.36253 -6.83315 1.56568 
-4.50191 -6.81561 1.25665 
-4.59801 -6.81696 1.39338 
-4.71659 -6.82171 1.64189 
-4.83613 -6.80179 1.25019 
-4.95515 -6.80614 1.48901 
-5.05368 -6.80454 1.55149 
-5.18103 -6.80173 1.61299 
-5.27993 -6.80074 1.69167 
-5.40661 -6.79598 1.70151 
-5.51584 -6.78528 1.53872 
-5.62995 -6.79234 1.84288 
-5.73345 -6.78728 1.82068 
-5.85164 -6.78956 2.00481 
-5.96762 -6.77466 1.73976 
-6.08546 -6.77754 1.93919 
-6.17805 -6.78139 2.13722 
-6.30748 -6.77535 2.11686 
-6.45393 -6.73855 1.31423 
-6.63703 -6.76183 2.1134 
-6.7487 -6.76891 2.41577 
-6.85052 -6.76504 2.42274 
-6.98072 -6.7575 2.36424 
-7.07137 -6.76148 2.56346 
-7.21044 -6.74849 2.37269 
-7.31398 -6.74361 2.35516 
-7.53306 -6.74051 2.50616 
-7.68087 -6.72281 2.20203 
-7.87371 -6.73513 2.72659 
3.24428 -6.9192 -3.21645 
3.12991 -6.92835 -2.86113 
2.97686 -6.94465 -2.28094 
2.8848 -6.92237 -2.7592 
2.74958 -6.92549 -2.53757 
2.63803 -6.92391 -2.46173 
2.50353 -6.92734 -2.23284 
1.48488 -7.05502 2.1248 
1.38475 -7.0484 2.059 
1.25137 -7.05605 2.39569 
1.14921 -7.05377 2.44371 
1.02585 -7.05169 2.51913 
0.922823 -7.04753 2.51973 
0.793042 -7.05468 2.83969 
0.693734 -7.04908 2.79921 
0.565556 -7.0523 3.01637 
0.461985 -7.04474 2.92976 
0.335399 -7.03733 2.87129 
0.238632 -7.04119 3.07209 
0.109759 -7.02881 2.88753 
0.0105675 -7.026 2.91888 
-0.217062 -7.02474 3.12459 
-0.341382 -7.02152 3.1717 
-0.443084 -7.0144 3.0946 
-0.569423 -7.00338 2.94264 
-0.668545 -7.00926 3.1979 
-0.798749 -6.98852 2.79918 
-0.89463 -6.99207 2.9913 
-1.12654 -6.9761 2.82223 
-1.25737 -6.95618 2.4453 
-1.35284 -6.96873 2.86909 
-1.4861 -6.94563 2.41275 
-1.58487 -6.95023 2.63489 
-1.71438 -6.92946 2.23478 
-1.81738 -6.92548 2.24001 
-1.9475 -6.90549 1.86058 
-2.05106 -6.90347 1.91685 
-2.18192 -6.88514 1.58124 
-2.28359 -6.88321 1.63797 
-2.41247 -6.87613 1.59029 
-2.51086 -6.87851 1.75486 
-2.65244 -6.85078 1.18774 
-2.74726 -6.85878 1.49356 
-2.87917 -6.84435 1.25958 
-2.98871 -6.83272 1.07419 
-3.11515 -6.8309 1.15971 
-3.21389 -6.82963 1.23062 
-3.34436 -6.82136 1.15406 
-3.45096 -6.81367 1.06733 
-3.57695 -6.81111 1.13345 
-3.67726 -6.81027 1.21678 
-3.91001 -6.80036 1.20521 
-4.0384 -6.79695 1.25186 
-4.1363 -6.79818 1.38623 
-4.26603 -6.78982 1.30648 
-4.3572 -6.79844 1.62461 
-4.49698 -6.78143 1.33232 
-4.60514 -6.77083 1.17217 
-4.82873 -6.76922 1.36522 
-4.94616 -6.77542 1.64835 
-5.04638 -6.77412 1.72013 
-5.17713 -6.76604 1.64878 
-5.28325 -6.75852 1.56615 
-5.40538 -6.75869 1.69851 
-5.50556 -6.75582 1.72968 
-5.62806 -6.75536 1.84642 
-5.73657 -6.74622 1.72445 
-5.84314 -6.75745 2.12599 
-5.96391 -6.73991 1.80014 
-6.08927 -6.73782 1.87777 
-6.19996 -6.72707 1.71655 
-6.31055 -6.73491 2.03518 
-6.64569 -6.71899 1.97625 
-6.74899 -6.73068 2.38622 
-6.85211 -6.72674 2.39283 
-6.97043 -6.72675 2.51741 
-7.07678 -6.71967 2.44634 
-7.22151 -6.70361 2.1841 
-7.30517 -6.71074 2.45598 
-7.53886 -6.69968 2.41592 
-7.67682 -6.68694 2.23222 
-7.77877 -6.68337 2.24717 
-7.86675 -6.70119 2.79933 
4.33731 -6.78599 -6.77882 
3.38848 -6.87887 -3.419 
3.23917 -6.88807 -3.02873 
3.13548 -6.88111 -3.09912 
2.98197 -6.90324 -2.37372 
2.87592 -6.89604 -2.44797 
2.7496 -6.88895 -2.49816 
2.64059 -6.88571 -2.46788 
2.50608 -6.89251 -2.15437 
1.48883 -7.01321 1.99018 
1.39005 -7.00231 1.81387 
1.25691 -7.01335 2.23471 
1.15318 -7.00994 2.25542 
1.02599 -7.01409 2.49354 
0.921224 -7.01255 2.563 
0.79327 -7.02329 2.97102 
0.693943 -7.01006 2.73555 
0.566375 -7.01238 2.92756 
0.464923 -7.01213 3.02658 
0.336631 -7.00066 2.86653 
0.239039 -7.00157 2.99118 
0.112178 -6.99197 2.8775 
0.0108172 -6.99312 3.01226 
-0.113764 -6.9927 3.13104 
-0.215539 -6.98993 3.1661 
-0.339666 -6.97851 3.00282 
-0.441173 -6.98092 3.17003 
-0.565966 -6.96852 2.98266 
-0.668494 -6.96462 2.98936 
-0.793199 -6.95776 2.94363 
-0.893474 -6.9517 2.89293 
-1.02467 -6.94107 2.7574 
-1.12606 -6.93814 2.78779 
-1.25279 -6.93068 2.72881 
-1.35449 -6.926 2.71468 
-1.48471 -6.90852 2.40306 
-1.58358 -6.91403 2.64685 
-1.71298 -6.8897 2.15888 
-1.81495 -6.89066 2.28944 
-1.94532 -6.8684 1.85542 
-2.05249 -6.85845 1.71251 
-2.17741 -6.85124 1.65783 
-2.2755 -6.85459 1.84565 
-2.41192 -6.83959 1.60392 
-2.51283 -6.83796 1.66709 
-2.6485 -6.81754 1.2857 
-2.88487 -6.79563 0.971099 
-2.99068 -6.79348 1.02636 
-3.11187 -6.79251 1.12755 
-3.21358 -6.79034 1.17787 
-3.34413 -6.78174 1.09391 
-3.45106 -6.7751 1.03534 
-3.57189 -6.77935 1.26993 
-3.67176 -6.77736 1.32288 
-3.80429 -6.76752 1.20899 
-3.90511 -6.76407 1.22593 
-4.03775 -6.75856 1.22292 
-4.13034 -6.76377 1.45274 
-4.26703 -6.75086 1.26472 
-4.36254 -6.75456 1.45894 
-4.4931 -6.74477 1.34438 
-4.60014 -6.73819 1.28743 
-4.71902 -6.74272 1.52727 
-4.83003 -6.72846 1.27793 
-4.9421 -6.74011 1.693 
-5.05338 -6.72873 1.51774 
-5.1843 -6.72 1.43065 
-5.28119 -6.72243 1.59392 
-5.41229 -6.71379 1.50944 
-5.50948 -6.71344 1.60165 
-5.62604 -6.71842 1.85063 
-5.73993 -6.70336 1.5839 
-5.85318 -6.7108 1.89243 
-5.9646 -6.70121 1.76311 
-6.08485 -6.70115 1.88697 
-6.16376 -6.71427 2.30525 
-6.29358 -6.70901 2.30602 
-6.40741 -6.69478 2.06031 
-6.74896 -6.69282 2.36664 
-6.85447 -6.68446 2.26269 
-6.97372 -6.68617 2.43076 
-7.07278 -6.68368 2.47036 
-7.2064 -6.675 2.38764 
-7.30795 -6.67151 2.40435 
-7.67819 -6.64787 2.18555 
-7.89161 -6.64857 2.42608 
3.23336 -6.86066 -2.74872 
3.12655 -6.85913 -2.67731 
2.98607 -6.86056 -2.49639 
2.87262 -6.86272 -2.32442 
2.75478 -6.84774 -2.58324 
2.64767 -6.83965 -2.67801 
2.50742 -6.85465 -2.15264 
2.40024 -6.8465 -2.24888 
1.49198 -6.97523 1.95582 
1.38856 -6.97251 1.9935 
1.26115 -6.9711 2.08919 
1.15803 -6.97469 2.28676 
1.02719 -6.97612 2.45815 
0.924657 -6.9704 2.41874 
0.695791 -6.97844 2.85908 
0.568075 -6.97463 2.8943 
0.466691 -6.97034 2.89016 
0.337765 -6.96338 2.84665 
0.240159 -6.96716 3.04335 
0.111982 -6.95499 2.86681 
0.0140894 -6.95959 3.08465 
-0.213538 -6.95137 3.11129 
-0.336384 -6.94512 3.07945 
-0.439398 -6.9418 3.10154 
-0.565106 -6.92866 2.89797 
-0.665803 -6.93239 3.09653 
-0.792028 -6.92089 2.93504 
-0.892518 -6.92055 3.03038 
-1.02295 -6.90607 2.79742 
-1.12323 -6.90343 2.83406 
-1.25375 -6.88562 2.5169 
-1.35438 -6.88302 2.55475 
-1.48158 -6.87869 2.57647 
-1.58082 -6.87783 2.65704 
-1.71148 -6.85014 2.08914 
-1.81423 -6.85245 2.25414 
-1.93958 -6.83495 1.93924 
-2.0473 -6.83035 1.93403 
-2.17865 -6.81409 1.65678 
-2.276 -6.81712 1.83443 
-2.40729 -6.80719 1.71808 
-2.5079 -6.80955 1.88214 
-2.6461 -6.77619 1.17797 
-2.74541 -6.78305 1.45498 
-2.87353 -6.77652 1.42163 
-2.97808 -6.77247 1.4268 
-3.11035 -6.75371 1.08726 
-3.21016 -6.75571 1.24131 
-3.34155 -6.74419 1.08473 
-3.44705 -6.74172 1.13122 
-3.57449 -6.73637 1.12729 
-3.67045 -6.74099 1.34395 
-3.79833 -6.73511 1.32678 
-3.90601 -6.72576 1.20093 
-4.03133 -6.72608 1.33867 
-4.13193 -6.72452 1.40308 
-4.26301 -6.71549 1.30954 
-4.36083 -6.72003 1.52599 
-4.4935 -6.70537 1.29113 
-4.59269 -6.70565 1.40098 
-4.71811 -6.70445 1.50019 
-4.82876 -6.69146 1.285 
-4.94701 -6.69696 1.54721 
-5.05419 -6.68917 1.46015 
-5.18179 -6.68529 1.49389 
-5.27145 -6.69357 1.79691 
-5.40999 -6.67754 1.5335 
-5.50815 -6.6788 1.66693 
-5.62795 -6.67786 1.76728 
-5.74433 -6.66233 1.49351 
-5.865 -6.66382 1.65633 
-5.96607 -6.66174 1.70821 
-6.07969 -6.66704 1.96056 
-6.16962 -6.6713 2.16185 
-6.29626 -6.66864 2.22544 
-6.40975 -6.65552 2.00986 
-6.6439 -6.64356 1.94886 
-6.75146 -6.6522 2.27975 
-6.84858 -6.65144 2.36096 
-6.98116 -6.64346 2.29581 
-7.07617 -6.64306 2.38429 
-7.20416 -6.63863 2.40435 
-7.3101 -6.63196 2.34466 
-7.54185 -6.62096 2.30575 
-7.67957 -6.60889 2.14183 
-7.77954 -6.60649 2.18449 
-7.86794 -6.62536 2.75568 
4.06793 -6.71801 -6.23518 
3.39075 -6.79774 -3.53432 
3.23461 -6.82249 -2.75112 
3.13893 -6.80386 -3.1223 
2.9949 -6.81506 -2.69269 
2.87968 -6.82187 -2.40304 
2.7606 -6.80358 -2.74164 
2.65024 -6.79985 -2.7227 
2.5083 -6.81306 -2.24437 
2.40214 -6.81116 -2.18357 
1.49645 -6.93331 1.82133 
1.39227 -6.9317 1.88742 
1.26108 -6.93717 2.15983 
1.15977 -6.93847 2.29654 
1.0278 -6.94465 2.58764 
0.927581 -6.93285 2.39312 
0.799469 -6.94588 2.8527 
0.698873 -6.94118 2.83762 
0.568993 -6.93494 2.81368 
0.469404 -6.93786 2.98927 
0.342199 -6.9282 2.87653 
0.242687 -6.93399 3.12464 
0.114967 -6.91675 2.8214 
0.0155906 -6.92007 3.00694 
-0.209997 -6.92137 3.27121 
-0.335567 -6.90939 3.09846 
-0.437495 -6.90667 3.13457 
-0.563772 -6.89625 3.00182 
-0.662927 -6.89973 3.19124 
-0.79185 -6.88302 2.90248 
-0.894307 -6.87852 2.89458 
-1.12086 -6.86813 2.86532 
-1.25031 -6.85245 2.60331 
-1.35157 -6.84883 2.61624 
-1.48197 -6.83175 2.31982 
-1.57879 -6.84005 2.62831 
-1.7084 -6.82155 2.29541 
-1.81116 -6.81582 2.25666 
-1.93718 -6.7958 1.88164 
-2.04506 -6.79518 1.97704 
-2.17533 -6.77961 1.71852 
-2.27709 -6.77777 1.7768 
-2.40863 -6.76566 1.6068 
-2.50601 -6.76776 1.75978 
-2.643 -6.74859 1.41761 
-2.87043 -6.74128 1.46717 
-2.97815 -6.73469 1.41187 
-3.11208 -6.71346 1.01469 
-3.20791 -6.72146 1.31471 
-3.34664 -6.70144 0.95294 
-3.44586 -6.70236 1.07812 
-3.56914 -6.70421 1.25145 
-3.66821 -6.70549 1.38544 
-3.8003 -6.69145 1.16747 
-3.90027 -6.69276 1.30323 
-4.0347 -6.6808 1.14021 
-4.1298 -6.68919 1.44938 
-4.26051 -6.6782 1.30703 
-4.36088 -6.67897 1.4296 
-4.49229 -6.66885 1.30979 
-4.59068 -6.66898 1.41421 
-4.7191 -6.66287 1.39234 
-4.82097 -6.66101 1.45031 
