ply
format ascii 1.0
element vertex 1788
property float x
property float y
property float z
end_header
-0.150477 -3.15954 3.29471 
-0.256904 -3.16789 3.48011 
-0.379566 -3.17517 3.66127 
-0.477759 -3.17473 3.71889 
-0.606799 -3.16176 3.62197 
-0.703088 -3.17055 3.80694 
-0.931001 -3.16278 3.84672 
-1.06633 -3.12399 3.39411 
-1.16118 -3.13886 3.66293 
-1.28643 -3.14093 3.77305 
-1.38576 -3.12918 3.67391 
-1.51335 -3.10972 3.48559 
-1.61242 -3.12288 3.73338 
-1.84472 -3.09764 3.53248 
-1.9716 -3.07401 3.28563 
-2.06839 -3.08417 3.49015 
-2.20387 -3.05374 3.15409 
-2.29655 -3.06883 3.42463 
-2.4354 -3.02997 2.97331 
-2.52712 -3.05263 3.34882 
-2.76146 -3.02414 3.10411 
-2.89731 -2.99055 2.72426 
-2.99165 -3.00754 3.02231 
-3.12784 -2.97313 2.63133 
-3.22552 -2.98109 2.80587 
-3.35992 -2.94578 2.40109 
-3.45494 -2.96884 2.78433 
-3.68942 -2.94237 2.5679 
-3.83169 -2.9022 2.10056 
-3.91993 -2.91888 2.39042 
-4.06231 -2.89261 2.11686 
-4.15883 -2.89384 2.19681 
-4.29564 -2.87648 2.04388 
-4.38988 -2.88525 2.22744 
-4.52032 -2.87423 2.15863 
-4.61139 -2.88614 2.3839 
-4.75471 -2.86161 2.13524 
-4.85014 -2.8613 2.19309 
-4.98104 -2.85134 2.13946 
-5.07687 -2.85675 2.2772 
-5.19887 -2.85967 2.39729 
-5.30467 -2.8505 2.33832 
-5.42221 -2.85787 2.51767 
-5.51564 -2.8682 2.72249 
-5.63582 -2.87208 2.8548 
-5.74669 -2.85441 2.68063 
-5.85507 -2.87481 3.03552 
-5.96037 -2.866 2.98136 
-6.08982 -2.85394 2.89755 
-6.17 -2.87772 3.2813 
-6.2964 -2.87291 3.29652 
-6.37712 -2.89324 3.63246 
-6.50024 -2.88832 3.64412 
-6.61377 -2.87453 3.52579 
-6.7266 -2.88062 3.68419 
-6.82206 -2.88468 3.80307 
-6.95952 -2.86309 3.59169 
-7.04204 -2.87968 3.87669 
-7.17779 -2.86348 3.73932 
-7.2647 -2.87559 3.96477 
-7.40624 -2.85147 3.72083 
-7.49738 -2.85835 3.87604 
4.58707 -2.36669 -10.2567 
3.50583 -2.45485 -8.33605 
1.7632 -2.80655 -2.33145 
1.65273 -2.79752 -2.38525 
1.51403 -2.81585 -2.04133 
1.41083 -2.81427 -1.99655 
1.17273 -2.80861 -1.92109 
0.763475 -3.09638 2.33587 
0.673238 -3.06792 1.99945 
0.527833 -3.10796 2.64904 
0.430011 -3.11169 2.76399 
0.296611 -3.14095 3.25629 
0.200547 -3.14364 3.35577 
0.075049 -3.14865 3.50648 
-0.0266748 -3.15155 3.61256 
-0.150641 -3.13215 3.42356 
-0.254792 -3.13942 3.59183 
-0.379702 -3.12928 3.53199 
-0.477213 -3.12582 3.54713 
-0.602915 -3.1353 3.76008 
-0.704652 -3.13016 3.75465 
-0.833166 -3.11187 3.58397 
-0.930617 -3.12582 3.84065 
-1.0615 -3.09493 3.49677 
-1.15873 -3.10242 3.66373 
-1.2857 -3.10127 3.72998 
-1.38482 -3.09582 3.71853 
-1.51099 -3.07675 3.53568 
-1.61464 -3.07946 3.64046 
-1.83837 -3.07476 3.72007 
-1.96619 -3.04043 3.32655 
-2.06579 -3.05311 3.56701 
-2.20105 -3.0195 3.1883 
-2.29769 -3.02502 3.32755 
-2.43285 -2.99601 3.01249 
-2.52856 -3.00813 3.24275 
-2.75531 -2.99713 3.23708 
-2.89523 -2.95759 2.77912 
-2.98977 -2.97096 3.02592 
-3.12555 -2.94035 2.68907 
-3.22389 -2.9419 2.77432 
-3.35622 -2.90802 2.39004 
-3.46034 -2.91407 2.54148 
-3.58948 -2.89732 2.39276 
-3.6894 -2.8991 2.48221 
-3.8303 -2.86069 2.04062 
-3.91941 -2.88094 2.37938 
-4.06109 -2.85533 2.11586 
-4.16097 -2.85087 2.11877 
-4.29804 -2.82983 1.91568 
-4.38872 -2.84754 2.22028 
-4.5238 -2.83179 2.08925 
-4.61022 -2.84791 2.3691 
-4.7545 -2.81836 2.05249 
-4.84658 -2.82967 2.26929 
-4.97998 -2.81573 2.16229 
-5.06815 -2.83474 2.48334 
-5.1996 -2.81883 2.34789 
-5.29512 -2.82497 2.49506 
-5.4191 -2.82336 2.55315 
-5.51461 -2.8309 2.71979 
-5.62976 -2.84084 2.93254 
-5.73343 -2.83441 2.91055 
-5.85755 -2.83187 2.95583 
-5.95744 -2.82968 2.99024 
-6.06483 -2.8486 3.32255 
-6.17251 -2.83487 3.20202 
-6.29454 -2.83357 3.26316 
-6.37873 -2.85202 3.57394 
-6.5066 -2.84481 3.55684 
-6.60655 -2.84221 3.58574 
-6.73009 -2.8372 3.59637 
-6.81404 -2.85423 3.88726 
-6.95037 -2.83535 3.71378 
-7.03678 -2.84647 3.92422 
-7.17761 -2.82398 3.70354 
-7.25807 -2.84093 3.99113 
-7.49797 -2.81823 3.83192 
4.31148 -2.33448 -9.96311 
4.0595 -2.3327 -9.82557 
1.7612 -2.77889 -2.18291 
1.6535 -2.77722 -2.13651 
1.52361 -2.75686 -2.33404 
1.4097 -2.79206 -1.77436 
0.99934 -3.02206 1.66718 
0.907107 -3.01784 1.6684 
0.761755 -3.07625 2.56896 
0.66421 -3.04759 2.23589 
0.530396 -3.08225 2.80108 
0.432759 -3.06976 2.69143 
0.297798 -3.11653 3.42464 
0.20198 -3.09783 3.22808 
0.0768005 -3.1111 3.49219 
-0.0241004 -3.11569 3.62066 
-0.149251 -3.1016 3.50672 
-0.252848 -3.09935 3.54254 
-0.378169 -3.09392 3.54836 
-0.474118 -3.10331 3.74005 
-0.603989 -3.09321 3.68422 
-0.702511 -3.10278 3.88002 
-0.831845 -3.07613 3.5953 
-0.926543 -3.09377 3.90022 
-1.06127 -3.0535 3.43078 
-1.15531 -3.06782 3.68938 
-1.28439 -3.06366 3.7152 
-1.3817 -3.06564 3.80537 
-1.50822 -3.04389 3.58657 
-1.6091 -3.04641 3.68654 
-1.73833 -3.02402 3.46073 
-1.83714 -3.03164 3.62971 
-1.96228 -3.00605 3.35695 
-2.06402 -3.01442 3.53838 
-2.1979 -2.98275 3.18725 
-2.29554 -2.98824 3.32623 
-2.43067 -2.96292 3.06363 
-2.52491 -2.97536 3.29642 
-2.66021 -2.94868 3.01517 
-2.75857 -2.95063 3.10572 
-2.89611 -2.91399 2.68838 
-2.99326 -2.92387 2.88753 
-3.223 -2.90544 2.78148 
-3.35403 -2.87563 2.45425 
-3.44973 -2.89766 2.82049 
-3.6887 -2.8589 2.43938 
-3.82179 -2.83917 2.25284 
-3.91786 -2.84072 2.33628 
-4.05702 -2.81832 2.11682 
-4.15655 -2.81968 2.19985 
-4.29277 -2.79721 1.97744 
-4.388 -2.81031 2.22004 
-4.6078 -2.81319 2.40194 
-4.75177 -2.78356 2.08572 
-4.84033 -2.79935 2.36116 
-4.97415 -2.78675 2.27362 
-5.06781 -2.79414 2.43626 
-5.2001 -2.77918 2.31508 
-5.29779 -2.78227 2.421 
-5.41151 -2.79635 2.68908 
-5.50464 -2.80665 2.89176 
-5.63401 -2.79461 2.80905 
-5.7408 -2.78471 2.74131 
-5.85643 -2.79432 2.94902 
-5.95181 -2.79748 3.05441 
-6.07055 -2.80069 3.17558 
-6.1703 -2.80201 3.25843 
-6.28434 -2.8086 3.42328 
-6.38382 -2.81208 3.53572 
-6.50088 -2.81243 3.6164 
-6.60268 -2.80693 3.60626 
-6.72521 -2.80378 3.64205 
-6.81972 -2.80955 3.78298 
-6.94502 -2.80286 3.77175 
-7.04232 -2.80367 3.84584 
-7.17212 -2.79261 3.77715 
-7.25814 -2.80365 3.98534 
-7.40924 -2.77166 3.64117 
-7.49309 -2.78555 3.88747 
4.7136 -2.27763 -10.4449 
4.31281 -2.30267 -9.84361 
3.51817 -2.36317 -8.50186 
3.25265 -2.37945 -8.10752 
2.01235 -2.71894 -2.64224 
1.763 -2.74545 -2.11752 
1.64866 -2.76407 -1.78785 
1.53011 -2.70777 -2.48607 
1.42346 -2.69954 -2.5308 
0.764201 -3.01649 2.25234 
0.667741 -3.01982 2.36009 
0.532277 -3.03275 2.62498 
0.431659 -3.02106 2.52892 
0.302004 -3.0628 3.18639 
0.203992 -3.07052 3.35566 
0.0783882 -3.06768 3.39731 
-0.0236365 -3.08132 3.6506 
-0.144528 -3.07015 3.57476 
-0.250874 -3.06465 3.56738 
-0.375115 -3.05801 3.55602 
-0.473728 -3.06864 3.76567 
-0.599312 -3.06504 3.79692 
-0.697618 -3.0682 3.90372 
-0.925451 -3.05746 3.90248 
-1.05776 -3.02027 3.47612 
-1.15305 -3.03751 3.77458 
-1.28305 -3.02132 3.63558 
-1.37907 -3.0314 3.83605 
-1.50884 -2.99578 3.42947 
-1.6126 -2.99426 3.47536 
-1.83663 -2.99752 3.66447 
-1.9658 -2.96639 3.31933 
-2.06251 -2.97682 3.52511 
-2.19803 -2.94222 3.13637 
-2.29059 -2.96136 3.45932 
-2.42639 -2.93248 3.14947 
-2.5177 -2.94513 3.38225 
-2.89486 -2.87346 2.63929 
-2.99192 -2.88423 2.84994 
-3.12617 -2.84924 2.45507 
-3.35242 -2.84247 2.50771 
-3.6879 -2.81967 2.41022 
-3.82713 -2.78497 2.02246 
-3.91316 -2.81332 2.46789 
-4.05984 -2.77122 1.98326 
-4.1487 -2.78893 2.28415 
-4.28485 -2.77623 2.19724 
-4.38643 -2.77054 2.18441 
-4.51619 -2.76085 2.13483 
-4.61124 -2.77119 2.33825 
-4.74772 -2.75191 2.16098 
-4.84352 -2.75529 2.26927 
-4.97463 -2.744 2.19845 
-5.068 -2.75352 2.38972 
-5.19855 -2.74044 2.29397 
-5.29578 -2.74482 2.41691 
-5.41599 -2.74692 2.52335 
-5.51062 -2.75939 2.75588 
-5.63632 -2.75195 2.73457 
-5.73031 -2.75978 2.90303 
-5.85035 -2.76364 3.03357 
-5.94745 -2.76715 3.14446 
-6.07025 -2.76333 3.17108 
-6.16207 -2.7743 3.38138 
-6.28593 -2.76787 3.37282 
-6.37667 -2.77884 3.58228 
-6.50165 -2.77261 3.57721 
-6.59743 -2.7747 3.66782 
-6.72232 -2.76993 3.68278 
-6.81422 -2.77634 3.8303 
-6.94572 -2.76309 3.73286 
-7.03783 -2.76989 3.88585 
-7.17511 -2.75011 3.70231 
-7.26328 -2.7594 3.88709 
-7.40033 -2.742 3.73616 
-7.49349 -2.74646 3.85766 
4.32799 -2.24868 -10.0375 
3.35054 -2.38305 -7.57249 
1.91302 -2.64809 -3.02285 
1.7684 -2.69131 -2.33839 
1.66107 -2.6753 -2.48894 
1.5276 -2.68098 -2.32562 
0.905669 -2.95082 1.76832 
0.764979 -2.98912 2.38297 
0.668877 -2.97768 2.28786 
0.532069 -3.00194 2.7079 
0.434776 -3.00066 2.75265 
0.301488 -3.04112 3.3923 
0.204326 -3.03705 3.39881 
0.0803527 -3.03762 3.48612 
-0.0224238 -3.0441 3.64081 
-0.141684 -3.02508 3.45673 
-0.250486 -3.03111 3.60915 
-0.374822 -3.02062 3.54513 
-0.470079 -3.03971 3.86775 
-0.597993 -3.01981 3.67718 
-0.696705 -3.03415 3.93698 
-0.826109 -3.01167 3.71198 
-0.923237 -3.02314 3.93147 
-1.05491 -2.98663 3.51583 
-1.15292 -2.99728 3.72461 
-1.28171 -2.97968 3.56611 
-1.37803 -2.9869 3.72684 
-1.50606 -2.96422 3.49829 
-1.60911 -2.96584 3.5867 
-1.83251 -2.96014 3.65189 
-1.9602 -2.93849 3.43734 
-2.06066 -2.94086 3.53433 
-2.19583 -2.91101 3.21223 
-2.30007 -2.89923 3.11779 
-2.42616 -2.88689 3.02973 
-2.52047 -2.90103 3.28397 
-2.89182 -2.84473 2.75108 
-2.98427 -2.86269 3.05647 
-3.12156 -2.81963 2.55483 
-3.35599 -2.79694 2.39455 
-3.47362 -2.75295 1.86752 
-3.67988 -2.79969 2.64034 
-3.82461 -2.74784 2.02303 
-3.91602 -2.76855 2.36547 
-4.05904 -2.7302 1.93197 
-4.1489 -2.75054 2.26834 
-4.27647 -2.74852 2.32267 
-4.38741 -2.72423 2.06123 
-4.51325 -2.72654 2.17375 
-4.60869 -2.7329 2.3221 
-4.74463 -2.7125 2.13005 
-4.83613 -2.72711 2.38904 
-4.96868 -2.71516 2.31045 
-5.06906 -2.71072 2.31417 
-5.19438 -2.70893 2.3703 
-5.28862 -2.71612 2.52942 
-5.406 -2.72345 2.70527 
-5.51589 -2.71093 2.60432 
-5.6307 -2.72299 2.84341 
-5.72892 -2.72328 2.91062 
-5.84854 -2.72658 3.0327 
-5.94351 -2.73265 3.17691 
-6.06736 -2.72704 3.17973 
-6.15904 -2.73794 3.38807 
-6.27975 -2.73749 3.45957 
-6.37234 -2.74378 3.6053 
-6.49317 -2.74357 3.68011 
-6.59457 -2.73996 3.6959 
-6.72724 -2.72505 3.57711 
-6.80723 -2.74547 3.90828 
-6.94622 -2.72452 3.71069 
-7.02767 -2.74187 4.00082 
-7.16863 -2.71864 3.77335 
-7.26435 -2.71939 3.84524 
-7.38778 -2.71707 3.89282 
-7.49137 -2.7104 3.86815 
4.59579 -2.20315 -10.2756 
4.32859 -2.21213 -9.98288 
3.54002 -2.24557 -9.02421 
3.25787 -2.301 -8.08838 
2.0176 -2.62406 -2.89181 
1.76904 -2.65017 -2.37714 
1.66099 -2.64782 -2.34021 
1.52791 -2.63813 -2.38737 
1.41733 -2.65801 -2.04567 
1.00555 -2.92939 1.91812 
0.765869 -2.97005 2.62584 
0.667332 -2.96913 2.67625 
0.53607 -2.96215 2.66491 
0.435748 -2.97274 2.87343 
0.302873 -2.99063 3.20234 
0.205583 -2.99525 3.32754 
0.0821639 -3.00218 3.50089 
-0.0203331 -2.99855 3.51695 
-0.14142 -2.99573 3.55585 
-0.247904 -2.99468 3.60955 
-0.372156 -2.97702 3.44814 
-0.469153 -2.99231 3.71873 
-0.595755 -3.00173 3.9281 
-0.696281 -2.9888 3.81611 
-0.825878 -2.96954 3.63635 
-0.92031 -2.98099 3.85287 
-1.05844 -2.93925 3.37193 
-1.14904 -2.9646 3.77559 
-1.28145 -2.94141 3.54402 
-1.37512 -2.95685 3.81456 
-1.50533 -2.92293 3.43519 
-1.60268 -2.94015 3.73228 
-1.83306 -2.92245 3.63832 
-1.96129 -2.89035 3.28253 
-2.05726 -2.91037 3.61697 
-2.19077 -2.88253 3.32282 
-2.28689 -2.89668 3.57721 
-2.42632 -2.84542 2.96735 
-2.51666 -2.87423 3.41807 
-2.7551 -2.83682 3.06053 
-2.88807 -2.80887 2.76442 
-2.98305 -2.82256 3.01195 
-3.11535 -2.79772 2.75781 
-3.2193 -2.79193 2.74543 
-3.35317 -2.76058 2.4035 
-3.466 -2.73457 2.12091 
-3.68446 -2.74384 2.38737 
-3.81926 -2.72239 2.181 
-3.91667 -2.72865 2.32888 
-4.06013 -2.69459 1.9561 
-4.14968 -2.71014 2.22558 
-4.27142 -2.72207 2.46626 
-4.38421 -2.69539 2.1747 
-4.51167 -2.68896 2.16858 
-4.60622 -2.69891 2.36493 
-4.74532 -2.67076 2.06999 
-4.84127 -2.67817 2.23258 
-4.96629 -2.6783 2.31448 
-5.06647 -2.67253 2.29999 
-5.192 -2.67272 2.38296 
-5.28525 -2.68451 2.60359 
-5.40903 -2.67984 2.61931 
-5.5007 -2.69343 2.86341 
-5.63595 -2.67625 2.71575 
-5.7284 -2.6838 2.87806 
-5.84244 -2.69612 3.11921 
-5.9422 -2.69374 3.15065 
-6.06055 -2.69652 3.26456 
-6.16184 -2.69621 3.32525 
-6.27758 -2.69914 3.43942 
-6.37771 -2.6978 3.48548 
-6.49829 -2.69949 3.58581 
-6.59541 -2.70163 3.67732 
-6.72133 -2.69244 3.63271 
-6.80953 -2.70316 3.8355 
-6.94301 -2.68925 3.73142 
-7.02441 -2.70771 4.03544 
-7.17083 -2.67838 3.72933 
-7.23614 -2.71238 4.23507 
-7.48944 -2.67453 3.88129 
3.27586 -2.23343 -8.47355 
1.7733 -2.61235 -2.3726 
1.66575 -2.606 -2.39041 
1.52481 -2.61615 -2.16289 
1.42504 -2.60806 -2.20929 
0.908985 -2.8878 1.91798 
0.671491 -2.92879 2.62591 
0.538604 -2.93855 2.84304 
0.437613 -2.92781 2.76163 
0.304654 -2.95805 3.25696 
0.208254 -2.97067 3.48979 
0.0841529 -2.97326 3.604 
-0.0190616 -2.97546 3.69965 
-0.141229 -2.95893 3.55303 
-0.245962 -2.95374 3.54927 
-0.368296 -2.94143 3.46011 
-0.467394 -2.9558 3.71835 
-0.593363 -2.96998 3.99135 
-0.692048 -2.98349 4.23771 
-0.919817 -2.94728 3.89115 
-1.05184 -2.91829 3.58166 
-1.14944 -2.92184 3.69203 
-1.27989 -2.90338 3.52455 
-1.3739 -2.92592 3.89065 
-1.50237 -2.8929 3.52414 
-1.6023 -2.89734 3.64813 
-1.83204 -2.8861 3.64206 
-1.95827 -2.86052 3.37516 
-2.05896 -2.86057 3.44004 
-2.18443 -2.85216 3.40587 
-2.28567 -2.84984 3.43906 
-2.42438 -2.81741 3.08706 
-2.51737 -2.82445 3.24198 
-2.75132 -2.8012 3.07548 
-2.8855 -2.77126 2.75449 
-2.98694 -2.77396 2.85591 
-3.11488 -2.75796 2.7203 
-3.2149 -2.76055 2.81931 
-3.34962 -2.727 2.44967 
-3.45633 -2.71714 2.38385 
-3.68013 -2.71619 2.51385 
-3.82128 -2.67585 2.05599 
-3.9173 -2.68355 2.22188 
-4.05674 -2.65563 1.93171 
-4.14678 -2.67839 2.29834 
-4.2702 -2.68098 2.41242 
-4.38034 -2.66165 2.22019 
-4.51523 -2.64388 2.06498 
-4.60281 -2.66259 2.3751 
-4.74405 -2.63756 2.12533 
-4.83693 -2.64332 2.26287 
-4.97196 -2.62663 2.12243 
-5.0658 -2.63507 2.29706 
-5.18436 -2.6447 2.50359 
-5.28375 -2.64743 2.60421 
-5.40778 -2.64251 2.61657 
-5.49019 -2.66984 3.0405 
-5.62864 -2.6473 2.82282 
-5.7286 -2.64697 2.88219 
-5.84036 -2.65954 3.1244 
-5.9512 -2.64288 2.96903 
-6.06106 -2.65652 3.22455 
-6.15179 -2.66819 3.44102 
-6.27672 -2.66511 3.47915 
-6.36769 -2.67232 3.63525 
-6.50703 -2.64947 3.41397 
-6.60044 -2.65764 3.58466 
-6.71521 -2.66192 3.71624 
-6.8125 -2.66172 3.77565 
-6.94721 -2.64625 3.65167 
-7.0218 -2.67129 4.03964 
-7.16976 -2.64064 3.71783 
-7.25438 -2.65449 3.9601 
-7.48768 -2.63874 3.89548 
4.62098 -2.09604 -10.6404 
4.35877 -2.10105 -10.4065 
4.06906 -2.12571 -9.88958 
3.7914 -2.17865 -8.99784 
3.52658 -2.21134 -8.3881 
3.27841 -2.19018 -8.51691 
2.00998 -2.58462 -2.37936 
1.76758 -2.58888 -2.16783 
1.66088 -2.58957 -2.0909 
1.01474 -2.82618 1.51861 
0.770916 -2.89799 2.64453 
0.541936 -2.89872 2.7998 
0.437432 -2.90772 2.98791 
0.308146 -2.92241 3.26862 
0.209248 -2.92433 3.35748 
0.0855482 -2.92242 3.41024 
-0.01682 -2.94026 3.71646 
-0.137851 -2.91762 3.48725 
-0.244222 -2.91921 3.57638 
-0.362888 -2.90037 3.39697 
-0.466219 -2.91185 3.61786 
-0.592626 -2.92906 3.93098 
-0.689194 -2.94583 4.21916 
-0.915075 -2.91448 3.93872 
-1.05123 -2.87619 3.50752 
-1.1456 -2.89126 3.77132 
-1.27762 -2.87138 3.58635 
-1.37486 -2.88288 3.80379 
-1.49979 -2.85956 3.5678 
-1.60381 -2.86065 3.64868 
-1.82909 -2.8518 3.67225 
-1.9574 -2.81908 3.31134 
-2.05535 -2.83094 3.53409 
-2.18697 -2.79966 3.1948 
-2.27921 -2.82022 3.53151 
-2.42566 -2.77004 2.94603 
-2.51478 -2.78893 3.25813 
-2.74626 -2.77528 3.22082 
-2.88914 -2.72188 2.58955 
-2.98736 -2.73349 2.80902 
-3.11575 -2.7128 2.61102 
-3.21403 -2.72402 2.82524 
-3.35072 -2.68637 2.40302 
-3.45144 -2.6901 2.5176 
-3.58055 -2.66775 2.29749 
-3.67529 -2.68492 2.58996 
-3.82033 -2.63652 2.02769 
-3.91594 -2.64783 2.24162 
-4.05232 -2.61922 1.9414 
-4.14615 -2.63526 2.21816 
-4.27468 -2.63178 2.25291 
-4.36968 -2.64149 2.44471 
-4.50463 -2.62023 2.24304 
-4.60318 -2.62295 2.3427 
-4.74284 -2.60067 2.13018 
-4.8292 -2.6181 2.42099 
-4.96145 -2.60664 2.35029 
-5.06544 -2.59747 2.29245 
-5.18602 -2.60172 2.42679 
-5.28452 -2.60285 2.50476 
-5.39898 -2.61657 2.76333 
-5.50425 -2.60939 2.73327 
-5.62982 -2.60363 2.73535 
-5.73293 -2.59993 2.75099 
-5.83883 -2.62338 3.13565 
-5.93978 -2.61925 3.14417 
-6.06192 -2.61833 3.20956 
-6.15873 -2.62099 3.30722 
-6.36549 -2.63475 3.6252 
-6.48834 -2.63475 3.7036 
-6.58426 -2.63506 3.76883 
-6.71974 -2.61794 3.62371 
-6.80758 -2.62896 3.82872 
-6.94296 -2.61236 3.69054 
-7.02052 -2.63355 4.02672 
-7.24629 -2.62437 4.04647 
-7.4784 -2.6117 4.02322 
3.80891 -2.09337 -9.6145 
3.25051 -2.20677 -7.73487 
2.98235 -2.25745 -6.88303 
2.0116 -2.55252 -2.29634 
1.77332 -2.52962 -2.45389 
1.66281 -2.55019 -2.10707 
1.5285 -2.54994 -2.02538 
1.42906 -2.52942 -2.23887 
0.775411 -2.83457 2.28377 
0.672926 -2.85446 2.61645 
0.542618 -2.85784 2.74454 
0.438893 -2.86424 2.89629 
0.309309 -2.8878 3.29568 
0.208086 -2.88916 3.37807 
0.0875552 -2.8943 3.52362 
-0.013213 -2.91182 3.82334 
-0.133344 -2.8851 3.5397 
-0.243967 -2.87615 3.48931 
-0.363811 -2.867 3.44192 
-0.464131 -2.87972 3.67684 
-0.590532 -2.89069 3.90465 
-0.688328 -2.89592 4.0371 
-0.914557 -2.87903 3.95294 
-1.05129 -2.83714 3.4755 
-1.14291 -2.85732 3.80539 
-1.27573 -2.83293 3.5611 
-1.37192 -2.84525 3.78801 
-1.49813 -2.82357 3.57602 
-1.60034 -2.82685 3.68495 
-1.8254 -2.82224 3.76563 
-1.95696 -2.78647 3.36739 
-2.05261 -2.79847 3.58955 
-2.18736 -2.76488 3.22266 
-2.28379 -2.76998 3.35258 
-2.42234 -2.74125 3.05353 
-2.51051 -2.76187 3.38712 
-2.74324 -2.74169 3.2629 
-2.8872 -2.68571 2.60041 
-2.98223 -2.69835 2.83082 
-3.11135 -2.6849 2.73166 
-3.21561 -2.68397 2.7853 
-3.34797 -2.64998 2.41157 
-3.44699 -2.66199 2.63605 
-3.58229 -2.62632 2.24157 
-3.67504 -2.64715 2.58097 
-3.82269 -2.59233 1.93631 
-3.91191 -2.61014 2.23281 
-4.05253 -2.58365 1.9653 
-4.14799 -2.5899 2.11006 
-4.27228 -2.59605 2.27184 
-4.36841 -2.60484 2.45123 
-4.50349 -2.58277 2.23974 
-4.60485 -2.58187 2.29203 
-4.73587 -2.57112 2.23042 
-4.83544 -2.56697 2.23774 
-4.96378 -2.56422 2.28211 
-5.05789 -2.57051 2.42663 
-5.18511 -2.56471 2.42938 
-5.2779 -2.57505 2.62757 
-5.40165 -2.57241 2.67056 
-5.50323 -2.57143 2.72189 
-5.61483 -2.58804 3.01651 
-5.72246 -2.57329 2.88626 
-5.83858 -2.58385 3.10231 
-5.94023 -2.57854 3.0954 
-6.05802 -2.58296 3.22974 
-6.15207 -2.58995 3.38365 
-6.36468 -2.59891 3.63947 
-6.49919 -2.58289 3.50923 
-6.58374 -2.59794 3.76566 
-6.71491 -2.58496 3.67416 
-6.80726 -2.59152 3.82136 
-6.94108 -2.57571 3.69337 
-7.02664 -2.5881 3.91466 
-7.2454 -2.58785 4.05052 
-7.48084 -2.568 3.93281 
4.32566 -2.06922 -9.72081 
3.65668 -2.09544 -8.94792 
3.52768 -2.13049 -8.39669 
2.01591 -2.50852 -2.37525 
1.78056 -2.48112 -2.59424 
1.67191 -2.47924 -2.55094 
1.5362 -2.49702 -2.22685 
1.43499 -2.48703 -2.29695 
0.776495 -2.80604 2.39602 
0.674925 -2.80997 2.51284 
0.543658 -2.8209 2.74219 
0.44289 -2.82162 2.81553 
0.312021 -2.8497 3.27474 
0.0894011 -2.86022 3.55632 
-0.0176154 -2.85925 3.61089 
-0.134191 -2.84465 3.48872 
-0.240831 -2.85803 3.73552 
-0.36302 -2.84005 3.57167 
-0.462848 -2.83519 3.56952 
-0.588489 -2.86064 3.99022 
-0.687481 -2.85125 3.92675 
-0.818507 -2.82507 3.65849 
-0.912774 -2.84667 4.00772 
-1.04785 -2.81246 3.63428 
-1.14263 -2.82015 3.79735 
-1.27265 -2.80725 3.70655 
-1.37174 -2.80395 3.72497 
-1.49809 -2.77735 3.44807 
-1.59634 -2.79414 3.73535 
-1.82725 -2.77488 3.62301 
-1.95451 -2.74015 3.23765 
-2.05237 -2.75606 3.51296 
-2.18697 -2.72792 3.2207 
-2.28201 -2.73257 3.34311 
-2.42072 -2.7002 2.99678 
-2.51064 -2.72224 3.3492 
-2.7415 -2.70326 3.2407 
-2.8859 -2.64777 2.58779 
-2.97705 -2.67033 2.94793 
-3.11069 -2.64316 2.66819 
-3.20541 -2.66675 3.04441 
-3.35091 -2.603 2.28149 
-3.44476 -2.62557 2.64356 
-3.67368 -2.60934 2.57076 
-3.81566 -2.57103 2.14673 
-3.91077 -2.57652 2.28056 
-4.04807 -2.54875 1.99512 
-4.14367 -2.55548 2.14579 
-4.27327 -2.55325 2.19791 
-4.36667 -2.56392 2.40017 
-4.50454 -2.54099 2.17983 
-4.59827 -2.55351 2.40714 
-4.73182 -2.53699 2.27009 
-4.83327 -2.53347 2.28714 
-4.96605 -2.51893 2.17617 
-5.05076 -2.54136 2.53071 
-5.1826 -2.52751 2.42834 
-5.27817 -2.53489 2.58792 
-5.40034 -2.53482 2.6643 
-5.49353 -2.54625 2.8767 
-5.61768 -2.54445 2.93117 
-5.72905 -2.52632 2.75858 
-5.83838 -2.54454 3.07222 
-5.9331 -2.55058 3.21319 
-6.05128 -2.55264 3.31573 
-6.14664 -2.55772 3.44424 
-6.3624 -2.56499 3.67857 
-6.4887 -2.55472 3.62077 
-6.57805 -2.56588 3.82719 
-6.71442 -2.54652 3.65384 
-6.80457 -2.55597 3.83777 
-6.94618 -2.5307 3.58853 
-7.0269 -2.54967 3.8942 
-7.23929 -2.55531 4.10458 
-7.47287 -2.53712 4.00858 
2.02467 -2.4356 -2.84245 
1.78251 -2.44896 -2.51189 
1.6653 -2.48887 -1.90521 
1.5341 -2.47287 -2.03634 
1.4363 -2.45566 -2.20462 
0.773579 -2.78307 2.58406 
0.679771 -2.76318 2.37752 
0.543162 -2.80301 2.99534 
0.444562 -2.79623 2.96696 
0.312987 -2.80382 3.15109 
-0.0112617 -2.82351 3.61824 
-0.13123 -2.80452 3.44024 
-0.237659 -2.82573 3.79048 
-0.35971 -2.80671 3.61333 
-0.461192 -2.80013 3.58932 
-0.586246 -2.82827 4.0439 
-0.685092 -2.82688 4.08758 
-0.912249 -2.80919 3.9945 
-1.04842 -2.76871 3.53967 
-1.14096 -2.78159 3.76998 
-1.27245 -2.75834 3.54233 
-1.36797 -2.77287 3.79659 
-1.49419 -2.75177 3.5944 
-1.59476 -2.75769 3.7368 
-1.82621 -2.73937 3.638 
-1.95141 -2.71697 3.4178 
-2.05045 -2.72013 3.5224 
-2.17859 -2.70175 3.35781 
-2.2777 -2.70635 3.48165 
-2.41846 -2.66293 2.99059 
-2.51222 -2.67393 3.19662 
-2.7401 -2.65987 3.15251 
-2.88505 -2.60612 2.5261 
-2.98173 -2.61689 2.73082 
-3.10948 -2.60256 2.62 
-3.21142 -2.6078 2.75437 
-3.34073 -2.58566 2.54018 
-3.44452 -2.58384 2.58134 
-3.57533 -2.55469 2.27458 
-3.66618 -2.58631 2.75417 
-3.81186 -2.53304 2.13466 
-3.9134 -2.53353 2.20531 
-4.04647 -2.51231 2.00576 
-4.14623 -2.50951 2.03134 
-4.27729 -2.50383 2.03816 
-4.36226 -2.52624 2.39111 
-4.50727 -2.49594 2.07801 
-4.60069 -2.50895 2.31068 
-4.73022 -2.49811 2.24766 
-4.83103 -2.49836 2.3147 
-4.95368 -2.50013 2.41573 
-5.05477 -2.49723 2.44081 
-5.18242 -2.48733 2.3891 
-5.27604 -2.49979 2.61471 
-5.39931 -2.49628 2.6457 
-5.49627 -2.50226 2.78669 
-5.61711 -2.50602 2.91332 
-5.71811 -2.50095 2.90936 
-5.83947 -2.50397 3.02633 
-5.93227 -2.51174 3.18878 
-6.05554 -2.50702 3.20362 
-6.14843 -2.51721 3.39832 
-6.27094 -2.51478 3.44329 
-6.35885 -2.5278 3.67275 
-6.48892 -2.51688 3.60914 
-6.57624 -2.52899 3.82609 
-6.71053 -2.51321 3.70016 
-6.80299 -2.51859 3.83046 
-6.94212 -2.49641 3.622 
-7.02733 -2.51112 3.87237 
-7.14204 -2.5163 4.01418 
-7.2403 -2.51736 4.09039 
-7.4648 -2.50655 4.08794 
4.62458 -1.94171 -10.5261 
4.10195 -1.94218 -10.1926 
3.80924 -1.99896 -9.25451 
3.65711 -2.02387 -8.82802 
2.02842 -2.40315 -2.76461 
1.78131 -2.41808 -2.41109 
1.66633 -2.44151 -2.0274 
1.53804 -2.41312 -2.32451 
1.43484 -2.42053 -2.16122 
1.01641 -2.70129 1.83442 
0.775735 -2.74765 2.60191 
0.682222 -2.73744 2.52494 
0.546727 -2.76028 2.91366 
0.446435 -2.75699 2.93287 
0.313792 -2.77852 3.30244 
0.0930235 -2.78945 3.58638 
-0.0101441 -2.79518 3.72733 
-0.12974 -2.77687 3.55886 
-0.234362 -2.78333 3.71056 
-0.36167 -2.74522 3.28361 
-0.459387 -2.7611 3.55622 
-0.584406 -2.78952 4.01265 
-0.679647 -2.79433 4.13639 
-0.815039 -2.75519 3.70093 
-0.909454 -2.7727 3.99311 
-1.04237 -2.7356 3.5833 
-1.1379 -2.75076 3.84485 
-1.26978 -2.72767 3.62063 
-1.3656 -2.74429 3.90181 
-1.49249 -2.71482 3.58966 
-1.5924 -2.73067 3.86329 
-1.82261 -2.71082 3.7439 
-1.95329 -2.6635 3.19672 
-2.04855 -2.68422 3.53216 
-2.18145 -2.66017 3.2959 
-2.27188 -2.67439 3.54177 
-2.41406 -2.63238 3.0725 
-2.74035 -2.61601 3.05987 
-2.8819 -2.57291 2.57573 
-2.97645 -2.58879 2.8463 
-3.1098 -2.55694 2.50655 
-3.21276 -2.55809 2.58665 
-3.34444 -2.53354 2.34298 
-3.44288 -2.54862 2.60537 
-3.66659 -2.54623 2.71438 
-3.81397 -2.48946 2.05196 
-3.90992 -2.49989 2.25114 
-4.04345 -2.48126 2.0873 
-4.13867 -2.48957 2.25773 
-4.27364 -2.47166 2.1045 
-4.36297 -2.49035 2.40922 
-4.49959 -2.47055 2.23181 
-4.59487 -2.47743 2.38334 
-4.73076 -2.45739 2.20232 
-4.82755 -2.46419 2.35371 
-4.94901 -2.4683 2.48483 
-5.05003 -2.46165 2.45987 
-5.1775 -2.45663 2.47343 
-5.27144 -2.46694 2.66971 
-5.39515 -2.4647 2.71776 
-5.48968 -2.47128 2.86477 
-5.61847 -2.46297 2.83529 
-5.7177 -2.46355 2.9055 
-5.83753 -2.46653 3.0206 
-5.93138 -2.47412 3.18067 
-6.05669 -2.46749 3.17141 
-6.1446 -2.48405 3.44709 
-6.26876 -2.4797 3.46745 
-6.36008 -2.48779 3.63261 
-6.48311 -2.48428 3.66335 
-6.58297 -2.48297 3.7089 
-6.70709 -2.47872 3.73061 
-6.80068 -2.4836 3.8544 
-6.93357 -2.46795 3.73 
-7.02202 -2.47781 3.91689 
-7.13654 -2.48389 4.06994 
-7.2396 -2.47971 4.07935 
-7.46938 -2.4646 4.02322 
2.0215 -2.39601 -2.34546 
1.78324 -2.38264 -2.37354 
1.6689 -2.39741 -2.10643 
1.53818 -2.38209 -2.22754 
1.42999 -2.40392 -1.87084 
0.77584 -2.72478 2.78718 
0.685736 -2.71164 2.66957 
0.547156 -2.71514 2.8026 
0.447134 -2.72633 3.01333 
0.319061 -2.7485 3.38706 
0.0947987 -2.75272 3.5834 
-0.0117624 -2.76148 3.76612 
-0.129409 -2.73783 3.52655 
-0.233707 -2.74413 3.67534 
-0.356309 -2.71512 3.36789 
-0.457412 -2.7295 3.62158 
-0.584255 -2.74347 3.88608 
-0.67746 -2.77455 4.35602 
-0.908529 -2.7346 3.97169 
-1.04102 -2.70026 3.5998 
-1.1366 -2.71424 3.84483 
-1.26948 -2.6854 3.54614 
-1.36402 -2.70706 3.89219 
-1.49016 -2.68119 3.62861 
-1.59081 -2.68885 3.79318 
-1.82062 -2.67069 3.69662 
-1.95086 -2.63001 3.23949 
-2.04496 -2.65477 3.62639 
-2.17906 -2.61529 3.18758 
-2.27096 -2.63773 3.54237 
-2.41194 -2.59805 3.10512 
-2.50785 -2.60513 3.25907 
-2.64712 -2.56354 2.79552 
-2.74288 -2.57351 2.98751 
-2.87859 -2.54121 2.64483 
-2.97482 -2.55423 2.87767 
-3.10717 -2.52418 2.56265 
-3.21657 -2.51094 2.45585 
-3.33947 -2.50328 2.43138 
-3.43746 -2.52131 2.73168 
-3.57767 -2.47328 2.18351 
-3.66953 -2.49657 2.54952 
-3.81198 -2.45133 2.03974 
-3.90736 -2.46255 2.24814 
-4.04176 -2.44459 2.0945 
-4.14139 -2.44153 2.11649 
-4.27376 -2.43124 2.06328 
-4.36197 -2.45069 2.37617 
-4.50051 -2.4332 2.23146 
-4.58912 -2.44892 2.49534 
-4.72757 -2.42374 2.24866 
-4.81715 -2.43828 2.49748 
-4.94809 -2.431 2.48318 
-5.04978 -2.42283 2.43873 
-5.17332 -2.42425 2.53516 
-5.26537 -2.43587 2.7468 
-5.48512 -2.4401 2.94078 
-5.61637 -2.42893 2.87521 
-5.71362 -2.42772 2.92028 
-5.83998 -2.42364 2.9456 
-5.9358 -2.42934 3.08129 
-6.04521 -2.44497 3.35704 
-6.14956 -2.43832 3.33446 
-6.35872 -2.45039 3.62567 
-6.48132 -2.4478 3.66836 
-6.57946 -2.44742 3.72498 
-6.70334 -2.44341 3.74974 
-6.80137 -2.44431 3.82318 
-6.93386 -2.42903 3.70413 
-7.03019 -2.43049 3.784 
-7.13927 -2.44377 4.02843 
-7.23302 -2.44692 4.12902 
-7.37872 -2.4184 3.84273 
-7.47903 -2.41637 3.87899 
4.35765 -1.87178 -10.2076 
4.08966 -1.87981 -9.9349 
2.02893 -2.32837 -2.7365 
1.78228 -2.34999 -2.29756 
1.67797 -2.34115 -2.34921 
1.53883 -2.34681 -2.18774 
1.44251 -2.3277 -2.37973 
1.02019 -2.63222 1.89948 
0.780468 -2.67749 2.64606 
0.688031 -2.66522 2.54188 
0.546374 -2.6978 3.05986 
0.449539 -2.68231 2.91601 
0.320264 -2.70878 3.34585 
0.0966578 -2.71931 3.62419 
-0.00870072 -2.71622 3.64922 
-0.127834 -2.69442 3.43606 
-0.234466 -2.70372 3.62525 
-0.355456 -2.68662 3.47537 
-0.455352 -2.69391 3.63378 
-0.582857 -2.70038 3.79871 
-0.673473 -2.73682 4.33598 
-0.90761 -2.69626 3.94717 
-1.03883 -2.66638 3.63511 
-1.13622 -2.67539 3.81466 
-1.26593 -2.65619 3.64257 
-1.36344 -2.66122 3.7698 
-1.48931 -2.64123 3.58475 
-1.58781 -2.65154 3.78222 
-1.81874 -2.63443 3.70082 
-1.9472 -2.60099 3.34002 
-2.04644 -2.60551 3.46162 
-2.1744 -2.58895 3.32317 
-2.27419 -2.58968 3.39514 
-2.41146 -2.56101 3.1029 
-2.50415 -2.57044 3.28511 
-2.73807 -2.5434 3.07466 
-2.88043 -2.49552 2.53208 
-2.97456 -2.51174 2.80487 
-3.10511 -2.48906 2.5874 
-3.20903 -2.4919 2.68976 
-3.33814 -2.4642 2.40522 
-3.43681 -2.48401 2.72811 
-3.67132 -2.44851 2.40651 
-3.81153 -2.40921 1.97589 
-3.90414 -2.42852 2.2884 
-4.03506 -2.41592 2.20414 
-4.13812 -2.41008 2.19155 
-4.2708 -2.39332 2.05344 
-4.36347 -2.41077 2.34161 
-4.49571 -2.39917 2.27132 
-4.58916 -2.40773 2.44273 
-4.7274 -2.38603 2.24292 
-4.81895 -2.39547 2.42475 
-4.95085 -2.38544 2.375 
-5.04551 -2.38972 2.49067 
-5.17234 -2.38613 2.52265 
-5.27459 -2.38022 2.50872 
-5.393 -2.3868 2.6696 
-5.48983 -2.39219 2.80139 
-5.61723 -2.38773 2.82226 
-5.71417 -2.39009 2.91408 
-5.83111 -2.39777 3.0886 
-5.92502 -2.40384 3.22748 
-6.04578 -2.404 3.30521 
-6.14199 -2.40837 3.42314 
-6.35128 -2.42023 3.71058 
-6.4809 -2.41003 3.65725 
-6.583 -2.40499 3.65471 
-6.70313 -2.40656 3.75067 
-6.80651 -2.39834 3.70699 
-6.92977 -2.39471 3.73637 
-7.02066 -2.40302 3.90288 
-7.14149 -2.40321 3.98109 
-7.23291 -2.40915 4.11681 
-7.47567 -2.38015 3.88634 
4.35523 -1.83617 -10.1396 
2.02418 -2.32337 -2.29403 
1.78462 -2.3114 -2.30241 
1.6782 -2.31727 -2.1592 
1.54133 -2.31471 -2.10762 
1.43137 -2.3272 -1.87528 
0.783338 -2.63359 2.5516 
0.684208 -2.62406 2.48808 
0.55 -2.653 2.95176 
0.449681 -2.66512 3.17329 
0.321855 -2.67257 3.35067 
0.223151 -2.66792 3.3511 
0.0980235 -2.68149 3.60719 
-0.00618845 -2.68171 3.67486 
-0.123124 -2.6647 3.52426 
-0.231653 -2.68177 3.81596 
-0.355202 -2.65416 3.53034 
-0.452432 -2.67115 3.81392 
-0.581225 -2.66673 3.83611 
-0.674104 -2.69376 4.24891 
-0.811617 -2.6401 3.6298 
-0.906038 -2.66071 3.95921 
-1.03809 -2.63385 3.68868 
-1.1345 -2.63748 3.79639 
-1.26224 -2.62095 3.65877 
-1.35772 -2.63929 3.95922 
-1.48707 -2.606 3.60242 
-1.58684 -2.61992 3.84745 
-1.81847 -2.59007 3.59962 
-1.94705 -2.56318 3.32662 
-2.04467 -2.56906 3.46458 
-2.17654 -2.54997 3.29599 
-2.26788 -2.55596 3.43158 
-2.4107 -2.51979 3.04547 
-2.50372 -2.53326 3.28045 
-2.73691 -2.5085 3.1005 
-2.87799 -2.4582 2.52763 
-2.97061 -2.48268 2.907 
-3.10238 -2.45484 2.62342 
-3.20959 -2.44978 2.6238 
-3.33886 -2.42085 2.32432 
-3.43449 -2.44752 2.73425 
-3.56725 -2.40745 2.29067 
-3.67201 -2.40609 2.33808 
-3.80919 -2.37781 2.05212 
-3.90562 -2.38206 2.16812 
-4.03214 -2.38467 2.28126 
-4.13848 -2.36989 2.15345 
-4.27061 -2.35698 2.06621 
-4.35773 -2.38049 2.4294 
-4.49613 -2.35631 2.1981 
-4.5857 -2.37531 2.50363 
-4.72297 -2.35283 2.29392 
-4.82162 -2.35157 2.33888 
-4.95268 -2.34108 2.28288 
-5.04326 -2.3563 2.53938 
-5.17428 -2.34257 2.44067 
-5.26501 -2.35809 2.70123 
-5.48657 -2.35812 2.83992 
-5.60921 -2.36129 2.95806 
-5.71016 -2.35679 2.96198 
-5.82927 -2.36073 3.08812 
-5.92406 -2.36518 3.20581 
-6.04669 -2.3625 3.24709 
-6.14186 -2.36991 3.40385 
-6.35632 -2.3758 3.61518 
-6.48105 -2.37084 3.62789 
-6.5746 -2.37575 3.75083 
-6.70791 -2.36167 3.64914 
-6.80118 -2.36638 3.76919 
-6.92625 -2.36063 3.77187 
-7.01944 -2.36566 3.8962 
-7.14362 -2.36223 3.9287 
4.35691 -1.80091 -10.0703 
3.66924 -1.85629 -8.92047 
3.40931 -1.85999 -8.71108 
2.03401 -2.26728 -2.53251 
1.79151 -2.25137 -2.59033 
1.67967 -2.27302 -2.23782 
1.54462 -2.26919 -2.20421 
1.43693 -2.27904 -2.00856 
0.783205 -2.59586 2.54061 
0.552759 -2.61534 2.9384 
0.453105 -2.62081 3.07172 
0.321595 -2.63586 3.35018 
0.222864 -2.63824 3.44261 
-0.00596073 -2.64294 3.64611 
-0.126638 -2.61458 3.34993 
-0.230302 -2.63219 3.64464 
-0.354145 -2.61688 3.52127 
-0.451826 -2.62985 3.75158 
-0.579519 -2.63044 3.83852 
-0.672212 -2.6602 4.28541 
-0.904882 -2.62354 3.9503 
-1.03589 -2.59619 3.67388 
-1.13197 -2.60505 3.84941 
-1.2635 -2.57851 3.58388 
-1.35996 -2.58479 3.72599 
-1.48566 -2.56764 3.57972 
-1.58662 -2.5719 3.69817 
-1.81266 -2.5706 3.82155 
-1.94486 -2.52577 3.31715 
-2.04387 -2.52855 3.41499 
-2.1762 -2.50451 3.1828 
-2.26794 -2.52389 3.49325 
-2.40834 -2.48349 3.05202 
-2.49896 -2.506 3.40282 
-2.73566 -2.4666 3.03442 
-2.87539 -2.42333 2.55524 
-2.97106 -2.4383 2.81051 
-3.10344 -2.40774 2.49297 
-3.20201 -2.42643 2.7988 
-3.33264 -2.38929 2.39407 
-3.43492 -2.39878 2.58179 
-3.66749 -2.3766 2.43626 
-3.81084 -2.33658 2.00184 
-3.90279 -2.34546 2.17512 
-4.03267 -2.34434 2.24126 
-4.13147 -2.34405 2.29881 
-4.26798 -2.31894 2.05521 
-4.35956 -2.3363 2.33931 
-4.49135 -2.32367 2.256 
-4.5855 -2.33479 2.46011 
-4.72372 -2.31031 2.22585 
-4.81132 -2.32996 2.53738 
-4.94701 -2.31186 2.38494 
-5.03746 -2.32496 2.61266 
-5.16494 -2.31967 2.62277 
-5.25736 -2.33229 2.84543 
-5.38593 -2.32305 2.80447 
-5.47878 -2.33218 2.98175 
-5.61001 -2.31979 2.90125 
-5.71356 -2.31322 2.87972 
-5.82652 -2.32562 3.11229 
-5.9302 -2.31849 3.08356 
-6.04223 -2.32968 3.29974 
-6.13774 -2.33607 3.44278 
-6.36432 -2.32653 3.45899 
-6.4851 -2.32568 3.5232 
-6.57902 -2.332 3.66428 
-6.69771 -2.33336 3.756 
-6.79115 -2.33885 3.88609 
-6.92256 -2.3262 3.80244 
-7.02057 -2.32564 3.85612 
-7.1357 -2.33222 4.01398 
-7.23475 -2.33009 4.04781 
-7.39804 -2.28013 3.49573 
-7.46441 -2.31485 3.99149 
4.1142 -1.73407 -10.2619 
3.6814 -1.79389 -9.21565 
2.03376 -2.22673 -2.56035 
1.78403 -2.23802 -2.25889 
1.68305 -2.22253 -2.39826 
1.54947 -2.22171 -2.32647 
1.44137 -2.23242 -2.1201 
0.787693 -2.55581 2.49671 
0.690413 -2.53796 2.32432 
0.554575 -2.57524 2.894 
0.453911 -2.59185 3.17268 
0.322899 -2.59257 3.26299 
0.226195 -2.59961 3.41457 
-0.0039463 -2.62182 3.84637 
-0.12279 -2.59883 3.62038 
-0.228943 -2.59368 3.6189 
-0.350795 -2.58212 3.54382 
-0.448544 -2.60253 3.87013 
-0.577597 -2.59515 3.85386 
-0.672934 -2.611 4.11936 
-0.901914 -2.58823 3.96455 
-1.03357 -2.55727 3.64269 
-1.13044 -2.56706 3.83025 
-1.26049 -2.54967 3.68411 
-1.35639 -2.5536 3.79481 
-1.48511 -2.52537 3.50661 
-1.58237 -2.54964 3.88309 
-1.71096 -2.51637 3.5293 
-1.8142 -2.52057 3.6479 
-1.94378 -2.48674 3.2874 
-2.03856 -2.50622 3.59993 
-2.17215 -2.47542 3.28138 
-2.27045 -2.47315 3.31277 
-2.40564 -2.44736 3.06057 
-2.49784 -2.46678 3.37062 
-2.73263 -2.43225 3.06623 
-2.87438 -2.38541 2.54385 
-2.97156 -2.3941 2.7172 
-3.10119 -2.37256 2.51692 
-3.20856 -2.37048 2.55644 
-3.33253 -2.34844 2.34608 
-3.43475 -2.35823 2.53703 
-3.66927 -2.32707 2.27637 
-3.80601 -2.30494 2.07277 
-3.89608 -2.31508 2.26071 
-4.03745 -2.29507 2.08761 
-4.1256 -2.31725 2.43127 
-4.26575 -2.28213 2.06064 
-4.35765 -2.30155 2.37058 
-4.49092 -2.287 2.26371 
-4.58363 -2.29444 2.41813 
-4.71851 -2.27818 2.28996 
-4.81502 -2.28189 2.39812 
-4.93987 -2.28568 2.52494 
-5.03567 -2.28781 2.61216 
-5.16583 -2.27601 2.53921 
-5.25754 -2.28974 2.77491 
-5.38982 -2.27682 2.68876 
-5.4803 -2.29241 2.94796 
-5.60905 -2.28195 2.89158 
-5.70692 -2.2835 2.9725 
-5.81921 -2.29729 3.22186 
-5.9172 -2.29838 3.29694 
-6.03495 -2.30173 3.41363 
-6.14039 -2.29433 3.38276 
-6.26268 -2.29035 3.40672 
-6.35133 -2.30577 3.66279 
-6.47541 -2.30084 3.67559 
-6.57244 -2.29945 3.7177 
-6.70716 -2.28433 3.60432 
-6.79497 -2.29591 3.80978 
-6.92541 -2.285 3.74858 
-7.01539 -2.29298 3.90842 
-7.14295 -2.2851 3.88495 
-7.23354 -2.2932 4.04677 
-7.3756 -2.26776 3.80348 
-7.45259 -2.29077 4.15125 
4.36986 -1.71249 -10.1711 
3.67609 -1.77875 -8.88473 
1.78917 -2.17812 -2.54191 
1.66988 -2.23716 -1.70236 
1.54948 -2.1851 -2.30365 
1.43952 -2.20339 -1.99854 
0.788348 -2.52003 2.51091 
0.552818 -2.54935 3.03655 
0.455411 -2.56626 3.31601 
0.324357 -2.56514 3.38228 
0.22668 -2.56698 3.46638 
-0.00170344 -2.58715 3.86908 
-0.12065 -2.56536 3.65965 
-0.226736 -2.56846 3.76544 
-0.34839 -2.55476 3.66275 
-0.446519 -2.56924 3.91116 
-0.574947 -2.56095 3.8828 
-0.674655 -2.56311 3.97238 
-0.901209 -2.54875 3.92596 
-1.03367 -2.51947 3.62783 
-1.1275 -2.53612 3.90174 
-1.25942 -2.50882 3.629 
-1.35676 -2.51191 3.72925 
-1.48287 -2.49074 3.53234 
-1.58227 -2.50544 3.78448 
-1.81031 -2.49801 3.82887 
-1.93861 -2.46188 3.43941 
-2.03852 -2.46277 3.51267 
-2.16845 -2.43983 3.29523 
-2.26483 -2.45136 3.50436 
-2.40286 -2.41427 3.10832 
-2.4965 -2.42854 3.35134 
-2.73319 -2.38991 2.99634 
-2.87548 -2.33856 2.41789 
-2.97017 -2.36042 2.76013 
-3.09848 -2.33749 2.54188 
-3.20494 -2.33482 2.573 
-3.33306 -2.30688 2.28968 
-3.43231 -2.32243 2.55281 
-3.66503 -2.29845 2.38543 
-3.80258 -2.27084 2.11221 
-3.90086 -2.27086 2.17319 
-4.03521 -2.25699 2.07625 
-4.12632 -2.27267 2.33609 
-4.26029 -2.2575 2.22201 
-4.35736 -2.2597 2.31062 
-4.49082 -2.24642 2.22082 
-4.58026 -2.25994 2.45161 
-4.72083 -2.23554 2.22188 
-4.81206 -2.24716 2.42905 
-4.94707 -2.23137 2.30763 
-5.03442 -2.25304 2.64299 
-5.17178 -2.22574 2.37359 
-5.26243 -2.24439 2.67179 
-5.38603 -2.24279 2.72743 
-5.47585 -2.25703 2.9678 
-5.61051 -2.23906 2.81798 
-5.70247 -2.24972 3.01313 
-5.82471 -2.2492 3.08205 
-5.91809 -2.26049 3.28638 
-6.03424 -2.26312 3.39247 
-6.14007 -2.25487 3.35092 
-6.26663 -2.24508 3.30218 
-6.35588 -2.26092 3.56301 
-6.47486 -2.26101 3.63782 
-6.58595 -2.24464 3.49417 
-6.69783 -2.25701 3.72396 
-6.79438 -2.25714 3.78543 
-6.92999 -2.24024 3.65012 
-7.01547 -2.25516 3.89663 
-7.13922 -2.25022 3.90923 
-7.22778 -2.25988 4.08947 
-7.37257 -2.23263 3.82548 
-7.45139 -2.25468 4.16046 
4.38263 -1.65869 -10.3487 
3.94806 -1.68874 -9.69384 
2.77757 -1.78183 -7.77273 
2.03212 -2.15805 -2.45395 
1.92058 -2.17376 -2.18248 
1.79052 -2.1498 -2.41217 
1.68078 -2.17181 -2.0603 
1.55268 -2.14219 -2.36436 
1.43785 -2.16246 -2.03188 
0.789599 -2.49222 2.62757 
0.691693 -2.47767 2.49971 
0.555314 -2.50012 2.87374 
0.458171 -2.4983 2.90998 
0.326145 -2.51821 3.24846 
0.228842 -2.52562 3.40411 
0.000519394 -2.54737 3.82552 
-0.119256 -2.51976 3.54244 
-0.225006 -2.52176 3.63334 
-0.348082 -2.49256 3.3318 
-0.445208 -2.52724 3.83972 
-0.572658 -2.52447 3.88239 
-0.671868 -2.53507 4.08043 
-0.897311 -2.51668 3.98149 
-1.03092 -2.48483 3.65214 
-1.12524 -2.49943 3.89894 
-1.25899 -2.46572 3.5456 
-1.35363 -2.47643 3.7423 
-1.47943 -2.4631 3.64744 
-1.57864 -2.47225 3.82681 
-1.8089 -2.45894 3.79665 
-1.94233 -2.40242 3.1484 
-2.03941 -2.41718 3.39894 
-2.17121 -2.39689 3.2179 
-2.26377 -2.4083 3.42234 
-2.40171 -2.37437 3.06882 
-2.49342 -2.39664 3.41316 
-2.73189 -2.35339 3.00117 
-2.86962 -2.31733 2.61992 
-2.9713 -2.31479 2.64973 
-3.09662 -2.30147 2.55491 
-3.20524 -2.29304 2.51289 
-3.32845 -2.2754 2.36075 
-3.43083 -2.28208 2.51017 
-3.56746 -2.24252 2.08321 
-3.66474 -2.25557 2.31175 
-3.80244 -2.22985 2.06424 
-3.8988 -2.23755 2.22311 
-4.03143 -2.22554 2.14976 
-4.1265 -2.22777 2.23712 
-4.26022 -2.21285 2.12678 
-4.35457 -2.22405 2.32963 
-4.48933 -2.20787 2.20364 
-4.58385 -2.21523 2.35705 
-4.72089 -2.19585 2.19107 
-4.80924 -2.21099 2.44122 
-4.93856 -2.20277 2.41481 
-5.03716 -2.20663 2.52551 
-5.1587 -2.21322 2.68562 
-5.25434 -2.21901 2.8195 
-5.38148 -2.20966 2.77712 
-5.4856 -2.20322 2.75805 
-5.60585 -2.20629 2.87195 
-5.70387 -2.20768 2.95034 
-5.82286 -2.21309 3.09375 
-5.92539 -2.20991 3.11599 
-6.03374 -2.22554 3.38487 
-6.13094 -2.22764 3.47197 
-6.25672 -2.21911 3.43942 
-6.35501 -2.22215 3.53932 
-6.48239 -2.21361 3.50763 
-6.57687 -2.21816 3.62471 
-6.70363 -2.21019 3.59998 
-6.79157 -2.22253 3.81372 
-6.9232 -2.20911 3.72156 
-7.01412 -2.21777 3.88968 
-7.13606 -2.21512 3.9307 
-7.22748 -2.22181 4.0737 
-7.3694 -2.19765 3.84903 
-7.45245 -2.21496 4.12405 
4.63148 -1.63296 -10.3081 
4.11552 -1.62279 -10.1233 
2.03434 -2.12025 -2.44777 
1.79142 -2.12524 -2.2348 
1.69198 -2.10625 -2.41819 
1.44357 -2.12604 -2.01126 
0.787256 -2.45668 2.64613 
0.692725 -2.45707 2.70914 
0.560468 -2.46522 2.89506 
0.458684 -2.48568 3.22079 
0.328957 -2.48256 3.2602 
0.22822 -2.50029 3.55022 
0.00269217 -2.49665 3.64176 
-0.116297 -2.48454 3.55884 
-0.223385 -2.48934 3.68633 
-0.345213 -2.45146 3.27354 
-0.444557 -2.48295 3.73976 
-0.572776 -2.47611 3.73052 
-0.665726 -2.5005 4.10147 
-0.89679 -2.48042 3.98475 
-1.0294 -2.44646 3.62915 
-1.12417 -2.46364 3.90846 
-1.25556 -2.4381 3.66033 
-1.35023 -2.44942 3.8642 
-1.47706 -2.42979 3.68934 
-1.57923 -2.42449 3.68392 
-1.8111 -2.40364 3.55799 
-1.93568 -2.3798 3.32757 
-2.03669 -2.38278 3.42803 
-2.16974 -2.36092 3.22836 
-2.26232 -2.36967 3.39789 
-2.39691 -2.35005 3.22797 
-2.49626 -2.34584 3.2348 
-2.73048 -2.32067 3.05472 
-2.8734 -2.2557 2.30626 
-2.96847 -2.27918 2.66693 
-3.09622 -2.25895 2.48496 
-3.19632 -2.26859 2.67057 
-3.32981 -2.23691 2.3448 
-3.42807 -2.25175 2.5963 
-3.56444 -2.20656 2.09837 
-3.66257 -2.21919 2.32127 
-3.80074 -2.19046 2.03639 
-3.8958 -2.19582 2.16385 
-4.03161 -2.18133 2.06083 
-4.12737 -2.18798 2.20527 
-4.25883 -2.17901 2.1706 
-4.35014 -2.19314 2.4086 
-4.4868 -2.17154 2.21458 
-4.58392 -2.17564 2.32706 
-4.71586 -2.16103 2.22019 
-4.81309 -2.16986 2.39363 
-4.93821 -2.167 2.4338 
-5.03248 -2.17276 2.56584 
-5.162 -2.16473 2.54217 
-5.25833 -2.16959 2.66407 
-5.37443 -2.1804 2.8746 
-5.4647 -2.19615 3.13285 
-5.5964 -2.1831 3.04596 
-5.70467 -2.16483 2.87738 
-5.81888 -2.1791 3.13129 
-5.92643 -2.16679 3.03905 
-6.0406 -2.17739 3.24584 
-6.12902 -2.19233 3.49249 
-6.25185 -2.18594 3.48587 
-6.34346 -2.19725 3.68786 
-6.48211 -2.17309 3.46214 
-6.58264 -2.17428 3.53942 
-6.70246 -2.17223 3.58683 
-6.79832 -2.17655 3.70144 
-6.91743 -2.17663 3.7758 
-7.01438 -2.1784 3.85828 
-7.14124 -2.17119 3.84354 
-7.22521 -2.18467 4.06885 
-7.36394 -2.16514 3.90281 
-7.4477 -2.18007 4.14661 
4.13455 -1.55913 -10.4295 
3.27253 -1.74161 -7.56487 
1.79252 -2.095 -2.13171 
1.69423 -2.06845 -2.41198 
1.55445 -2.08519 -2.11203 
1.44432 -2.09245 -1.95161 
0.795395 -2.41157 2.5354 
0.69546 -2.40228 2.47746 
0.562376 -2.42539 2.85504 
0.460287 -2.44734 3.19882 
0.332676 -2.44995 3.31031 
0.233364 -2.45267 3.40592 
0.109112 -2.46317 3.61664 
0.00625114 -2.4628 3.6748 
-0.116124 -2.45208 3.61219 
-0.221774 -2.45291 3.68751 
-0.342367 -2.42496 3.403 
-0.442208 -2.44888 3.77078 
-0.572208 -2.43588 3.68364 
-0.666524 -2.46178 4.07336 
-0.896532 -2.44144 3.95344 
-1.0313 -2.40554 3.57565 
-1.12062 -2.42622 3.89543 
-1.25171 -2.41191 3.79232 
-1.3485 -2.41235 3.8572 
-1.47662 -2.3864 3.603 
-1.57358 -2.4071 3.9277 
-1.80851 -2.37328 3.63797 
-1.93564 -2.34267 3.3234 
-2.03465 -2.34734 3.44389 
-2.16779 -2.32598 3.25164 
-2.26129 -2.33418 3.41399 
-2.40039 -2.29671 3.01883 
-2.49403 -2.31661 3.33136 
-2.729 -2.2852 3.07261 
-2.87064 -2.22483 2.38547 
-2.96533 -2.23986 2.63614 
-3.0967 -2.21576 2.40775 
-3.19245 -2.23646 2.73169 
-3.32771 -2.2024 2.37793 
-3.42356 -2.22184 2.68597 
-3.66049 -2.18348 2.33931 
-3.79689 -2.15721 2.08616 
-3.89384 -2.16054 2.18824 
-4.02862 -2.14659 2.09209 
-4.12187 -2.15528 2.26058 
-4.25905 -2.13873 2.13253 
-4.35108 -2.15095 2.34564 
-4.4871 -2.12993 2.15954 
-4.58189 -2.1419 2.37116 
-4.71251 -2.12829 2.27674 
-4.80547 -2.14061 2.49175 
-4.93095 -2.13868 2.54393 
-5.03262 -2.13268 2.5293 
-5.15037 -2.14496 2.75896 
-5.25118 -2.14133 2.77437 
-5.37816 -2.13552 2.77769 
-5.4748 -2.13834 2.87311 
-5.60528 -2.12459 2.77686 
-5.70877 -2.12106 2.79515 
-5.81488 -2.1456 3.17497 
-5.91843 -2.14011 3.16804 
-6.03695 -2.1435 3.28431 
-6.1291 -2.15142 3.44242 
-6.25608 -2.14149 3.39294 
-6.34989 -2.15268 3.59408 
-6.47697 -2.14157 3.52961 
-6.5741 -2.14416 3.62245 
-6.6808 -2.15987 3.88935 
-6.79067 -2.14659 3.78663 
-6.9222 -2.13312 3.69468 
-7.01168 -2.14171 3.85976 
-7.13621 -2.13715 3.8777 
-7.22174 -2.14917 4.08438 
-7.35267 -2.13906 4.03518 
-7.45469 -2.13425 4.03614 
3.57588 -1.60579 -8.97371 
1.80866 -2.00033 -2.86107 
1.69272 -2.05244 -2.12524 
1.44658 -2.04222 -2.10568 
0.794377 -2.3908 2.74198 
0.698798 -2.3657 2.47986 
0.56509 -2.38269 2.77833 
0.462466 -2.40637 3.14314 
0.332945 -2.42747 3.49151 
0.235731 -2.42019 3.45796 
0.00726254 -2.42989 3.72117 
-0.11498 -2.41515 3.60749 
-0.220006 -2.416 3.68238 
-0.339827 -2.40741 3.64589 
-0.441108 -2.40286 3.64954 
-0.56798 -2.39361 3.60897 
-0.662715 -2.42388 4.05314 
-0.89133 -2.4108 4.02578 
-1.02401 -2.37323 3.627 
-1.12013 -2.38715 3.86343 
-1.25197 -2.3616 3.61776 
-1.34549 -2.38229 3.93896 
-1.47525 -2.3482 3.58289 
-1.57449 -2.36239 3.82473 
-1.80679 -2.33584 3.62752 
-1.93266 -2.30473 3.30724 
-2.03356 -2.30801 3.41071 
-2.16645 -2.2856 3.20567 
-2.26146 -2.29265 3.3538 
-2.39339 -2.27542 3.21437 
-2.48857 -2.28994 3.4579 
-2.72733 -2.24309 3.00556 
-2.866 -2.19996 2.53947 
-2.9616 -2.21067 2.73465 
-3.09499 -2.18413 2.47726 
-3.19631 -2.18054 2.49338 
-3.32557 -2.16062 2.31799 
-3.42638 -2.17399 2.55026 
-3.65898 -2.14613 2.33676 
-3.79938 -2.11453 2.01901 
-3.89729 -2.11243 2.05202 
-4.02812 -2.11089 2.1124 
-4.12048 -2.11935 2.27686 
-4.25359 -2.10623 2.19071 
-4.3491 -2.11369 2.34434 
-4.57885 -2.10556 2.38097 
-4.71675 -2.08652 2.22225 
-4.8054 -2.09929 2.43944 
-4.93281 -2.09436 2.4544 
-5.02395 -2.10869 2.69314 
-5.15885 -2.09123 2.55273 
-5.24568 -2.11223 2.87397 
-5.38195 -2.08932 2.66484 
-5.46798 -2.11221 3.00975 
-5.60196 -2.09335 2.8509 
-5.69345 -2.1056 3.06327 
-5.81548 -2.10518 3.13266 
-5.91695 -2.10303 3.16721 
-6.04398 -2.09496 3.14188 
-6.13086 -2.10942 3.37977 
-6.26082 -2.0971 3.30191 
-6.33953 -2.12441 3.69891 
-6.48228 -2.0965 3.42987 
-6.56875 -2.11268 3.68941 
-6.70031 -2.09715 3.5717 
-6.79452 -2.10353 3.71086 
-6.92562 -2.09072 3.62751 
-7.01187 -2.10348 3.84327 
-7.13506 -2.10113 3.88865 
-7.22496 -2.10869 4.04033 
-7.36297 -2.0895 3.87969 
-7.45329 -2.09778 4.04081 
4.36836 -1.51647 -10.0771 
3.39579 -1.63915 -7.92724 
3.29587 -1.6174 -8.14319 
2.03832 -2.00496 -2.45185 
1.92822 -2.0279 -2.09325 
1.80381 -1.9913 -2.48303 
1.69718 -1.99828 -2.32949 
1.55684 -2.0146 -2.03673 
1.44814 -2.01322 -1.98815 
0.799035 -2.33803 2.53652 
0.696195 -2.34561 2.69547 
0.565411 -2.3515 2.84994 
0.465155 -2.36207 3.04526 
0.334521 -2.38826 3.45774 
0.0100785 -2.39618 3.7559 
-0.109075 -2.36219 3.39613 
-0.218663 -2.37221 3.59018 
-0.338828 -2.37721 3.72691 
-0.438526 -2.37723 3.78787 
-0.565021 -2.36016 3.64768 
-0.664452 -2.37901 3.9479 
-0.891595 -2.37316 4.0118 
-1.02442 -2.33676 3.62976 
-1.11912 -2.34796 3.82989 
-1.25042 -2.32332 3.59636 
-1.34439 -2.34355 3.91091 
-1.47483 -2.30406 3.48814 
-1.57182 -2.33581 3.95096 
-1.80187 -2.30956 3.75716 
-1.93513 -2.26716 3.29915 
-2.02805 -2.28687 3.60635 
-2.16579 -2.2466 3.17815 
-2.25552 -2.2633 3.44514 
-2.39592 -2.22729 3.07274 
-2.48445 -2.25449 3.47252 
-2.72716 -2.19841 2.90716 
-2.86229 -2.16731 2.59395 
-2.95869 -2.17687 2.77432 
-3.09042 -2.15047 2.51884 
-3.18992 -2.16133 2.71749 
-3.32474 -2.11619 2.22566 
-3.56196 -2.09547 2.10662 
-3.65772 -2.10789 2.32293 
-3.7975 -2.07464 1.98522 
-3.88511 -2.09329 2.27587 
-4.02453 -2.06936 2.05655 
-4.12348 -2.06901 2.11236 
-4.25352 -2.06854 2.18569 
-4.35256 -2.07032 2.26866 
-4.47935 -2.06788 2.31498 
-4.57601 -2.06729 2.36634 
-4.71218 -2.05481 2.29065 
-4.80015 -2.06984 2.53558 
-4.93523 -2.05242 2.39636 
-5.03467 -2.05181 2.44925 
-5.15275 -2.06018 2.62772 
-5.24692 -2.06995 2.80945 
-5.37485 -2.05949 2.7544 
-5.47029 -2.06888 2.9321 
-5.59922 -2.05799 2.87223 
-5.69161 -2.06884 3.0666 
-5.81027 -2.07405 3.20533 
-5.92108 -2.06215 3.12149 
-6.03261 -2.06901 3.27686 
-6.12729 -2.07585 3.4216 
-6.248 -2.07308 3.46015 
-6.34302 -2.08111 3.62028 
-6.47272 -2.0699 3.55679 
-6.573 -2.06604 3.56892 
-6.68703 -2.07333 3.73128 
-6.79172 -2.0679 3.72611 
-6.9149 -2.06559 3.77198 
-7.00754 -2.0706 3.89229 
-7.13489 -2.06196 3.86011 
-7.23115 -2.0633 3.93598 
-7.35852 -2.05521 3.91077 
-7.44849 -2.0624 4.0572 
4.64901 -1.45892 -10.461 
4.37532 -1.47546 -10.086 
4.09851 -1.50061 -9.59999 
1.8046 -1.96893 -2.28032 
1.69217 -1.9648 -2.2644 
0.800319 -2.31489 2.71016 
0.700423 -2.29471 2.51505 
0.56668 -2.32414 2.96902 
0.466919 -2.32818 3.08069 
0.337765 -2.34745 3.40298 
0.238658 -2.34239 3.39909 
0.0103124 -2.35936 3.7525 
-0.109166 -2.34116 3.59451 
-0.216065 -2.34523 3.71096 
-0.335651 -2.32956 3.58504 
-0.437622 -2.32929 3.64342 
-0.564817 -2.3301 3.73087 
-0.663322 -2.33663 3.87334 
-0.888824 -2.33826 4.03089 
-1.0229 -2.29838 3.60711 
-1.1158 -2.32034 3.94167 
-1.24884 -2.29137 3.65547 
-1.34452 -2.30121 3.83827 
-1.4711 -2.27796 3.62052 
-1.57258 -2.2845 3.76502 
-1.80269 -2.26349 3.63866 
-1.9305 -2.23123 3.30763 
-2.02681 -2.24818 3.58076 
-2.15909 -2.21728 3.26972 
-2.25744 -2.22413 3.41625 
-2.39889 -2.17399 2.86699 
-2.48407 -2.21822 3.47901 
-2.72181 -2.17618 3.09088 
-2.86542 -2.11358 2.38518 
-2.95988 -2.13437 2.70592 
-3.0934 -2.10666 2.43599 
-3.19208 -2.11615 2.61615 
-3.32045 -2.08312 2.27583 
-3.42196 -2.10545 2.62031 
-3.56474 -2.05054 2.01155 
-3.65593 -2.07086 2.32442 
-3.79318 -2.04587 2.09125 
-3.89129 -2.04067 2.08498 
-4.01947 -2.04383 2.20289 
-4.10937 -2.04808 2.31139 
-4.25267 -2.02858 2.15147 
-4.35013 -2.03314 2.26845 
-4.47589 -2.03151 2.32439 
-4.57359 -2.03249 2.39618 
-4.71289 -2.0129 2.23263 
-4.80141 -2.02472 2.43622 
-4.92579 -2.02896 2.56556 
-5.02544 -2.02708 2.60238 
-5.14609 -2.03194 2.73741 
-5.23884 -2.04299 2.93378 
-5.37164 -2.02487 2.78502 
