ply
format ascii 1.0
element vertex 1841
property float x
property float y
property float z
end_header
-3.14675 2.35343 4.48886 
-3.2689 2.35168 4.56054 
-3.37359 2.369 4.46313 
-3.49606 2.37217 4.49344 
-3.60701 2.40382 4.27807 
-3.73296 2.41386 4.252 
-3.83988 2.43736 4.10349 
-3.95912 2.42727 4.24424 
-4.0586 2.43322 4.24036 
-4.29347 2.4685 4.05212 
-4.42558 2.48646 3.96209 
-4.531 2.5054 3.85142 
-4.66556 2.53291 3.68195 
-4.76627 2.53532 3.70852 
-4.89984 2.56302 3.53705 
-4.98651 2.53355 3.8262 
-5.22199 2.56395 3.67935 
-5.38943 2.67662 2.80657 
-5.48405 2.65993 2.9915 
-5.61936 2.68813 2.81663 
-5.71991 2.69295 2.8228 
-5.86771 2.74893 2.4193 
-5.96086 2.73394 2.58928 
-6.1008 2.77065 2.34472 
-6.19621 2.75729 2.50196 
-6.34858 2.82502 2.00135 
-6.4409 2.80303 2.23 
-6.58238 2.84409 1.94946 
-6.67449 2.82187 2.18004 
-6.81287 2.85539 1.96165 
-6.92198 2.87245 1.8686 
-7.03914 2.85588 2.06313 
-7.13612 2.84521 2.19839 
-7.27567 2.87854 1.98226 
-7.38884 2.90851 1.78209 
-7.48946 2.85395 2.28959 
-7.61836 2.91801 1.80905 
4.89079 3.65488 -9.88245 
4.61347 3.6261 -9.51188 
4.20186 3.59223 -9.03637 
2.76856 3.39808 -6.73884 
2.56889 3.13572 -4.43859 
1.97031 3.09993 -3.85999 
1.80204 2.88415 -1.9661 
1.56779 2.94142 -2.33941 
1.31571 2.85961 -1.53409 
1.21104 2.85647 -1.45914 
1.06506 2.75006 -0.495925 
0.961234 2.77215 -0.633595 
0.828234 2.73924 -0.294933 
0.724762 2.76851 -0.493267 
0.593671 2.7463 -0.245576 
0.489137 2.71056 0.10373 
0.361067 2.65975 0.590806 
0.255743 2.76077 -0.210464 
0.126856 2.71548 0.230503 
0.0177235 2.76291 -0.118043 
-0.108157 2.61736 1.16533 
-0.209218 2.65245 0.916926 
-0.572551 2.5317 2.10186 
-0.802752 2.45689 2.83837 
-0.906545 2.61773 1.53292 
-1.02723 2.47968 2.7509 
-1.13759 2.62964 1.54004 
-1.25245 2.41931 3.36357 
-1.36444 2.5225 2.54712 
-1.47419 2.38801 3.73008 
-1.58711 2.48318 2.9815 
-1.6976 2.37749 3.92246 
-1.80957 2.44341 3.41961 
-1.93128 2.41229 3.73815 
-2.03451 2.45231 3.44927 
-2.15212 2.38581 4.06366 
-2.2564 2.41531 3.86383 
-2.37551 2.38448 4.17868 
-2.47604 2.38802 4.19564 
-2.60115 2.38593 4.27144 
-2.70239 2.40238 4.18005 
-2.82522 2.38413 4.39073 
-2.92683 2.40628 4.25157 
-3.04526 2.37877 4.53816 
-3.1499 2.40707 4.34868 
-3.27261 2.4081 4.39711 
-3.37243 2.40882 4.43744 
-3.49625 2.41688 4.42724 
-3.60194 2.42972 4.36827 
-3.72828 2.44261 4.31861 
-3.83443 2.46384 4.1893 
-3.96226 2.47649 4.14223 
-4.06181 2.4823 4.13969 
-4.28735 2.49373 4.14839 
-4.42517 2.52717 3.93111 
-4.52506 2.53392 3.92077 
-4.6562 2.55029 3.84402 
-4.76003 2.56163 3.79686 
-4.89505 2.59201 3.60397 
-4.98333 2.56354 3.88474 
-5.22294 2.60864 3.61665 
-5.38197 2.69569 2.95794 
-5.47144 2.67374 3.18434 
-5.61859 2.73126 2.76871 
-5.72039 2.73596 2.77652 
-5.86581 2.78966 2.39218 
-5.96412 2.77435 2.56688 
-6.0977 2.80062 2.40794 
-6.19616 2.799 2.46741 
-6.33854 2.83898 2.19722 
-6.45797 2.88189 1.89156 
-6.57896 2.87689 1.99 
-6.67794 2.87396 2.0608 
-6.81381 2.89692 1.93084 
-6.90699 2.87885 2.12638 
-7.04193 2.90391 1.97828 
-7.13667 2.88694 2.16524 
-7.27816 2.92639 1.89908 
-7.38597 2.94249 1.81376 
-7.61462 2.94763 1.87709 
5.2664 3.68152 -9.9365 
5.01133 3.70385 -10.006 
3.90646 3.49161 -7.71418 
2.07508 3.12186 -3.76395 
1.5498 2.87146 -1.4192 
1.45109 2.89084 -1.53613 
1.30641 2.79915 -0.69959 
1.20983 2.88544 -1.37913 
1.06891 2.79369 -0.543727 
0.96649 2.81824 -0.702387 
0.828325 2.76709 -0.209048 
0.73273 2.82382 -0.640922 
0.593664 2.76511 -0.083733 
0.489986 2.7714 -0.0884899 
0.364295 2.76609 0.0142959 
0.130859 2.70647 0.622917 
0.020246 2.78655 0.00197646 
-0.106439 2.6944 0.834215 
-0.207983 2.68533 0.957408 
-0.441487 2.75305 0.497231 
-0.569575 2.59688 1.86747 
-0.800976 2.49546 2.82608 
-0.906089 2.61315 1.88686 
-1.02574 2.51098 2.80002 
-1.13534 2.6207 1.92986 
-1.25013 2.48961 3.08347 
-1.36067 2.53245 2.77517 
-1.47425 2.44981 3.52152 
-1.58221 2.47993 3.3188 
-1.69946 2.42701 3.81736 
-1.8099 2.49518 3.29636 
-1.9239 2.41862 3.99196 
-2.04605 2.59253 2.58882 
-2.15164 2.42677 4.02925 
-2.25443 2.44191 3.94985 
-2.37516 2.4242 4.15457 
-2.47528 2.43229 4.13311 
-2.59417 2.40302 4.43403 
-2.69679 2.4222 4.32062 
-2.82252 2.42028 4.39516 
-2.93053 2.46221 4.09331 
-3.04571 2.42631 4.44817 
-3.14952 2.45145 4.2853 
-3.26633 2.42846 4.5326 
-3.37319 2.45028 4.39905 
-3.49901 2.46571 4.32789 
-3.60477 2.47988 4.25809 
-3.72757 2.48285 4.29015 
-3.83519 2.50877 4.12258 
-3.95724 2.50443 4.21574 
-4.06069 2.51928 4.13909 
-4.28754 2.53606 4.1036 
-4.42449 2.56321 3.93935 
-4.5244 2.57203 3.91171 
-4.65672 2.59125 3.81181 
-4.7632 2.61053 3.69944 
-4.89429 2.62661 3.62534 
-4.98157 2.60148 3.87693 
-5.22288 2.64952 3.58579 
-5.3761 2.72155 3.05225 
-5.46876 2.70645 3.22212 
-5.62314 2.78163 2.6627 
-5.72814 2.79406 2.60715 
-5.86265 2.81942 2.45677 
-5.96532 2.82377 2.46797 
-6.09705 2.84489 2.35195 
-6.1977 2.84197 2.42326 
-6.34021 2.88833 2.10032 
-6.43861 2.88352 2.18647 
-6.57215 2.89977 2.1121 
-6.67444 2.9037 2.12666 
-6.80537 2.91779 2.06925 
-6.89316 2.88963 2.34653 
-7.03234 2.92142 2.14442 
-7.1366 2.9299 2.12165 
-7.27638 2.96037 1.93091 
-7.36859 2.94319 2.11799 
-7.50362 2.96709 1.98016 
-7.60672 2.97257 1.98218 
5.1168 3.67241 -9.44907 
4.87336 3.69533 -9.52857 
4.62939 3.7265 -9.67695 
2.2252 3.23956 -4.49111 
1.56016 2.93752 -1.65545 
1.21177 2.93174 -1.44605 
1.06905 2.8381 -0.596197 
0.968332 2.87137 -0.828091 
0.829625 2.79213 -0.100603 
0.732457 2.88499 -0.833072 
0.596022 2.79534 -0.019461 
0.494417 2.79788 0.00627203 
0.131965 2.79263 0.217901 
0.0212431 2.81362 0.0934087 
-0.105783 2.72427 0.900183 
-0.204716 2.71969 0.9843 
-0.440268 2.73591 0.9575 
-0.567451 2.583 2.2965 
-0.799596 2.57161 2.49935 
-0.905707 2.7032 1.44685 
-1.02382 2.56138 2.68881 
-1.13258 2.69708 1.6031 
-1.25208 2.54393 2.94058 
-1.36075 2.6425 2.16571 
-1.47453 2.47858 3.59069 
-1.5829 2.54969 3.04563 
-1.6967 2.46272 3.82642 
-1.80578 2.52244 3.37696 
-1.92446 2.47493 3.82972 
-2.03257 2.52947 3.42318 
-2.1469 2.45144 4.12943 
-2.25498 2.49473 3.81711 
-2.37275 2.45251 4.22513 
-2.47684 2.47971 4.04567 
-2.5947 2.45416 4.3142 
-2.70146 2.48576 4.09909 
-2.82096 2.45658 4.39877 
-2.92885 2.498 4.10206 
-3.04534 2.46761 4.41047 
-3.14684 2.4893 4.27589 
-3.26649 2.47159 4.47965 
-3.36901 2.47867 4.46797 
-3.49697 2.5002 4.347 
-3.60395 2.51818 4.24611 
-3.73142 2.5365 4.15182 
-3.83963 2.56594 3.95545 
-3.96394 2.56441 4.02594 
-4.0536 2.54286 4.248 
-4.28603 2.57548 4.08264 
-4.41467 2.58377 4.07289 
-4.53254 2.63337 3.71232 
-4.65527 2.62954 3.80127 
-4.75611 2.63739 3.78232 
-4.89921 2.68205 3.47477 
-4.98009 2.64053 3.85995 
-5.21481 2.67055 3.71755 
-5.37546 2.76437 3.00654 
-5.46937 2.75086 3.16323 
-5.6201 2.81589 2.68867 
-5.71 2.79035 2.94428 
-5.8641 2.86644 2.37868 
-5.96757 2.8726 2.37512 
-6.09126 2.87411 2.41988 
-6.18869 2.86743 2.52108 
-6.33964 2.92727 2.09008 
-6.44198 2.92967 2.11748 
-6.5764 2.95422 1.97433 
-6.67247 2.93922 2.14455 
-6.80052 2.94407 2.16337 
-6.89451 2.92891 2.33395 
-7.04055 2.98315 1.94757 
-7.12449 2.94612 2.29668 
-7.27344 2.99793 1.932 
-7.38093 3.01354 1.85124 
-7.50257 3.00675 1.96455 
-7.60831 3.01873 1.9134 
5.27861 3.776 -10.0483 
5.02334 3.79598 -10.0976 
3.8951 3.51449 -7.22784 
2.07991 3.18719 -3.65844 
1.31814 2.94927 -1.32059 
1.20353 2.88252 -0.710411 
1.06928 2.85546 -0.422469 
0.977069 2.97395 -1.36916 
0.833688 2.85395 -0.301138 
0.731554 2.89236 -0.574624 
0.598686 2.8516 -0.172971 
0.494641 2.88137 -0.373499 
0.364886 2.85203 -0.0685789 
0.132311 2.82883 0.232545 
0.0257199 2.83723 0.211665 
-0.205093 2.7669 0.905523 
-0.438174 2.79018 0.818811 
-0.566077 2.53229 3.03124 
-0.79681 2.61238 2.46911 
-1.02383 2.61053 2.5895 
-1.25265 2.58415 2.91556 
-1.35843 2.62573 2.61732 
-1.47335 2.51562 3.58983 
-1.5818 2.57589 3.1368 
-1.6965 2.50424 3.78806 
-1.80252 2.54634 3.48559 
-1.9223 2.50354 3.89838 
-2.03809 2.61333 3.0352 
-2.14915 2.50933 3.955 
-2.25019 2.53371 3.79815 
-2.37243 2.5005 4.13204 
-2.47075 2.4943 4.22925 
-2.59299 2.48598 4.35535 
-2.69703 2.51294 4.17835 
-2.81947 2.49395 4.39357 
-2.92837 2.5403 4.0569 
-3.04091 2.49593 4.4795 
-3.14772 2.53055 4.23989 
-3.26412 2.50631 4.49616 
-3.37236 2.53256 4.32704 
-3.49001 2.52438 4.44983 
-3.60629 2.56459 4.16789 
-3.72992 2.56972 4.18233 
-3.83279 2.5839 4.1115 
-3.95487 2.58199 4.18401 
-4.06077 2.60298 4.05772 
-4.28683 2.61586 4.05489 
-4.42063 2.6404 3.91188 
-4.52364 2.65107 3.87052 
-4.65525 2.67111 3.76408 
-4.7552 2.67619 3.76797 
-4.88977 2.70292 3.60711 
-4.97845 2.67524 3.87931 
-5.22403 2.73362 3.50561 
-5.3792 2.812 2.92295 
-5.46809 2.78843 3.16096 
-5.61587 2.8451 2.75614 
-5.72476 2.86473 2.64271 
-5.85487 2.88398 2.54225 
-5.95844 2.88794 2.55713 
-6.0983 2.9289 2.27988 
-6.19255 2.91255 2.46015 
-6.33255 2.9516 2.19891 
-6.43758 2.96271 2.15474 
-6.56841 2.9823 2.05179 
-6.66711 2.9685 2.21282 
-6.80162 2.99177 2.08087 
-6.88987 2.96432 2.35104 
-7.02898 2.99869 2.12847 
-7.12887 2.996 2.19725 
-7.27332 3.03684 1.92317 
-7.38982 3.07586 1.65128 
-7.49877 3.03951 2.00539 
-7.5977 3.03738 2.06907 
4.19995 3.73092 -8.83623 
3.82304 3.70533 -8.44976 
3.01785 3.52659 -6.59097 
2.74752 3.44722 -5.80561 
2.48182 3.36706 -5.01579 
2.32733 3.23104 -3.81206 
1.57225 3.04194 -1.88967 
1.31434 2.97298 -1.19659 
1.21998 3.04021 -1.71291 
1.07514 2.94137 -0.823083 
0.976154 2.97355 -1.04544 
0.838726 2.83266 0.191105 
0.727628 2.91273 -0.424401 
0.603685 2.8606 0.0667839 
0.493893 2.89647 -0.181295 
0.366357 2.8888 -0.0585747 
0.136291 2.84418 0.419081 
0.0261947 2.90631 -0.0475127 
-0.104593 2.88058 0.227068 
-0.201789 2.79888 0.952229 
-0.43452 2.84587 0.668268 
-0.565747 2.63917 2.45017 
-0.793714 2.68476 2.1757 
-1.0227 2.64124 2.6438 
-1.2501 2.61723 2.94878 
-1.3562 2.68652 2.42071 
-1.47566 2.58401 3.32953 
-1.58016 2.64769 2.8475 
-1.6971 2.55492 3.67407 
-1.80326 2.58951 3.43501 
-1.92053 2.52945 3.98939 
-2.03402 2.64242 3.10095 
-2.14336 2.52126 4.16046 
-2.24568 2.55549 3.9227 
-2.36695 2.51885 4.28381 
-2.47016 2.54351 4.12612 
-2.59101 2.52149 4.36536 
-2.70161 2.57987 3.93026 
-2.81938 2.53956 4.32043 
-2.93807 2.62485 3.66489 
-3.03833 2.52621 4.53271 
-3.14312 2.55769 4.31902 
-3.26269 2.54464 4.48293 
-3.37938 2.60206 4.05861 
-3.49403 2.58095 4.28743 
-3.60648 2.6106 4.09251 
-3.72248 2.59643 4.26414 
-3.83452 2.63418 4.00147 
-3.96065 2.64492 3.97035 
-4.04846 2.60982 4.30331 
-4.28567 2.65323 4.05143 
-4.41998 2.68381 3.85881 
-4.52129 2.68756 3.87443 
-4.65485 2.71201 3.73255 
-4.75542 2.71614 3.74465 
-4.88537 2.73678 3.63284 
-4.9842 2.73114 3.72552 
-5.20757 2.73667 3.78282 
-5.37069 2.84183 2.98237 
-5.4671 2.83034 3.1227 
-5.62477 2.9092 2.53877 
-5.71672 2.89465 2.70246 
-5.86241 2.94613 2.3411 
-5.9445 2.89784 2.78129 
-6.19468 2.96234 2.35982 
-6.33066 2.99114 2.18291 
-6.42938 2.98367 2.29082 
-6.56564 3.01295 2.10992 
-6.66306 3.00339 2.23465 
-6.79742 3.03093 2.06745 
-6.88808 3.00156 2.35407 
-7.12385 3.02519 2.26642 
-7.27292 3.07902 1.88706 
-7.36791 3.06723 2.02926 
-7.59949 3.0817 2.01589 
5.25391 3.81419 -9.67455 
4.72618 3.80804 -9.38114 
3.90421 3.6179 -7.42461 
2.57125 3.23936 -3.66843 
2.3307 3.27317 -3.83858 
2.08321 3.24768 -3.51315 
1.56934 3.05976 -1.71607 
1.31478 2.97642 -0.906816 
1.21863 3.05904 -1.54875 
1.07383 2.92177 -0.34205 
0.972938 2.97532 -0.740368 
0.83677 2.91025 -0.137251 
0.726133 2.95362 -0.446505 
0.604527 2.93283 -0.217921 
0.497565 2.88096 0.26219 
0.369572 2.91824 0.0114859 
0.265101 2.90786 0.14577 
0.13769 2.86904 0.526822 
0.0290335 2.97688 -0.318767 
-0.0989037 2.92731 0.151867 
-0.43302 2.88997 0.615881 
-1.01961 2.67696 2.65536 
-1.24582 2.65272 2.96097 
-1.3555 2.73354 2.34023 
-1.47459 2.62123 3.32798 
-1.57699 2.66308 3.02753 
-1.69795 2.6054 3.56243 
-1.8006 2.62231 3.46925 
-1.91951 2.57188 3.94298 
-2.03198 2.67188 3.1642 
-2.14718 2.58767 3.91685 
-2.25192 2.62386 3.66452 
-2.36414 2.55381 4.29818 
-2.47099 2.59912 3.97105 
-2.59108 2.56263 4.32958 
-2.6957 2.58953 4.15439 
-2.82053 2.58136 4.27984 
-2.92994 2.63328 3.89898 
-3.04356 2.5927 4.28855 
-3.14336 2.60281 4.25059 
-3.25946 2.57439 4.54022 
-3.36911 2.60936 4.30032 
-3.48866 2.60139 4.4217 
-3.60583 2.64844 4.08498 
-3.7165 2.62483 4.3322 
-3.83797 2.68367 3.89946 
-3.95851 2.67834 3.99933 
-4.05149 2.66082 4.18781 
-4.27931 2.67654 4.1624 
-4.41951 2.72172 3.85184 
-4.51777 2.72333 3.88379 
-4.65163 2.74272 3.7845 
-4.74869 2.73768 3.87118 
-4.88334 2.76801 3.68143 
-4.97529 2.75422 3.83847 
-5.21215 2.78705 3.6751 
-5.3738 2.89202 2.87774 
-5.4655 2.86939 3.10811 
-5.61872 2.93731 2.61458 
-5.72731 2.95766 2.49567 
-5.85337 2.96625 2.4826 
-5.95324 2.95959 2.58407 
-6.09253 2.99849 2.32525 
-6.1907 2.99413 2.40682 
-6.32407 3.01326 2.30951 
-6.43166 3.03234 2.20072 
-6.5646 3.05212 2.09781 
-6.6596 3.03564 2.27861 
-6.79801 3.07227 2.03827 
-6.88826 3.04566 2.30105 
-7.03034 3.08689 2.02419 
-7.12145 3.06241 2.26967 
-7.26134 3.09269 2.08276 
-7.36597 3.10842 2.00048 
-7.49751 3.12295 1.94058 
-7.59611 3.1134 2.06553 
4.85984 3.8306 -9.29185 
3.93596 3.75731 -8.26111 
3.80508 3.70593 -7.77559 
3.55858 3.71738 -7.75735 
3.03226 3.64896 -6.94919 
2.76709 3.59359 -6.3689 
2.34437 3.41403 -4.68753 
1.8283 3.19681 -2.6513 
1.73872 3.31328 -3.57494 
1.56168 3.05846 -1.38282 
1.30854 2.96733 -0.511631 
1.08002 3.01004 -0.760435 
0.979045 3.02708 -0.855189 
0.835612 2.97795 -0.3823 
0.736277 3.02446 -0.721941 
0.606487 2.95211 -0.0629725 
0.501882 2.94846 0.0153302 
0.139256 2.88943 0.671001 
0.0289176 2.99548 -0.156776 
-0.0951255 2.9409 0.352426 
-0.43303 2.94829 0.44655 
-0.791425 2.73647 2.36623 
-0.898191 2.8433 1.53027 
-1.01708 2.74298 2.4161 
-1.12837 2.94788 0.769844 
-1.2448 2.67046 3.12169 
-1.35445 2.84982 1.6862 
-1.47196 2.68581 3.09906 
-1.57473 2.67491 3.23667 
-1.69185 2.62138 3.73397 
-1.80139 2.68027 3.29652 
-1.91863 2.6217 3.8358 
-2.02974 2.69684 3.26442 
-2.14593 2.62196 3.93826 
-2.2523 2.66471 3.63301 
-2.36497 2.59392 4.2714 
-2.47071 2.63809 3.95421 
-2.58934 2.59807 4.34039 
-2.69628 2.63667 4.0698 
-2.81923 2.62189 4.24888 
-2.92756 2.67089 3.8928 
-3.04178 2.62773 4.30304 
-3.14521 2.65069 4.16046 
-3.26185 2.62919 4.39229 
-3.37088 2.65645 4.21666 
-3.49414 2.65649 4.27317 
-3.60129 2.67429 4.17507 
-3.72219 2.68026 4.18125 
-3.83243 2.70732 4.00792 
-3.95919 2.71942 3.96605 
-4.05464 2.71393 4.05554 
-4.28174 2.7257 4.06265 
-4.40917 2.73605 4.03566 
-4.51764 2.75919 3.89395 
-4.65196 2.78585 3.73498 
-4.74798 2.78066 3.82223 
-4.8746 2.78542 3.84121 
-4.98004 2.80839 3.69944 
-5.2178 2.84336 3.51934 
-5.3798 2.94538 2.74872 
-5.46022 2.89455 3.20698 
-5.61534 2.9682 2.66832 
-5.71267 2.96424 2.74601 
-5.85557 3.01063 2.42748 
-5.95545 3.00824 2.49342 
-6.08879 3.02912 2.38186 
-6.18301 3.01535 2.53945 
-6.33607 3.08801 2.00799 
-6.42259 3.04758 2.38289 
-6.57071 3.11 1.93406 
-6.66055 3.07996 2.22437 
-6.78837 3.08861 2.21172 
-6.88411 3.07581 2.36194 
-7.02645 3.11545 2.09913 
-7.12763 3.11615 2.14008 
-7.25517 3.12688 2.10998 
-7.36546 3.1495 1.97347 
-7.49775 3.16049 1.94348 
-7.59647 3.15869 2.00398 
5.78845 3.89869 -9.94299 
4.97786 3.86765 -9.31555 
4.48876 3.92162 -9.53755 
4.18422 3.78299 -8.2529 
3.91959 3.74059 -7.78148 
2.49572 3.53746 -5.45105 
1.56702 3.11256 -1.51494 
1.31981 3.07007 -1.05046 
1.22134 3.10575 -1.30012 
1.08507 3.05829 -0.845506 
0.976593 3.03378 -0.593248 
0.838167 2.9938 -0.19943 
0.738432 3.0704 -0.786524 
0.609338 2.96108 0.175974 
0.501397 2.99708 -0.0719271 
0.139008 2.924 0.698192 
0.034145 3.01706 -0.0225617 
-0.0933496 2.97836 0.355691 
-0.790369 2.78457 2.27693 
-1.01504 2.79748 2.27351 
-1.24527 2.75847 2.70159 
-1.46384 2.65983 3.61711 
-1.57301 2.71407 3.21906 
-1.69171 2.67171 3.62361 
-1.80324 2.74847 3.04065 
-1.91969 2.67109 3.73357 
-2.03225 2.76344 3.0222 
-2.13924 2.64417 4.0569 
-2.25005 2.69995 3.6469 
-2.36582 2.63951 4.1996 
-2.46613 2.65548 4.11369 
-2.5937 2.66132 4.12416 
-2.69587 2.68373 3.98596 
-2.8136 2.6527 4.2965 
-2.92 2.68744 4.05832 
-3.03383 2.63821 4.51753 
-3.14428 2.68692 4.16579 
-3.261 2.66977 4.36116 
-3.36965 2.69659 4.18956 
-3.49166 2.69147 4.28801 
-3.60223 2.72495 4.06217 
-3.72088 2.71702 4.18228 
-3.82808 2.73893 4.05056 
-3.95483 2.74787 4.03497 
-4.05388 2.75332 4.03552 
-4.27504 2.75624 4.11321 
-4.40827 2.77026 4.05864 
-4.51591 2.79752 3.88289 
-4.64672 2.81655 3.78588 
-4.7442 2.81377 3.8537 
-4.88401 2.85083 3.61177 
-4.97151 2.82393 3.87438 
-5.21264 2.87217 3.58669 
-5.36832 2.95541 2.97046 
-5.46298 2.94048 3.1375 
-5.61002 2.99387 2.7639 
-5.71249 3.00349 2.73162 
-5.84875 3.03856 2.50451 
-5.93877 3.00963 2.78504 
-6.08757 3.0675 2.37535 
-6.17576 3.03744 2.66436 
-6.32348 3.09573 2.2507 
-6.4196 3.084 2.39194 
-6.55492 3.11075 2.23318 
-6.64574 3.09315 2.42044 
-6.79156 3.13613 2.13248 
-6.88046 3.10901 2.39752 
-7.02227 3.15034 2.12127 
-7.11522 3.13157 2.31927 
-7.25747 3.17208 2.05003 
-7.36566 3.18671 1.97897 
-7.49083 3.18394 2.05949 
-7.58964 3.18413 2.1035 
4.71523 3.86819 -8.86458 
4.18898 3.81987 -8.22588 
3.95358 3.8888 -8.68626 
3.84235 3.89971 -8.72531 
3.66089 3.76443 -7.52759 
3.57787 3.84558 -8.15834 
3.03267 3.72078 -6.88068 
2.77629 3.71013 -6.67568 
1.99047 3.47517 -4.37995 
1.81069 3.16223 -1.71898 
1.57257 3.16427 -1.62672 
1.31265 3.04521 -0.526639 
1.22675 3.1836 -1.62768 
1.07939 3.05475 -0.498393 
0.984184 3.10126 -0.838067 
0.843085 3.05432 -0.386596 
0.737107 3.08231 -0.568697 
0.606972 3.02652 -0.0493227 
0.506242 3.01766 0.0697903 
0.373588 3.04081 -0.0601523 
0.272796 3.03184 0.0599112 
0.13987 2.96069 0.70717 
0.0349917 3.06358 -0.0926314 
-0.0934571 3.02993 0.243509 
-0.318749 2.98691 0.70134 
-0.560871 2.7646 2.64443 
-1.01601 2.84891 2.15833 
-1.2422 2.81649 2.52922 
-1.46529 2.69906 3.59942 
-1.57713 2.82019 2.65238 
-1.68748 2.70133 3.68267 
-1.80057 2.775 3.12738 
-1.91794 2.71714 3.65807 
-2.02896 2.78715 3.13205 
-2.14309 2.71099 3.81212 
-2.2465 2.73544 3.65806 
-2.36886 2.70323 3.97971 
-2.4682 2.71084 3.96254 
-2.59036 2.69528 4.14692 
-2.69516 2.72666 3.93639 
-2.819 2.71628 4.07878 
-2.92898 2.76687 3.71232 
-3.03571 2.6903 4.39241 
-3.14589 2.73862 4.04478 
-3.26035 2.70508 4.37375 
-3.36921 2.7346 4.18045 
-3.48817 2.73359 4.24343 
-3.6027 2.77262 3.97432 
-3.71934 2.75124 4.20411 
-3.8296 2.78743 3.95654 
-3.95452 2.79331 3.9654 
-4.05366 2.7913 4.02754 
-4.28308 2.80941 3.98368 
-4.41206 2.8265 3.90207 
-4.52314 2.86113 3.66766 
-4.64777 2.85877 3.74442 
-4.74235 2.85253 3.83929 
-4.87381 2.8653 3.79447 
-4.9767 2.87851 3.73289 
-5.20883 2.90309 3.637 
-5.4647 2.98883 3.0479 
-5.61554 3.05387 2.58108 
-5.71286 3.04517 2.69753 
-5.84632 3.07455 2.51676 
-5.94975 3.07774 2.53805 
-6.08628 3.10518 2.37462 
-6.1718 3.06583 2.7383 
-6.31449 3.11723 2.38022 
-6.41239 3.11083 2.47802 
-6.55218 3.14505 2.26026 
-6.6477 3.13484 2.38829 
-6.78546 3.16335 2.21667 
-6.88467 3.15824 2.30447 
-7.01458 3.17373 2.23653 
-7.11633 3.17699 2.25646 
-7.26389 3.22851 1.89965 
-7.36541 3.22614 1.96587 
-7.59225 3.23071 2.03256 
4.73474 3.96843 -9.36372 
4.36258 3.97284 -9.2301 
4.11855 4.0203 -9.50882 
3.92355 3.81612 -7.74173 
2.49531 3.58102 -5.15738 
2.23807 3.51203 -4.47279 
1.7412 3.40923 -3.40084 
1.33171 3.17691 -1.30419 
1.22545 3.20423 -1.48014 
1.08415 3.09841 -0.545749 
0.98352 3.11285 -0.618459 
0.843703 3.10203 -0.465619 
0.743711 3.15207 -0.831167 
0.610993 3.03679 0.177089 
0.50688 3.06968 -0.0455895 
0.275934 3.06784 0.0751406 
0.142841 2.99317 0.749825 
0.036167 3.11262 -0.183228 
-0.0902966 3.06062 0.302099 
-0.19971 3.13807 -0.284438 
-0.319386 3.00458 0.867579 
-1.01124 2.85327 2.42811 
-1.24143 2.83072 2.71886 
-1.46416 2.76501 3.36102 
-1.67935 2.69386 4.04444 
-1.79979 2.83069 2.97486 
-1.91225 2.72833 3.86785 
-2.03326 2.86497 2.80006 
-2.1413 2.74509 3.83496 
-2.24689 2.78123 3.58634 
-2.36215 2.71759 4.16226 
-2.46579 2.74438 3.98958 
-2.58832 2.7241 4.21243 
-2.69461 2.76648 3.91279 
-2.81311 2.73201 4.25047 
-2.93 2.81674 3.60755 
-3.03359 2.72688 4.39374 
-3.14309 2.77042 4.08601 
-3.25619 2.73526 4.42688 
-3.37082 2.77808 4.12743 
-3.48934 2.79099 4.07567 
-3.59893 2.79744 4.07292 
-3.72265 2.80733 4.0483 
-3.82642 2.81795 4.00865 
-3.94263 2.79734 4.23136 
-4.04519 2.80797 4.191 
-4.27915 2.84441 3.99874 
-4.41178 2.86475 3.8924 
-4.50985 2.86578 3.9289 
-4.65038 2.90653 3.65843 
-4.74241 2.89048 3.83254 
-4.87388 2.90732 3.75445 
-4.97657 2.91609 3.72949 
-5.20017 2.9212 3.79009 
-5.35678 3.00591 3.16557 
-5.46279 3.02443 3.06193 
-5.61415 3.09342 2.56419 
-5.7132 3.0837 2.68958 
-5.84354 3.11143 2.52142 
-5.94006 3.09346 2.71353 
-6.08009 3.13275 2.45479 
-6.16707 3.0966 2.79191 
-6.30988 3.14766 2.43766 
-6.40802 3.14551 2.50039 
-6.54989 3.1815 2.26969 
-6.64539 3.16854 2.42009 
-6.77937 3.19107 2.29641 
-6.86569 3.15607 2.62381 
-7.02159 3.22851 2.09979 
-7.10981 3.20441 2.33848 
-7.25587 3.25115 2.02131 
-7.35187 3.23688 2.1827 
-7.48285 3.25422 2.10031 
-7.58238 3.25224 2.16237 
4.76867 4.06205 -9.81259 
3.95257 3.94238 -8.45971 
3.81552 3.87285 -7.82734 
3.39527 3.7659 -6.7591 
3.30773 3.86418 -7.52476 
3.04207 3.81144 -6.97139 
2.85372 3.60837 -5.22078 
2.7888 3.81274 -6.8665 
2.34246 3.50451 -4.13624 
1.82944 3.30035 -2.22855 
1.56859 3.20257 -1.30786 
1.31983 3.11574 -0.482508 
1.22621 3.22722 -1.3537 
1.09018 3.1554 -0.702744 
0.983279 3.12798 -0.429193 
0.842774 3.13109 -0.390515 
0.744858 3.16781 -0.64688 
0.610327 3.11014 -0.112579 
0.509625 3.09916 0.0233767 
0.27222 3.132 -0.137377 
0.145778 3.04712 0.616279 
0.0390831 3.11862 0.078841 
-0.0835886 3.05466 0.659245 
-0.781942 2.9292 2.00703 
-0.888239 3.07135 0.890191 
-1.2407 2.88523 2.57724 
-1.46581 2.83345 3.10472 
-1.57047 2.88162 2.75765 
-1.69316 2.82025 3.31697 
-1.78993 2.80435 3.49153 
-1.91745 2.79043 3.66403 
-2.03086 2.89705 2.84174 
-2.13766 2.78014 3.84912 
-2.23713 2.79315 3.78803 
-2.36709 2.78592 3.90677 
-2.46361 2.78683 3.94346 
-2.58716 2.761 4.21181 
-2.68833 2.78149 4.09011 
-2.81103 2.76916 4.24735 
-2.91848 2.81399 3.92896 
-3.03528 2.77726 4.2836 
-3.14106 2.80655 4.0918 
-3.25158 2.76083 4.51729 
-3.37275 2.83494 3.96515 
-3.48473 2.81085 4.21397 
-3.5988 2.8445 3.99028 
-3.72383 2.85188 3.98696 
-3.82853 2.86937 3.89155 
-3.94498 2.84571 4.13886 
-4.05058 2.86758 4.00786 
-4.27303 2.87433 4.05439 
-4.40797 2.89841 3.91881 
-4.51454 2.92029 3.78818 
-4.63973 2.92213 3.83048 
-4.74583 2.94101 3.72422 
-4.86798 2.94073 3.78255 
-4.96744 2.93868 3.84488 
-5.21372 2.99717 3.47814 
-5.36003 3.05711 3.0537 
-5.45297 3.04243 3.21664 
-5.6049 3.10781 2.75012 
-5.70606 3.1111 2.76954 
-5.84159 3.14335 2.56722 
-5.94291 3.14374 2.61047 
-6.07608 3.16332 2.51088 
-6.16759 3.14172 2.72998 
-6.3129 3.19487 2.36072 
-6.41272 3.19462 2.40856 
-6.54312 3.20667 2.36956 
-6.64348 3.20612 2.42008 
-6.77799 3.23123 2.27584 
-6.87542 3.22131 2.40187 
-7.01554 3.25627 2.17943 
-7.10394 3.23026 2.43324 
-7.26299 3.30613 1.88403 
-7.3551 3.286 2.09138 
-7.48418 3.29604 2.06828 
-7.58571 3.29939 2.08736 
4.65541 4.11381 -9.84988 
4.3695 4.05713 -9.2564 
4.12096 4.09433 -9.44747 
3.94446 3.94608 -8.15509 
3.66383 3.8654 -7.36773 
3.03113 3.80318 -6.571 
2.74797 3.68576 -5.48204 
2.60926 3.65227 -5.14503 
2.50755 3.69939 -5.48405 
2.25174 3.66142 -5.05706 
1.57448 3.27001 -1.54811 
1.32503 3.18934 -0.77477 
1.08678 3.18983 -0.67021 
0.986961 3.23519 -0.995573 
0.846837 3.15464 -0.273054 
0.747808 3.22691 -0.818802 
0.611911 3.13814 -0.0310037 
0.513151 3.16085 -0.171625 
0.144094 3.12465 0.29268 
0.0392436 3.16172 0.0373976 
-0.0827214 3.07222 0.824907 
-0.782795 2.90104 2.54417 
-1.01177 3.05213 1.41313 
-1.23373 2.89469 2.80193 
-1.46361 2.86981 3.11035 
-1.56222 2.83617 3.43048 
-1.69081 2.85238 3.35664 
-1.79331 2.88359 3.14824 
-1.9199 2.87342 3.28921 
-2.02781 2.93285 2.85255 
-2.13913 2.82642 3.77379 
-2.24678 2.88505 3.34343 
-2.36168 2.80239 4.07195 
-2.46472 2.83801 3.8277 
-2.58809 2.81899 4.03967 
-2.69398 2.84947 3.83874 
-2.81377 2.8237 4.10429 
-2.93019 2.91066 3.4463 
-3.03375 2.81448 4.28023 
-3.14325 2.86021 3.95627 
-3.25661 2.82068 4.33137 
-3.37317 2.86894 3.98995 
-3.48403 2.8392 4.28386 
-3.59627 2.8821 3.98433 
-3.7165 2.87512 4.0964 
-3.82322 2.89308 3.99828 
-3.95265 2.91482 3.87963 
-4.05031 2.90848 3.97616 
-4.2689 2.90478 4.10643 
-4.40747 2.93779 3.89982 
-4.50899 2.94936 3.85158 
-4.64014 2.96228 3.8059 
-4.74145 2.97165 3.77561 
-4.88046 3.01111 3.51651 
-4.96451 2.97011 3.8903 
-5.19857 3.00209 3.73578 
-5.35979 3.09537 3.04662 
-5.45502 3.09112 3.12493 
-5.60347 3.15008 2.71062 
-5.70352 3.14981 2.75865 
-5.83817 3.17442 2.61902 
-5.92727 3.1511 2.85046 
-6.07022 3.1901 2.59696 
-6.16835 3.17843 2.73735 
-6.30789 3.22537 2.41726 
-6.40467 3.2171 2.52917 
-6.53919 3.23468 2.44701 
-6.64354 3.24734 2.3912 
-6.76683 3.24922 2.43227 
-6.87125 3.2531 2.44839 
-7.00934 3.28628 2.24021 
-7.10914 3.28325 2.31069 
-7.24453 3.30804 2.16992 
-7.3504 3.31883 2.13012 
-7.47205 3.30977 2.25994 
-7.58152 3.32966 2.1474 
4.73151 4.04828 -9.0165 
3.84033 4.00781 -8.2816 
3.54976 3.89811 -7.25499 
3.11641 3.7318 -5.70167 
3.06834 3.98218 -7.72178 
2.79043 3.87108 -6.6894 
2.60832 3.68015 -5.04954 
1.56683 3.23727 -0.963855 
1.33658 3.29131 -1.29985 
1.23498 3.35335 -1.75957 
1.09078 3.25134 -0.861944 
0.988178 3.25578 -0.851483 
0.851643 3.19449 -0.289413 
0.749074 3.23338 -0.559956 
0.613983 3.17765 -0.0438908 
0.511658 3.19444 -0.13426 
0.383415 3.20769 -0.183926 
0.276634 3.24734 -0.458679 
0.146632 3.17874 0.160014 
0.0392222 3.24135 -0.301676 
-0.0831957 3.08364 1.04041 
-0.193332 3.25594 -0.314751 
-0.781745 2.92111 2.68434 
-1.00775 3.05659 1.68225 
-1.23559 2.9658 2.52667 
-1.46122 2.89207 3.23096 
-1.69063 2.90258 3.24982 
-1.79406 2.93362 3.04374 
-1.91603 2.88581 3.4894 
-2.02134 2.95621 2.96317 
-2.13596 2.85799 3.81665 
-2.24477 2.9168 3.38652 
-2.3548 2.81631 4.25646 
-2.45626 2.83361 4.16161 
-2.58729 2.85766 4.02519 
-2.70055 2.92544 3.52403 
-2.81439 2.87077 4.02184 
-2.92565 2.92633 3.61943 
-3.03868 2.88295 4.02485 
-3.14366 2.90486 3.89408 
-3.25948 2.87713 4.17315 
-3.36567 2.8969 4.06033 
-3.48428 2.88366 4.22248 
-3.59551 2.92261 3.95554 
-3.72276 2.93134 3.94239 
-3.82842 2.956 3.78945 
-3.95391 2.9516 3.88263 
-4.04934 2.94579 3.97363 
-4.17458 2.94975 3.99845 
-4.27444 2.95798 3.97697 
-4.40819 2.97919 3.86499 
-4.50352 2.97414 3.94973 
-4.63446 2.98881 3.88989 
-4.74111 3.01187 3.75043 
-4.86793 3.02244 3.72211 
-4.96373 3.01215 3.84981 
-5.19717 3.03964 3.7322 
-5.46997 3.16471 2.83655 
-5.59848 3.17957 2.77406 
-5.69785 3.18115 2.80654 
-5.84415 3.2339 2.44309 
-5.93616 3.21268 2.65818 
-6.06623 3.22338 2.63035 
-6.16432 3.2119 2.76885 
-6.29419 3.23035 2.6777 
-6.40166 3.24576 2.60112 
-6.53841 3.27466 2.42781 
-6.64421 3.29213 2.33368 
-6.782 3.32467 2.13116 
-6.86866 3.29185 2.43853 
-7.00933 3.32935 2.19697 
-7.10845 3.3223 2.29974 
-7.25232 3.3669 2.00167 
-7.35253 3.36592 2.0555 
-7.47105 3.35138 2.22833 
-7.58415 3.37762 2.06594 
4.63959 4.15933 -9.54749 
4.40401 4.1971 -9.74783 
4.13749 4.1908 -9.57572 
3.70483 4.06423 -8.34989 
3.3867 3.84405 -6.41455 
2.50565 3.75281 -5.27247 
2.3618 3.71306 -4.88382 
1.71439 3.36778 -1.7811 
1.58037 3.35585 -1.62322 
1.33923 3.33148 -1.31534 
1.23109 3.35828 -1.48424 
1.08671 3.26908 -0.692997 
0.85185 3.25201 -0.447353 
0.755532 3.3518 -1.21542 
0.619291 3.20656 0.0280331 
0.513697 3.21973 -0.0310779 
0.385295 3.20016 0.186486 
0.278653 3.24213 -0.106398 
0.150582 3.22401 0.0992328 
0.0437062 3.25209 -0.0805891 
-0.189372 3.28258 -0.222631 
-0.318779 3.21768 0.364171 
-1.23813 3.0389 2.23698 
-1.5591 2.89834 3.5266 
-1.68458 2.92251 3.3871 
-1.79769 2.99225 2.87122 
-1.91435 2.92562 3.46642 
-2.02943 3.05366 2.47715 
-2.13312 2.89235 3.83675 
-2.2466 2.97516 3.21467 
-2.35905 2.8817 4.02631 
-2.46411 2.92752 3.70132 
-2.58746 2.90616 3.93136 
-2.69437 2.94623 3.65399 
-2.81377 2.92152 3.90949 
-2.92491 2.97116 3.55621 
-3.02769 2.87763 4.36402 
-3.14626 2.96015 3.7466 
-3.26298 2.93034 4.04238 
-3.36689 2.94417 3.97722 
-3.48703 2.93699 4.09034 
-3.60254 2.98217 3.77545 
-3.71542 2.95369 4.05863 
-3.82903 2.99971 3.73594 
-3.94504 2.97504 3.98957 
-4.04432 2.97106 4.06716 
-4.2756 3.00173 3.92311 
-4.40142 3.00225 3.97619 
-4.49741 2.99625 4.06884 
-4.63324 3.02744 3.87699 
-4.72994 3.02641 3.92947 
-4.86385 3.04742 3.81953 
-4.965 3.05602 3.79572 
-5.19664 3.07948 3.71046 
-5.35999 3.18507 2.92583 
-5.45447 3.16975 3.09353 
-5.60623 3.23534 2.62904 
-5.69854 3.22143 2.78434 
-5.83152 3.23679 2.72003 
-5.93344 3.24469 2.70227 
-6.15388 3.23848 2.85336 
-6.29683 3.27867 2.59163 
-6.39906 3.27909 2.63479 
-6.54556 3.33584 2.2399 
-6.63992 3.32177 2.39743 
-6.76574 3.32712 2.41138 
-6.86482 3.32625 2.46365 
-7.0099 3.36931 2.17949 
-7.10246 3.35067 2.3734 
-7.24318 3.38509 2.15757 
-7.35009 3.40055 2.08054 
-7.47206 3.39166 2.20859 
-7.57817 3.41013 2.10676 
4.72486 4.09351 -8.72087 
4.37683 4.17407 -9.21688 
4.11643 4.1732 -9.09191 
3.68722 4.02912 -7.72847 
3.55806 3.99388 -7.38407 
3.0474 3.95445 -6.83276 
2.78477 3.90628 -6.32293 
1.81481 3.34009 -1.28925 
1.586 3.41235 -1.77185 
1.33993 3.35764 -1.21624 
1.09622 3.34057 -0.967174 
0.985491 3.2659 -0.311061 
0.855732 3.30277 -0.551351 
0.754033 3.36343 -0.997419 
0.617928 3.23984 0.0671983 
0.515848 3.3302 -0.619598 
0.385158 3.26584 -0.038051 
0.280429 3.26979 -0.0225535 
0.148432 3.32061 -0.375003 
0.0475373 3.26137 0.151508 
-0.187078 3.32335 -0.244904 
-0.314762 3.2556 0.36285 
-1.00533 3.1319 1.68031 
-1.68487 2.96589 3.33631 
-1.90969 2.94434 3.61338 
-2.02871 3.09972 2.40662 
-2.13656 2.9663 3.53833 
-2.24698 3.02165 3.13937 
-2.36073 2.93613 3.88509 
-2.46099 2.94889 3.82717 
-2.58146 2.92572 4.07003 
-2.68568 2.9512 3.91062 
-2.80954 2.94826 3.99082 
-2.92819 3.03554 3.33647 
-3.04289 2.98994 3.75875 
-3.1403 2.97638 3.91311 
-3.26076 2.96037 4.09781 
-3.3673 2.99048 3.90197 
-3.48896 2.98735 3.98275 
-3.59796 3.0106 3.84363 
-3.71526 2.99253 4.04369 
-3.82625 3.03384 3.75894 
-3.94178 3.00462 4.04861 
-4.0459 3.01779 3.98914 
-4.27134 3.03196 3.97674 
-4.40263 3.05004 3.88983 
-4.50325 3.05403 3.9032 
-4.64538 3.09975 3.59691 
-4.72863 3.06056 3.95287 
-4.86381 3.09283 3.75245 
-4.9618 3.08892 3.82885 
-5.19511 3.11783 3.70044 
-5.35486 3.21373 2.99487 
-5.452 3.20635 3.09899 
-5.60248 3.26759 2.67056 
-5.70589 3.27869 2.62751 
-5.83202 3.28242 2.65469 
-5.92173 3.25742 2.89854 
-6.05496 3.28015 2.77472 
-6.15248 3.27588 2.85384 
-6.30364 3.33708 2.42594 
-6.39924 3.32958 2.53036 
-6.52382 3.32523 2.62247 
-6.63234 3.34777 2.48899 
-6.77555 3.38824 2.22579 
-6.86809 3.37266 2.39437 
-7.00451 3.39952 2.23852 
-7.09548 3.3765 2.46689 
-7.24482 3.43173 2.08663 
-7.35286 3.44944 1.99219 
-7.47127 3.434 2.17147 
-7.57824 3.44872 2.10079 
3.86074 4.20415 -8.89727 
3.66986 4.00979 -7.23804 
3.57621 4.08237 -7.78304 
2.61321 3.79818 -5.04749 
2.52388 3.90067 -5.83648 
1.98094 3.54435 -2.70697 
1.84062 3.52949 -2.52318 
1.75052 3.63569 -3.34191 
1.59878 3.50258 -2.19585 
1.33636 3.35118 -0.851671 
1.09664 3.36001 -0.814557 
0.992945 3.37586 -0.895895 
0.857704 3.34148 -0.556355 
0.756575 3.37668 -0.795379 
0.618749 3.30122 -0.12224 
0.517638 3.27235 0.157257 
0.282186 3.32626 -0.172338 
0.152289 3.30232 0.0803681 
0.0468636 3.32979 -0.0941591 
-0.184654 3.34489 -0.111451 
-0.314363 3.27526 0.510945 
-0.420674 3.39353 -0.398105 
-0.543277 3.23168 0.967504 
-0.89175 3.36072 0.0811112 
-1.2342 3.06479 2.63172 
-1.45562 3.01592 3.12778 
-1.68536 3.02341 3.17145 
-1.78643 3.04509 3.04185 
-1.91849 3.07441 2.86442 
-2.13478 2.98285 3.70374 
-2.24782 3.08589 2.92106 
-2.35636 2.96221 3.9714 
-2.46434 3.01236 3.61452 
-2.58603 2.98172 3.91784 
-2.6915 3.01803 3.67181 
-2.81181 2.9955 3.90877 
-2.92826 3.08236 3.25861 
-3.03626 3.00459 3.93714 
-3.1449 3.03505 3.73999 
-3.25534 2.99077 4.14858 
-3.36701 3.03054 3.87738 
-3.48229 3.00288 4.15361 
-3.60433 3.0774 3.6059 
-3.71535 3.03525 3.99753 
-3.81967 3.05548 3.88116 
-3.93898 3.03533 4.09853 
-4.04702 3.06422 3.91373 
-4.27221 3.07228 3.95086 
-4.40477 3.09482 3.8286 
-4.50157 3.08941 3.91642 
-4.63217 3.10652 3.83726 
-4.72915 3.1065 3.88151 
-4.86838 3.14447 3.63748 
-4.96566 3.13883 3.72739 
-5.19348 3.15174 3.72642 
-5.36453 3.27759 2.78541 
-5.44415 3.22829 3.2207 
-5.59359 3.29005 2.78873 
-5.70191 3.30964 2.67938 
-5.82549 3.31903 2.6596 
-5.92597 3.31107 2.76974 
-6.05318 3.32307 2.7304 
-6.15243 3.31594 2.83329 
-6.29692 3.36005 2.54196 
-6.40308 3.37775 2.44697 
-6.53153 3.38651 2.4345 
-6.62841 3.38017 2.52985 
-6.76484 3.40759 2.36997 
-6.8509 3.37327 2.68703 
-6.99881 3.42834 2.3085 
-7.09881 3.43005 2.34014 
-7.23555 3.45371 2.21078 
-7.34103 3.46216 2.19043 
-7.46185 3.45707 2.2866 
-7.58347 3.5023 1.97579 
4.74614 4.25505 -9.3796 
4.37107 4.22694 -8.98339 
4.20962 4.1493 -8.28379 
4.14812 4.32251 -9.65417 
3.59814 4.20776 -8.4796 
3.31928 4.10779 -7.54667 
3.03843 3.9881 -6.45367 
2.80137 4.04696 -6.82167 
2.62736 3.88481 -5.4341 
2.34891 3.67526 -3.61673 
1.82705 3.48419 -1.83841 
1.58791 3.4612 -1.54468 
1.34183 3.42219 -1.11847 
1.09935 3.38386 -0.699355 
0.997239 3.42563 -0.990369 
0.856183 3.35721 -0.374206 
0.760687 3.46087 -1.16783 
0.621041 3.32821 -0.0337103 
0.518235 3.3803 -0.40769 
0.283631 3.36427 -0.172075 
0.155128 3.33784 0.0994516 
0.0479954 3.35546 0.00571102 
-0.181885 3.38615 -0.137968 
-0.310809 3.30125 0.605786 
-0.651945 3.38095 0.116802 
-0.769942 3.23321 1.36303 
-1.5639 3.15266 2.373 
-1.68356 3.07015 3.09336 
-1.90644 3.01742 3.62015 
-2.02278 3.13972 2.68542 
-2.13701 3.04876 3.47165 
-2.35535 3.00632 3.91327 
-2.46155 3.04404 3.6569 
-2.588 3.04325 3.72057 
-2.69938 3.10437 3.27764 
-2.81352 3.05212 3.75124 
-2.92594 3.10943 3.33952 
-3.03443 3.04109 3.9405 
-3.14806 3.10239 3.49705 
-3.25375 3.03263 4.10825 
-3.36319 3.05504 3.97694 
-3.48546 3.05991 3.99309 
-3.59378 3.08225 3.86189 
-3.71349 3.07389 3.98371 
-3.82533 3.11705 3.68594 
-3.93804 3.07497 4.07688 
-4.0442 3.10364 3.89356 
-4.27534 3.12355 3.8377 
-4.4023 3.13253 3.8228 
-4.49396 3.11931 3.97117 
-4.62771 3.14237 3.84566 
-4.73109 3.15371 3.80098 
-4.86218 3.16762 3.74822 
-4.96393 3.17557 3.73024 
-5.18874 3.18398 3.76437 
-5.34962 3.27845 3.07458 
-5.45004 3.28344 3.07987 
-5.58362 3.31028 2.92386 
-5.68743 3.31907 2.9 
-5.82515 3.35156 2.70021 
-5.91531 3.32651 2.94338 
-6.05585 3.36872 2.66636 
-6.14958 3.35201 2.84392 
-6.29701 3.40266 2.5019 
-6.39591 3.4016 2.55538 
-6.52019 3.40072 2.61895 
-6.63496 3.43375 2.40433 
-6.76255 3.44253 2.39137 
-6.84996 3.4115 2.68171 
-6.99635 3.46217 2.339 
-7.09403 3.45697 2.42539 
-7.23161 3.48698 2.24561 
-7.33322 3.48684 2.29296 
-7.45866 3.4914 2.31313 
-7.58017 3.53848 1.98811 
4.74757 4.29618 -9.38317 
4.67652 4.37188 -9.96062 
4.2262 4.23556 -8.66007 
4.12443 4.30739 -9.19257 
3.68374 4.12987 -7.56454 
2.78888 4.02651 -6.32869 
2.5166 3.93146 -5.44058 
2.36924 3.86042 -4.80205 
1.83825 3.56321 -2.16928 
1.59415 3.52034 -1.71385 
1.24561 3.52963 -1.63127 
1.10346 3.42274 -0.70637 
0.996524 3.4457 -0.8429 
0.858492 3.41078 -0.499361 
0.760724 3.44425 -0.724765 
0.624264 3.35166 0.0825129 
0.523019 3.45475 -0.701868 
0.286412 3.3277 0.428111 
0.159286 3.37839 0.0773905 
0.0515141 3.37996 0.113434 
-0.182511 3.42635 -0.154353 
-0.307356 3.32487 0.719276 
-0.418681 3.44826 -0.224012 
-0.648008 3.40459 0.23132 
-0.771979 3.29747 1.15005 
-0.884563 3.40746 0.315201 
-1.45743 3.11597 2.92164 
-1.68229 3.10732 3.09311 
-1.91652 3.14217 2.91843 
-2.13682 3.08074 3.51281 
-2.24954 3.18757 2.70355 
-2.35189 3.03077 4.01262 
-2.46164 3.09772 3.52317 
-2.57761 3.03459 4.0841 
-2.69696 3.14059 3.2844 
-2.80835 3.06425 3.94972 
-2.92462 3.14762 3.33087 
-3.03028 3.06838 4.01693 
-3.14456 3.12079 3.64658 
-3.25547 3.07832 4.03884 
-3.36844 3.10962 3.83793 
-3.47722 3.07923 4.13198 
-3.59553 3.12829 3.79041 
-3.70997 3.10738 4.01065 
-3.82647 3.16417 3.60611 
-3.94218 3.13022 3.9319 
-4.0414 3.13591 3.93107 
-4.26611 3.1371 4.02334 
-4.39653 3.15678 3.92389 
-4.49477 3.15463 3.98575 
-4.63488 3.19911 3.69103 
-4.73017 3.19246 3.78779 
-4.86003 3.20142 3.77445 
-4.96091 3.20686 3.77635 
-5.19525 3.2415 3.60362 
-5.35542 3.33485 2.92437 
-5.44649 3.31578 3.11923 
-5.59548 3.3812 2.65985 
-5.69132 3.36497 2.83407 
-5.82705 3.39683 2.63902 
-5.91285 3.36448 2.93843 
-6.05515 3.40316 2.69148 
-6.14957 3.39548 2.79615 
-6.29706 3.4482 2.43836 
-6.38707 3.41835 2.71965 
-6.52801 3.46025 2.44611 
-6.62525 3.45195 2.55706 
-6.76098 3.47504 2.43263 
-6.85113 3.4561 2.62607 
-6.99636 3.50761 2.27707 
-7.09982 3.5112 2.29511 
-7.23806 3.54545 2.08196 
-7.33531 3.53385 2.2195 
-7.5828 3.58485 1.92107 
4.66438 4.38116 -9.70076 
4.23861 4.31335 -8.96451 
4.12976 4.34519 -9.17129 
3.8667 4.3266 -8.90356 
3.0482 4.09976 -6.71322 
2.78662 4.04863 -6.18473 
2.3758 3.92544 -5.01024 
1.83174 3.55929 -1.82431 
1.59936 3.58539 -1.92921 
1.34298 3.52011 -1.28925 
1.24383 3.5398 -1.40273 
1.10328 3.45035 -0.620903 
1.00211 3.51608 -1.1032 
0.858842 3.41637 -0.237671 
0.762995 3.51128 -0.956791 
0.628092 3.38005 0.158148 
0.517536 3.44343 -0.301081 
0.286411 3.39819 0.166554 
0.161368 3.41206 0.111584 
0.0525818 3.46267 -0.245807 
-0.186037 3.45999 -0.116548 
-0.307714 3.35588 0.774588 
-0.415682 3.46495 -0.052766 
-0.645018 3.42399 0.379789 
-0.771733 3.36247 0.931185 
-0.878366 3.41067 0.59212 
-1.12111 3.49175 0.0504505 
-1.67872 3.13154 3.19581 
-1.91424 3.18495 2.87315 
-2.1381 3.14842 3.26779 
-2.24776 3.23264 2.6408 
-2.45851 3.12658 3.58802 
-2.58275 3.09889 3.86663 
-2.6969 3.19817 3.1207 
-2.81019 3.11617 3.83062 
-2.92656 3.20327 3.1836 
-3.02844 3.10335 4.03236 
-3.14226 3.15768 3.64735 
-3.25322 3.11203 4.06423 
-3.36147 3.13849 3.90062 
-3.48545 3.14514 3.90327 
-3.58969 3.15182 3.89676 
-3.71101 3.15056 3.9618 
-3.82608 3.20636 3.5656 
-3.9357 3.1514 4.05669 
-4.03997 3.17793 3.89068 
-4.2647 3.17416 4.02267 
-4.39772 3.20104 3.86696 
-4.49345 3.19463 3.96171 
-4.62944 3.23253 3.71882 
-4.72976 3.2329 3.76127 
-4.8646 3.26017 3.60319 
-4.96406 3.25727 3.67148 
-5.18854 3.27011 3.66992 
-5.35196 3.37581 2.89477 
-5.44436 3.35049 3.14 
-5.58124 3.38142 2.9535 
-5.68539 3.39417 2.89817 
-5.81826 3.4137 2.80146 
-5.91239 3.40042 2.95078 
-6.14555 3.4244 2.86369 
-6.284 3.45527 2.67836 
-6.39023 3.4695 2.61215 
-6.52694 3.49977 2.43091 
-6.63136 3.50558 2.43154 
-6.75956 3.51454 2.41756 
-6.85542 3.50273 2.55587 
-6.99266 3.53651 2.34671 
-7.09507 3.54294 2.34138 
-7.23071 3.5673 2.20712 
-7.34372 3.59602 2.0276 
-7.45167 3.55755 2.38562 
-7.58921 3.64106 1.77696 
4.76138 4.38316 -9.43291 
4.1186 4.34406 -8.83076 
3.87352 4.41172 -9.26268 
3.42026 4.15959 -7.03912 
2.61705 3.90188 -4.61332 
2.27521 4.01785 -5.3886 
1.84632 3.68336 -2.51593 
1.74299 3.65508 -2.24284 
1.35152 3.58732 -1.5238 
1.1029 3.5011 -0.721085 
1.01136 3.62013 -1.63343 
0.866238 3.49445 -0.561236 
0.760051 3.50897 -0.629696 
0.626864 3.43829 -0.00346666 
0.52173 3.45202 -0.0661176 
0.287353 3.47889 -0.175799 
0.160613 3.44387 0.16189 
0.0557971 3.46752 0.0196344 
-0.182117 3.47485 0.0681307 
-0.305078 3.37458 0.926923 
-0.41215 3.49639 -0.000727334 
-0.769954 3.38625 1.04295 
-0.876559 3.46371 0.470438 
-1.22344 3.19872 2.74999 
-1.68246 3.21885 2.79574 
-1.91124 3.21392 2.93846 
-2.13321 3.16827 3.40445 
-2.24124 3.24258 2.85774 
-2.35424 3.13633 3.76006 
-2.4615 3.19521 3.33669 
-2.58473 3.16363 3.64539 
-2.69456 3.22891 3.1719 
-2.80572 3.14528 3.8922 
-2.92407 3.24329 3.16031 
-3.0345 3.17508 3.75665 
-3.1388 3.18837 3.69726 
-3.25481 3.16236 3.95806 
-3.36257 3.19483 3.74658 
-3.47845 3.16244 4.05843 
-3.59186 3.20144 3.79711 
-3.70658 3.1792 4.02719 
-3.82005 3.22709 3.69466 
-3.93619 3.19602 3.99606 
-4.04414 3.22581 3.80615 
-4.26376 3.22307 3.92733 
-4.39357 3.2278 3.94809 
-4.50014 3.25773 3.75639 
-4.62724 3.26454 3.75926 
-4.72562 3.26302 3.81587 
-4.84835 3.25839 3.90848 
-4.95524 3.27678 3.80937 
-5.19771 3.33193 3.47699 
-5.35177 3.41836 2.85405 
-5.43506 3.36934 3.28451 
-5.58646 3.43762 2.8058 
-5.67763 3.41782 3.0057 
-5.81614 3.44951 2.81432 
-5.90314 3.42075 3.08414 
-6.03695 3.44373 2.96052 
-6.14596 3.46324 2.85346 
-6.29031 3.51203 2.52776 
-6.38681 3.5099 2.58842 
-6.52199 3.52538 2.52553 
-6.62303 3.53277 2.51198 
-6.76154 3.5638 2.32597 
-6.86235 3.56107 2.39345 
-6.98598 3.56169 2.44434 
-7.09425 3.58221 2.32892 
-7.23067 3.6083 2.18156 
-7.34056 3.62725 2.07935 
-7.4484 3.59257 2.40615 
-7.5813 3.66813 1.86067 
4.6354 4.38557 -9.06967 
4.24284 4.42332 -9.19512 
4.123 4.38124 -8.80513 
3.97077 4.34432 -8.44177 
3.86052 4.33736 -8.33669 
2.79557 4.15636 -6.41224 
2.61341 3.92529 -4.48399 
1.75682 3.78365 -2.96729 
1.59432 3.59939 -1.42176 
1.34315 3.54264 -0.855336 
1.25256 3.65346 -1.70021 
1.11038 3.57325 -0.995297 
1.00218 3.559 -0.832763 
0.864515 3.51603 -0.427502 
0.770451 3.61963 -1.21311 
0.629763 3.48183 -0.0485831 
0.52495 3.49032 -0.0693372 
0.293019 3.48619 0.0680113 
0.159987 3.51513 -0.103406 
0.0569983 3.54971 -0.333405 
-0.07499 3.52603 -0.0847517 
-0.180721 3.52731 -0.0474361 
-0.412487 3.52659 0.0626399 
-0.878863 3.54581 0.118938 
-1.1126 3.54075 0.264657 
-1.90419 3.2038 3.31408 
-2.01379 3.31859 2.44604 
-2.13194 3.20591 3.39985 
-2.35371 3.16794 3.80328 
-2.57825 3.1788 3.81762 
-2.68297 3.21108 3.60683 
-2.80438 3.18566 3.86477 
-2.9329 3.33205 2.75268 
-3.03093 3.20263 3.83123 
-3.13982 3.24827 3.51556 
-3.25384 3.20227 3.93461 
-3.36583 3.24242 3.66422 
-3.48987 3.24425 3.7055 
-3.59763 3.27402 3.51616 
-3.70675 3.22314 3.97202 
-3.82598 3.2905 3.48743 
-3.93355 3.22768 4.03799 
-4.04341 3.26882 3.75875 
-4.2623 3.26442 3.8927 
-4.39675 3.2858 3.7824 
-4.49625 3.28502 3.83354 
-4.62208 3.28998 3.85066 
-4.72346 3.29821 3.83062 
-4.85518 3.31453 3.75965 
-4.95949 3.33055 3.67862 
-5.18367 3.33315 3.75902 
-5.43513 3.41377 3.22807 
-5.58157 3.46189 2.90952 
-5.67737 3.45855 2.97947 
-5.80925 3.48359 2.83889 
-5.89932 3.45524 3.10613 
-6.13739 3.48557 2.97118 
-6.28284 3.53379 2.65141 
-6.3882 3.55083 2.56276 
-6.52159 3.56982 2.47122 
-6.62564 3.57904 2.4445 
-6.74973 3.57721 2.51518 
-6.86005 3.59797 2.39899 
-6.98001 3.59311 2.49205 
-7.08035 3.59131 2.55173 
-7.22767 3.64243 2.20964 
-7.33537 3.65847 2.13011 
-7.43586 3.60477 2.60478 
-7.58271 3.71022 1.82813 
5.02886 4.47612 -9.64339 
4.74425 4.40496 -8.94866 
4.38805 4.44909 -9.14078 
4.2415 4.44642 -9.05388 
3.97015 4.36455 -8.27973 
3.86508 4.44172 -8.84771 
3.32146 4.27882 -7.30566 
3.15655 4.16892 -6.3557 
2.78729 4.15049 -6.0433 
2.52894 4.1 -5.52493 
2.36758 3.98417 -4.52934 
2.28143 4.12771 -5.63484 
1.83958 3.69183 -1.96223 
1.49567 3.7152 -1.99412 
1.35065 3.63166 -1.26314 
1.25119 3.66621 -1.49389 
1.10801 3.58891 -0.813453 
1.00718 3.62029 -1.01828 
0.868277 3.56674 -0.529086 
0.770275 3.62672 -0.963224 
0.63246 3.52104 -0.0589012 
0.529182 3.59083 -0.568855 
0.29451 3.54557 -0.102625 
0.163349 3.52304 0.135907 
0.0616687 3.55116 -0.0425852 
-0.175328 3.55458 0.036632 
-0.300717 3.45447 0.890987 
-0.412669 3.55458 0.143308 
-0.879197 3.58966 0.0733106 
-1.11604 3.60966 0.0203512 
-1.22048 3.29861 2.54697 
-1.35729 3.66126 -0.28256 
-1.44264 3.20442 3.39773 
-1.67926 3.28716 2.84452 
-1.9061 3.27267 3.06208 
-2.13542 3.2986 2.95858 
-2.46439 3.30216 3.07816 
-2.58648 3.26607 3.42087 
-2.80877 3.24369 3.69934 
-2.92575 3.33704 3.00778 
-3.02706 3.23166 3.89348 
-3.14797 3.32013 3.24258 
-3.24919 3.23225 3.98878 
-3.36827 3.29188 3.56698 
-3.47951 3.26029 3.86892 
-3.5914 3.29307 3.65799 
-3.70481 3.26256 3.95224 
-3.82689 3.33485 3.4309 
-3.92742 3.25389 4.12162 
-4.04206 3.29986 3.80677 
-4.26376 3.29894 3.91399 
-4.39214 3.31146 3.87196 
-4.4881 3.30522 3.96493 
-4.62341 3.3324 3.8092 
-4.7308 3.35884 3.6468 
-4.86086 3.37164 3.60331 
-4.96243 3.38258 3.56182 
-5.19346 3.40147 3.51537 
-5.43178 3.44332 3.28906 
-5.57419 3.49031 2.97855 
-5.68082 3.50429 2.91517 
-5.81021 3.51936 2.85329 
-5.8997 3.49943 3.05259 
-6.13346 3.52112 2.98502 
-6.28077 3.57073 2.65585 
-6.37957 3.56799 2.72224 
-6.52552 3.62293 2.35001 
-6.62849 3.6251 2.3791 
-6.7471 3.61468 2.51571 
-6.85061 3.61611 2.55094 
-7.07816 3.62285 2.59984 
-7.22943 3.68809 2.14788 
-7.33659 3.70234 2.0826 
-7.57793 3.74145 1.87957 
3.98299 4.44812 -8.62805 
3.0657 4.28447 -6.91638 
2.80175 4.24692 -6.49966 
2.62323 4.04471 -4.81199 
1.76639 3.88759 -3.1789 
1.5894 3.6292 -1.04519 
1.50087 3.77162 -2.13788 
1.35132 3.65955 -1.17974 
1.10829 3.60372 -0.626889 
1.01447 3.70596 -1.39778 
0.871847 3.59738 -0.470504 
0.767938 3.61987 -0.602702 
0.633253 3.56926 -0.139871 
0.531726 3.58691 -0.234715 
0.297833 3.53119 0.313253 
0.16565 3.5815 -0.0274802 
0.0625271 3.56449 0.154012 
-0.0698977 3.59185 -0.00415773 
-0.171759 3.58531 0.0935488 
-0.300115 3.49682 0.854819 
-0.411774 3.61985 -0.0734099 
-0.87501 3.61217 0.195586 
-1.10803 3.62882 0.167742 
-1.3552 3.6927 -0.229219 
-2.13007 3.31306 3.13769 
-2.5764 3.26203 3.74401 
-2.8061 3.27958 3.70762 
-2.9249 3.37882 2.97181 
-3.02488 3.26629 3.91171 
-3.14159 3.33231 3.43907 
-3.24825 3.26965 3.98533 
-3.35717 3.30466 3.75592 
-3.47353 3.2815 3.99236 
-3.58256 3.30924 3.82081 
-3.70543 3.30663 3.89678 
-3.81433 3.33198 3.74419 
-3.93513 3.3172 3.91601 
-4.03639 3.3301 3.85897 
-4.26609 3.34319 3.85817 
-4.38754 3.34164 3.92514 
-4.4885 3.34986 3.9052 
-4.61695 3.35891 3.89096 
-4.72886 3.39285 3.6714 
-4.8495 3.3829 3.80483 
-4.95538 3.40286 3.69366 
-5.18569 3.42606 3.61283 
-5.35146 3.53885 2.79036 
-5.44227 3.50619 3.09096 
-5.5764 3.53852 2.89419 
-5.67409 3.53424 2.97224 
-5.80314 3.54256 2.9641 
-5.8988 3.53616 3.05805 
-6.12993 3.55412 3.01927 
-6.27823 3.60806 2.65703 
-6.37947 3.61599 2.6395 
-6.52136 3.6521 2.41618 
-6.61987 3.643 2.53295 
-6.75302 3.6705 2.37416 
-6.85162 3.66371 2.47256 
-6.98768 3.69027 2.32258 
-7.07842 3.66868 2.53516 
-7.225 3.71805 2.20846 
-7.33199 3.73333 2.13512 
-7.56959 3.76422 1.99647 
4.2205 4.42133 -8.19983 
3.98377 4.48165 -8.5724 
3.69713 4.37824 -7.62422 
3.59437 4.41192 -7.8454 
3.33246 4.37809 -7.46007 
1.61598 3.83464 -2.38242 
1.35786 3.73616 -1.48582 
1.10993 3.65104 -0.699756 
1.00857 3.67154 -0.816968 
0.876777 3.64568 -0.552847 
0.773902 3.67531 -0.741803 
0.634753 3.60428 -0.116102 
0.529046 3.61695 -0.1693 
0.294516 3.61283 -0.031585 
0.168418 3.61294 0.0240503 
0.063402 3.62772 -0.046167 
-0.0645494 3.62732 0.0143225 
-0.169119 3.61887 0.128192 
-0.299389 3.51361 1.02149 
-0.406716 3.64023 0.0652749 
-0.771406 3.65002 0.151006 
-0.876345 3.66982 0.0409793 
-1.10774 3.66781 0.16059 
-1.3456 3.67393 0.218693 
-1.68203 3.41312 2.43827 
-1.90442 3.34778 3.05637 
-2.1368 3.39609 2.77736 
-2.57974 3.33094 3.49288 
-2.81645 3.38942 3.13516 
-2.92486 3.43094 2.85446 
-3.02668 3.31605 3.81157 
-3.14018 3.3792 3.36155 
-3.24322 3.29394 4.08412 
-3.35435 3.33003 3.84774 
-3.48077 3.34162 3.8125 
-3.58837 3.36084 3.70836 
-3.7057 3.35196 3.8315 
-3.8146 3.38088 3.65093 
-3.93125 3.35132 3.93781 
-4.03975 3.3883 3.69322 
-4.26094 3.37274 3.91597 
-4.38626 3.37715 3.93725 
-4.48934 3.39328 3.85559 
-4.61571 3.39789 3.87575 
-4.71888 3.40819 3.84043 
-4.85359 3.43823 3.66262 
-4.95472 3.44252 3.67398 
-5.18434 3.46156 3.62611 
-5.33517 3.53275 3.12913 
-5.43025 3.52121 3.26343 
-5.57405 3.57142 2.92969 
-5.66448 3.55274 3.11853 
-5.81129 3.60291 2.78645 
-5.8925 3.55927 3.16914 
-6.12699 3.58509 3.0697 
-6.27644 3.64555 2.65721 
-6.3756 3.6473 2.68796 
-6.51506 3.67972 2.49343 
-6.61282 3.67476 2.57671 
-6.73887 3.67405 2.63906 
-6.84512 3.68616 2.59071 
-6.98038 3.71484 2.42402 
-7.06927 3.6895 2.66503 
-7.21902 3.7432 2.30632 
-7.33207 3.77574 2.09895 
-7.56689 3.80022 2.01037 
4.75346 4.54174 -9.07011 
4.50793 4.57286 -9.20679 
4.22667 4.4712 -8.27708 
3.8627 4.50482 -8.38066 
3.69743 4.42016 -7.63724 
3.58933 4.42893 -7.65835 
3.07498 4.37701 -7.01806 
2.63057 4.13716 -4.92217 
2.54556 4.26376 -5.88576 
1.86288 3.88547 -2.58823 
1.76036 3.91726 -2.79387 
1.50909 3.87174 -2.32149 
1.34795 3.69029 -0.813972 
1.2506 3.72255 -1.02566 
1.11138 3.68526 -0.668473 
1.01419 3.77071 -1.30107 
0.880201 3.6773 -0.502133 
0.778489 3.76123 -1.12068 
0.636836 3.61468 0.102083 
0.534006 3.62341 0.0790173 
0.298726 3.65785 -0.0882864 
0.1704 3.68491 -0.244994 
0.0641559 3.6749 -0.118259 
