ply
format ascii 1.0
element vertex 1819
property float x
property float y
property float z
end_header
5.70247 6.11821 -5.66458 
5.04369 5.98065 -4.42766 
4.90526 5.96263 -4.24392 
4.77504 5.87573 -3.5815 
4.64535 5.91564 -3.80689 
4.53543 5.89062 -3.58605 
4.3906 5.8581 -3.29818 
4.29769 5.92977 -3.76127 
4.1548 5.91306 -3.58484 
4.03664 5.85736 -3.1458 
3.91288 5.91635 -3.50724 
3.80396 5.91611 -3.4603 
3.66089 5.86613 -3.05089 
3.56068 5.91231 -3.33248 
3.41802 5.8786 -3.03717 
3.30883 5.87432 -2.96178 
3.17634 5.89504 -3.05171 
3.06867 5.89565 -3.01116 
2.91184 5.79026 -2.20815 
2.83333 5.94272 -3.24277 
2.69173 5.87752 -2.72748 
2.59364 5.93914 -3.11801 
2.45713 5.94988 -3.13638 
2.34638 5.93427 -2.98099 
2.21319 5.93072 -2.90075 
2.10633 5.97997 -3.20107 
1.97358 5.97136 -3.0855 
1.87144 6.04429 -3.55359 
1.7348 5.99713 -3.16651 
1.62991 6.04512 -3.45886 
1.4962 6.02588 -3.2685 
1.38753 6.04307 -3.34358 
1.25212 6.06474 -3.43888 
1.14454 6.0843 -3.53106 
1.00918 6.13741 -3.84649 
0.901389 6.10766 -3.59334 
0.769118 6.0755 -3.3131 
0.66214 6.16034 -3.86251 
0.523957 6.13928 -3.65749 
0.419256 6.13343 -3.57295 
0.286871 6.13908 -3.55737 
0.171809 6.23034 -4.14836 
0.0395116 6.21011 -3.95157 
-0.0709177 6.22463 -4.0072 
-0.201801 6.2047 -3.81316 
-0.315012 6.31083 -4.50904 
-0.444958 6.21024 -3.75064 
-0.560082 6.28028 -4.19303 
-0.693322 6.30492 -4.31002 
-0.801816 6.33491 -4.47475 
-0.939891 6.30491 -4.20713 
-1.05157 6.34384 -4.43316 
-1.18946 6.3759 -4.60014 
-1.42331 6.3083 -4.02935 
-1.75125 6.12085 -2.58022 
-1.98758 6.10165 -2.34718 
-2.11639 6.02896 -1.78452 
-2.22051 6.03541 -1.78627 
-2.35233 6.05672 -1.8805 
-2.46996 6.11322 -2.227 
-2.58984 6.02126 -1.53311 
-2.69526 6.06114 -1.76832 
-2.82993 6.04977 -1.63249 
-2.9442 6.10077 -1.94188 
-3.07151 6.09838 -1.87207 
-3.17311 6.05374 -1.51712 
-3.3073 6.07892 -1.63738 
-3.42156 6.13776 -2.00168 
-3.65424 6.12782 -1.83493 
-3.8864 6.08384 -1.43003 
-4.13008 6.11852 -1.57114 
-4.36717 6.13649 -1.59792 
-4.49236 6.09996 -1.28986 
-4.61013 6.16341 -1.68498 
-4.83211 6.10092 -1.15466 
5.13514 5.93668 -3.88373 
4.77276 5.89203 -3.42138 
4.64583 5.94396 -3.73134 
4.39536 5.91063 -3.39455 
4.29681 5.96455 -3.73025 
4.13954 5.86799 -2.99047 
4.0568 5.98868 -3.79908 
3.91238 5.94406 -3.42739 
3.8077 5.96432 -3.52545 
3.64512 5.83557 -2.55863 
3.56455 5.95651 -3.36991 
3.4226 5.92388 -3.08299 
3.30576 5.89618 -2.84098 
3.17548 5.91181 -2.896 
3.07383 5.95078 -3.12596 
2.93332 5.91556 -2.82156 
2.83758 5.99581 -3.34233 
2.70193 5.95312 -2.98783 
2.59607 5.9816 -3.14272 
2.3566 5.9879 -3.08722 
2.21813 6.02328 -3.27677 
2.11286 6.05175 -3.43193 
1.974 5.99325 -2.96554 
1.86976 6.05088 -3.32474 
1.73983 6.0541 -3.29328 
1.63224 6.09519 -3.53556 
1.39097 6.11112 -3.54649 
1.25506 6.10216 -3.42738 
1.14731 6.14208 -3.66146 
1.01214 6.16995 -3.79988 
0.908654 6.17914 -3.82104 
0.76973 6.11093 -3.28683 
0.662586 6.17739 -3.70648 
0.528987 6.15518 -3.49579 
0.41858 6.19959 -3.76006 
0.285247 6.22403 -3.87534 
0.172816 6.24802 -3.99611 
0.0434667 6.25542 -3.99397 
-0.069956 6.26144 -3.98886 
-0.200265 6.27142 -4.00436 
-0.310885 6.30727 -4.20875 
-0.451589 6.32613 -4.28191 
-0.560425 6.34485 -4.36738 
-0.694852 6.33751 -4.26018 
-0.799066 6.36026 -4.37573 
-0.939821 6.36511 -4.351 
-1.05048 6.42858 -4.7483 
-1.18995 6.43086 -4.70616 
-1.74639 6.12929 -2.36776 
-1.98842 6.15636 -2.45602 
-2.1198 6.11353 -2.10205 
-2.22411 6.11457 -2.06586 
-2.35134 6.11229 -1.99693 
-2.46489 6.11671 -1.98052 
-2.59528 6.14215 -2.10388 
-2.82947 6.08839 -1.6307 
-2.93696 6.12264 -1.82518 
-3.06905 6.12634 -1.79599 
-3.1811 6.15858 -1.97447 
-3.41253 6.1376 -1.73148 
-3.54317 6.13568 -1.66357 
-3.65255 6.15524 -1.75459 
-3.88853 6.14726 -1.60046 
-4.11814 6.11704 -1.29356 
-4.35508 6.1266 -1.2615 
-4.60038 6.16758 -1.44547 
-4.83763 6.1819 -1.44657 
5.74336 6.29396 -6.35317 
5.45393 6.19289 -5.52875 
4.89865 5.99803 -3.94027 
4.7914 6.00536 -3.94688 
4.65329 5.9984 -3.84109 
4.55001 6.01761 -3.93213 
4.4134 6.02665 -3.93846 
4.29036 5.96031 -3.4251 
4.15994 6.00454 -3.67925 
4.05262 6.00505 -3.63822 
3.91357 5.96806 -3.32274 
3.79656 5.92323 -2.96174 
3.66785 5.94803 -3.08123 
3.56221 5.96977 -3.18889 
3.41691 5.92576 -2.82187 
3.30545 5.92059 -2.73961 
3.18408 5.97941 -3.0992 
3.08002 6.01564 -3.30851 
2.94003 5.98125 -3.01075 
2.83759 6.02877 -3.29938 
2.70135 5.99298 -2.99339 
2.59563 6.01227 -3.08395 
2.45965 6.00523 -2.97849 
2.35324 6.00667 -2.94433 
2.21918 6.05186 -3.20361 
2.11156 6.06116 -3.22376 
1.97569 6.0371 -2.99966 
1.87448 6.1175 -3.51804 
1.74006 6.10368 -3.36587 
1.63422 6.14403 -3.6032 
1.49996 6.10664 -3.2868 
1.39065 6.13345 -3.42831 
1.25589 6.18672 -3.74361 
1.14843 6.18176 -3.66437 
1.01507 6.17464 -3.55937 
0.909038 6.20093 -3.69859 
0.771972 6.20519 -3.6713 
0.664829 6.19847 -3.57999 
0.52985 6.20947 -3.60056 
0.420412 6.2437 -3.79365 
0.287588 6.20963 -3.50099 
0.176415 6.29023 -4.01663 
0.0427686 6.28985 -3.95843 
-0.0708727 6.3172 -4.10181 
-0.201111 6.30678 -3.97504 
-0.313529 6.35321 -4.25199 
-0.44857 6.35152 -4.18405 
-0.556254 6.38145 -4.34791 
-0.692313 6.37146 -4.22168 
-0.800385 6.40282 -4.39535 
-0.939563 6.45597 -4.708 
-1.18346 6.41263 -4.30444 
-1.74258 6.12949 -2.09827 
-1.984 6.17152 -2.29081 
-2.11255 6.12911 -1.9417 
-2.22215 6.15292 -2.06212 
-2.34935 6.12411 -1.80831 
-2.46263 6.2085 -2.34945 
-2.59748 6.23223 -2.4587 
-2.6784 6.04481 -1.11861 
-2.82698 6.12634 -1.62508 
-2.93503 6.16198 -1.82855 
-3.06659 6.15559 -1.72923 
-3.18127 6.20309 -2.01259 
-3.30338 6.1669 -1.70944 
-3.41735 6.21373 -1.98846 
-3.54836 6.18877 -1.75988 
-3.64693 6.16978 -1.58644 
-3.77612 6.16377 -1.49074 
-3.88871 6.19679 -1.67404 
-4.0053 6.13569 -1.19957 
-4.11803 6.15999 -1.32203 
-4.24957 6.16983 -1.33577 
-4.49397 6.20208 -1.45875 
-4.8361 6.22555 -1.47984 
5.15934 6.09014 -4.41627 
4.90013 6.03729 -3.94139 
4.79015 6.03428 -3.87483 
4.66153 6.07244 -4.08694 
4.55026 6.05874 -3.9456 
4.28841 5.98908 -3.35265 
4.14627 5.96525 -3.12805 
4.04289 5.98316 -3.20975 
3.91655 6.00498 -3.30914 
3.80429 6.01893 -3.35965 
3.65728 5.95211 -2.834 
3.57291 6.07098 -3.62571 
3.32231 6.01592 -3.13898 
3.17612 5.96741 -2.741 
3.08077 6.04074 -3.21145 
2.93906 6.01667 -2.98534 
2.84329 6.07247 -3.3337 
2.70016 6.02484 -2.94313 
2.59724 6.05392 -3.10264 
2.46043 6.03819 -2.93655 
2.34529 5.99154 -2.56437 
2.21605 6.04963 -2.91479 
2.11493 6.10937 -3.28832 
1.97084 6.03286 -2.69647 
1.87671 6.13744 -3.38472 
1.73853 6.10122 -3.07554 
1.63433 6.15792 -3.42665 
1.39287 6.16403 -3.36899 
1.25653 6.15995 -3.28404 
1.15262 6.26219 -3.95198 
1.01759 6.18925 -3.38875 
0.912145 6.23828 -3.68597 
0.774331 6.22553 -3.54007 
0.668049 6.29859 -4.0041 
0.422851 6.26175 -3.64616 
0.286991 6.27953 -3.71343 
0.180089 6.32907 -4.01361 
0.0425295 6.32315 -3.91529 
-0.0686903 6.37953 -4.26127 
-0.202059 6.36164 -4.08147 
-0.310872 6.38652 -4.20937 
-0.552785 6.41882 -4.33353 
-0.69132 6.43055 -4.35761 
-0.93845 6.51161 -4.81879 
-1.0466 6.44348 -4.30002 
-1.17607 6.41583 -4.05393 
-1.74084 6.18256 -2.19695 
-1.97768 6.20124 -2.22845 
-2.10741 6.13872 -1.7397 
-2.21349 6.1447 -1.73718 
-2.34887 6.17053 -1.86054 
-2.45797 6.19926 -2.01502 
-2.60005 6.29515 -2.62293 
-2.82828 6.21805 -1.99177 
-2.93721 6.23096 -2.03629 
-3.06492 6.19774 -1.75213 
-3.17443 6.21745 -1.84369 
-3.29596 6.16542 -1.43124 
-3.40704 6.19662 -1.60208 
-3.54219 6.20385 -1.59614 
-3.64423 6.21663 -1.64258 
-3.78189 6.23742 -1.72993 
-4.00464 6.17107 -1.17579 
-4.10835 6.16857 -1.11524 
-4.36364 6.25178 -1.58776 
-4.58701 6.20992 -1.20363 
-4.83265 6.2508 -1.38579 
6.41609 6.43404 -7.04975 
6.16846 6.44868 -7.04887 
5.9186 6.45901 -7.01709 
5.72986 6.32338 -5.9979 
5.64757 6.41561 -6.60378 
5.0291 6.04301 -3.76243 
4.91128 6.13014 -4.31822 
4.78091 6.03246 -3.5865 
4.63859 5.99681 -3.28026 
4.54294 6.05485 -3.64338 
4.41961 6.12829 -4.10195 
4.28836 6.01592 -3.26791 
4.16501 6.07399 -3.61979 
4.0459 6.03174 -3.27732 
3.91163 6.01502 -3.10579 
3.81196 6.07197 -3.45971 
3.66893 6.02874 -3.1005 
3.56693 6.0772 -3.39455 
3.43111 6.05043 -3.15256 
3.31432 6.02268 -2.91167 
3.1835 6.0344 -2.93886 
3.07939 6.05216 -3.01898 
2.93961 6.044 -2.90448 
2.843 6.07673 -3.09164 
2.7012 6.06689 -2.96466 
2.59729 6.08369 -3.03819 
2.45984 6.06237 -2.83332 
2.36067 6.09473 -3.01678 
2.22232 6.12978 -3.20275 
2.11486 6.12496 -3.12478 
1.9795 6.09895 -2.88825 
1.8796 6.1751 -3.37529 
1.74221 6.15169 -3.15596 
1.63504 6.2215 -3.59597 
1.50366 6.1875 -3.30557 
1.39279 6.17048 -3.14157 
1.25993 6.22517 -3.46606 
1.15602 6.30434 -3.97238 
1.01915 6.28478 -3.77995 
0.912261 6.25678 -3.54134 
0.77781 6.27408 -3.60568 
0.66998 6.32012 -3.88045 
0.534494 6.23744 -3.25054 
0.424565 6.30145 -3.64921 
0.290456 6.33488 -3.82558 
0.184363 6.33936 -3.81272 
0.0451168 6.36518 -3.93415 
-0.0646284 6.42784 -4.32351 
-0.196923 6.37677 -3.91426 
-0.306391 6.39443 -3.99142 
-0.550609 6.45759 -4.32843 
-0.689077 6.49102 -4.50303 
-0.932575 6.46646 -4.23159 
-1.50128 6.25385 -2.52024 
-1.73539 6.18701 -1.9592 
-1.86755 6.19137 -1.93462 
-1.97138 6.1956 -1.92087 
-2.10934 6.20102 -1.90122 
-2.21396 6.18975 -1.77958 
-2.3466 6.20264 -1.81401 
-2.45968 6.25732 -2.14651 
-2.58583 6.2254 -1.87259 
-2.69552 6.25444 -2.02862 
-2.82483 6.26407 -2.04173 
-2.93493 6.26574 -2.00764 
-3.0708 6.26522 -1.94761 
-3.17101 6.25362 -1.82542 
-3.29659 6.22333 -1.56307 
-3.4025 6.22698 -1.54441 
-3.53757 6.23239 -1.52587 
-3.65117 6.30276 -1.96707 
-3.89064 6.29778 -1.83298 
-4.00858 6.23649 -1.35858 
-4.11329 6.23956 -1.33639 
-4.24225 6.22142 -1.15692 
-4.35622 6.26474 -1.41018 
-4.60008 6.30165 -1.56501 
-4.83046 6.29411 -1.41692 
5.32733 6.26011 -5.11783 
5.19314 6.26686 -5.10912 
5.07647 6.24177 -4.88717 
4.79824 6.14963 -4.13422 
4.65224 6.10003 -3.7305 
4.55025 6.12031 -3.82872 
4.39845 6.05876 -3.33987 
4.29331 6.0603 -3.30707 
4.15499 6.05457 -3.21021 
4.05667 6.10888 -3.54557 
3.92247 6.10952 -3.49455 
3.81645 6.12469 -3.55579 
3.67215 6.0793 -3.18182 
3.56439 6.07874 -3.13342 
3.43297 6.10731 -3.27693 
3.32281 6.08743 -3.09373 
3.1841 6.06485 -2.88005 
3.08216 6.10611 -3.12357 
2.94098 6.07045 -2.81825 
2.84487 6.12112 -3.12939 
2.70565 6.12034 -3.06642 
2.59429 6.09823 -2.86728 
2.46501 6.11179 -2.90769 
2.35952 6.13709 -3.0392 
2.21957 6.13276 -2.95135 
2.12301 6.21026 -3.44798 
1.98606 6.16758 -3.09583 
1.88142 6.20998 -3.34611 
1.74341 6.1673 -2.99354 
1.634 6.22085 -3.31904 
1.39824 6.22736 -3.26661 
1.26051 6.2393 -3.29224 
1.15805 6.32589 -3.84939 
1.02034 6.30172 -3.62508 
0.914302 6.29671 -3.54649 
0.778301 6.25919 -3.23041 
0.669986 6.35384 -3.84098 
0.428921 6.3487 -3.70557 
0.294704 6.35627 -3.70243 
0.182324 6.42119 -4.1054 
0.0494382 6.40349 -3.92783 
-0.0598462 6.50158 -4.56178 
-0.196388 6.4415 -4.08924 
-0.30637 6.49643 -4.42406 
-0.439837 6.43341 -3.93239 
-0.552159 6.54146 -4.63405 
-0.685437 6.48999 -4.22246 
-1.0219 6.30314 -2.78928 
-1.49598 6.25566 -2.26402 
-1.73256 6.19796 -1.76645 
-1.86708 6.25813 -2.12734 
-1.97488 6.25816 -2.08284 
-2.1093 6.24026 -1.90319 
-2.21391 6.24595 -1.89921 
-2.3427 6.2379 -1.79004 
-2.45898 6.30633 -2.21569 
-2.58606 6.2891 -2.0437 
-2.69136 6.28294 -1.95735 
-2.82734 6.33354 -2.25138 
-2.93438 6.30873 -2.03521 
-3.06252 6.28627 -1.82653 
-3.17022 6.29972 -1.87495 
-3.5373 6.28535 -1.62317 
-3.78316 6.33479 -1.86356 
-3.88158 6.29536 -1.5496 
-4.10535 6.24843 -1.13173 
-4.34751 6.27546 -1.21842 
-4.59747 6.33942 -1.55763 
-4.83575 6.35627 -1.57541 
6.18012 6.53033 -7.0635 
5.94939 6.6011 -7.45719 
5.18085 6.26406 -4.81143 
4.81474 6.22771 -4.40918 
4.67644 6.23103 -4.37502 
4.54468 6.12706 -3.60237 
4.425 6.20332 -4.07977 
4.29629 6.1012 -3.32112 
4.1591 6.11242 -3.34201 
4.05336 6.12514 -3.38625 
3.90209 6.05797 -2.85977 
3.81507 6.14019 -3.39181 
3.67138 6.10751 -3.10676 
3.55476 6.06333 -2.75341 
3.42407 6.08296 -2.83504 
3.33248 6.15373 -3.28613 
3.19397 6.13517 -3.10074 
3.08363 6.13557 -3.05793 
2.94477 6.12005 -2.89336 
2.84549 6.1542 -3.08829 
2.70739 6.15258 -3.02003 
2.5952 6.13561 -2.85645 
2.46561 6.13664 -2.81002 
2.36392 6.22867 -3.40388 
2.22999 6.2162 -3.26236 
2.12055 6.20924 -3.16909 
1.98701 6.22807 -3.24402 
1.88252 6.27765 -3.54335 
1.74854 6.27063 -3.43952 
1.6353 6.24273 -3.19996 
1.50698 6.27149 -3.34563 
1.39545 6.22645 -2.98835 
1.26596 6.24877 -3.08904 
1.15979 6.32565 -3.57633 
1.02064 6.29986 -3.34063 
0.914344 6.33656 -3.55022 
0.783502 6.27208 -3.05069 
0.672238 6.39824 -3.87631 
0.537719 6.40064 -3.83726 
0.426929 6.41939 -3.92102 
0.296302 6.38531 -3.63152 
0.184826 6.4849 -4.27354 
0.0494152 6.46987 -4.11371 
-0.0580841 6.513 -4.36724 
-0.196611 6.48485 -4.11544 
-0.302961 6.50613 -4.21846 
-0.438215 6.49141 -4.06082 
-0.546492 6.4944 -4.03674 
-0.681133 6.50757 -4.07201 
-1.49409 6.28339 -2.18665 
-1.73051 6.24929 -1.85322 
-1.86502 6.28013 -2.01061 
-1.97495 6.32398 -2.26808 
-2.10746 6.28506 -1.94426 
-2.20686 6.26775 -1.7835 
-2.44971 6.30432 -1.93565 
-2.82518 6.3674 -2.21596 
-2.93031 6.33698 -1.96223 
-3.05813 6.30824 -1.7107 
-3.17093 6.35279 -1.97178 
-3.29606 6.30055 -1.55896 
-3.39872 6.29557 -1.48205 
-3.52706 6.29439 -1.42067 
-3.64568 6.37817 -1.95045 
-3.88601 6.37127 -1.80317 
-4.10552 6.29869 -1.21063 
-4.34033 6.30203 -1.13641 
-4.59245 6.37053 -1.50517 
-4.82303 6.35363 -1.29278 
6.05336 6.62137 -7.36225 
5.07804 6.30707 -4.79347 
4.9032 6.1989 -3.97576 
4.66657 6.2184 -4.01257 
4.55485 6.20187 -3.85254 
4.40953 6.15562 -3.47387 
4.30838 6.19584 -3.7094 
4.17081 6.19548 -3.6502 
4.04164 6.10373 -2.96443 
3.91434 6.13177 -3.10525 
3.8201 6.20206 -3.55091 
3.67349 6.12802 -2.98005 
3.57073 6.14437 -3.05043 
3.43661 6.17307 -3.19294 
3.32905 6.1692 -3.1219 
3.19813 6.1883 -3.19953 
3.08453 6.16787 -3.01189 
2.94385 6.14446 -2.79247 
2.84843 6.19166 -3.07846 
2.71045 6.20697 -3.12713 
2.60436 6.19801 -3.0216 
2.45433 6.13278 -2.51004 
2.35915 6.19812 -2.9212 
2.23007 6.2243 -3.04836 
2.12313 6.25319 -3.20343 
1.99111 6.30057 -3.47558 
1.88304 6.28501 -3.32369 
1.7496 6.2623 -3.11205 
1.40088 6.30602 -3.26952 
1.26747 6.2878 -3.08885 
1.16256 6.35265 -3.49265 
1.02393 6.3054 -3.10964 
0.913963 6.38955 -3.64439 
0.781132 6.34411 -3.27631 
0.674989 6.47245 -4.1172 
0.538388 6.41926 -3.69411 
0.428127 6.45827 -3.91754 
0.299351 6.40644 -3.50702 
0.188613 6.49933 -4.10165 
0.0497926 6.47419 -3.87102 
-0.0584953 6.53267 -4.22945 
-0.193267 6.54128 -4.23314 
-0.301505 6.5381 -4.16654 
-0.431862 6.47794 -3.69794 
-0.677514 6.51588 -3.85798 
-1.73238 6.32416 -2.10022 
-1.86088 6.28216 -1.75749 
-1.96866 6.32121 -1.98216 
-2.1014 6.29312 -1.73361 
-2.20421 6.33246 -1.96232 
-2.44583 6.34047 -1.91762 
-2.58473 6.38911 -2.19551 
-2.69132 6.37025 -2.02136 
-2.82589 6.40209 -2.18525 
-2.9327 6.40309 -2.14791 
-3.16984 6.39179 -1.97192 
-3.29502 6.34444 -1.59362 
-3.3955 6.32243 -1.40033 
-3.53174 6.36512 -1.63823 
-3.63869 6.37845 -1.68592 
-3.77092 6.37458 -1.60445 
-3.88629 6.42233 -1.88597 
-4.00288 6.34462 -1.30189 
-4.34134 6.35421 -1.22788 
-4.48142 6.38156 -1.35842 
6.1877 6.62961 -7.19759 
5.73842 6.49014 -6.05317 
5.06025 6.28868 -4.38818 
4.80438 6.25381 -4.04298 
4.647 6.16154 -3.34347 
4.54569 6.19031 -3.49969 
4.41269 6.19223 -3.45806 
4.31814 6.27862 -4.01336 
4.16504 6.19817 -3.39694 
4.06339 6.2415 -3.65314 
3.93138 6.24395 -3.6156 
3.8217 6.22801 -3.46082 
3.67104 6.14729 -2.84352 
3.57571 6.22055 -3.30816 
3.43251 6.17662 -2.94701 
3.31911 6.14972 -2.71525 
3.20418 6.25882 -3.41838 
3.08459 6.19798 -2.95064 
2.94694 6.17954 -2.76705 
2.8428 6.20865 -2.92441 
2.70581 6.20906 -2.87081 
2.59933 6.20573 -2.80401 
2.45843 6.17169 -2.51177 
2.36159 6.23336 -2.89606 
2.22691 6.24839 -2.94397 
2.12517 6.26688 -3.02924 
1.98868 6.27564 -3.03321 
1.88576 6.33241 -3.38129 
1.75273 6.33421 -3.33887 
1.64185 6.34786 -3.38703 
1.50692 6.34131 -3.28638 
1.40423 6.3578 -3.35747 
1.2682 6.35162 -3.25891 
1.16387 6.40129 -3.55751 
1.02703 6.39511 -3.4586 
0.915385 6.40831 -3.50339 
0.783532 6.4415 -3.67728 
0.678523 6.44453 -3.65487 
0.543744 6.41035 -3.36416 
0.43261 6.4632 -3.68183 
0.298897 6.4856 -3.78079 
0.189742 6.52024 -3.97406 
0.0485142 6.55281 -4.13985 
-0.187804 6.53217 -3.9004 
-0.430536 6.50771 -3.63198 
-1.48813 6.28394 -1.65606 
-1.62604 6.35983 -2.12115 
-1.72969 6.32899 -1.86619 
-1.86332 6.36621 -2.06708 
-1.96684 6.35967 -1.97935 
-2.1013 6.35617 -1.8997 
-2.20398 6.37675 -1.99886 
-2.44227 6.34818 -1.70388 
-2.5802 6.38639 -1.90976 
-2.69302 6.4316 -2.17414 
-2.82376 6.42661 -2.0858 
-2.93285 6.44911 -2.19554 
-3.0571 6.40248 -1.82342 
-3.16377 6.39715 -1.74262 
-3.41072 6.47892 -2.20312 
-3.53726 6.44074 -1.88817 
-3.63469 6.40953 -1.63314 
-4.34184 6.40178 -1.28743 
-4.58154 6.41345 -1.26859 
5.70117 6.42887 -5.34397 
5.30627 6.31188 -4.37856 
5.21911 6.47055 -5.43175 
4.94247 6.39912 -4.82773 
4.82751 6.36948 -4.57702 
4.65062 6.21094 -3.41609 
4.54761 6.2264 -3.47982 
4.42015 6.25606 -3.63099 
4.30281 6.23103 -3.41096 
4.17065 6.25386 -3.51326 
4.08043 6.34031 -4.06951 
3.92944 6.25975 -3.45444 
3.82265 6.26499 -3.44649 
3.6711 6.18674 -2.84712 
3.57509 6.24929 -3.23687 
3.42892 6.1926 -2.78769 
3.33566 6.27288 -3.30028 
3.2022 6.26488 -3.19051 
3.08972 6.24467 -3.00548 
2.95407 6.24448 -2.94837 
2.8485 6.25777 -2.99618 
2.70949 6.25331 -2.90831 
2.60444 6.2712 -2.98788 
2.46784 6.24847 -2.77563 
2.36254 6.27413 -2.90846 
2.23373 6.32626 -3.21322 
2.12751 6.31348 -3.08181 
1.99425 6.34181 -3.22139 
1.89107 6.42585 -3.75572 
1.75377 6.37942 -3.38055 
1.6408 6.33599 -3.03593 
1.40765 6.43256 -3.60274 
1.27103 6.4559 -3.7067 
1.16383 6.44181 -3.56584 
1.02861 6.41685 -3.33883 
0.916822 6.48444 -3.75676 
0.786499 6.48439 -3.70274 
0.68075 6.49398 -3.72496 
0.434824 6.50883 -3.72561 
0.193611 6.54054 -3.84387 
0.0520923 6.54745 -3.83305 
-0.0478991 6.47712 -3.30905 
-0.18796 6.61295 -4.18367 
-0.287332 6.43731 -2.93718 
-0.528076 6.46258 -3.01142 
-1.49033 6.42045 -2.32544 
-1.62915 6.44103 -2.40946 
-1.7288 6.40255 -2.10425 
-1.85876 6.35467 -1.72193 
-1.96655 6.41686 -2.10437 
-2.09709 6.36519 -1.69584 
-2.20178 6.40523 -1.92753 
-2.4452 6.41517 -1.8953 
-2.57886 6.42534 -1.90994 
-2.6875 6.44733 -2.01608 
-2.82112 6.46686 -2.09503 
-2.93412 6.49661 -2.25258 
-3.05754 6.44764 -1.86552 
-3.16026 6.432 -1.71569 
-3.28557 6.39008 -1.37621 
-3.4037 6.47827 -1.93285 
-3.63247 6.44195 -1.58904 
-3.76495 6.44049 -1.52437 
-3.8699 6.43635 -1.45261 
-4.33565 6.42345 -1.1717 
-4.58098 6.46328 -1.34376 
-4.82341 6.47819 -1.34595 
5.94367 6.71472 -7.13001 
5.64732 6.61487 -6.32439 
5.08039 6.42166 -4.76826 
4.92679 6.37048 -4.35466 
4.79224 6.26366 -3.56781 
4.67152 6.31878 -3.89574 
4.55196 6.28981 -3.64819 
4.40851 6.24372 -3.27364 
4.32263 6.35496 -4.00015 
4.17593 6.29538 -3.53187 
4.05494 6.23924 -3.09769 
3.92773 6.27741 -3.30686 
3.82415 6.29648 -3.39487 
3.68493 6.2891 -3.2871 
3.56923 6.25907 -3.03389 
3.42212 6.19672 -2.54643 
3.32935 6.26278 -2.96077 
3.19868 6.28505 -3.05956 
3.0942 6.31491 -3.22117 
2.95275 6.2714 -2.86502 
2.85028 6.29783 -3.00389 
2.70306 6.25344 -2.63939 
2.60668 6.29822 -2.90647 
2.47038 6.29391 -2.8209 
2.36857 6.33007 -3.02671 
2.23584 6.35068 -3.1133 
2.12952 6.38109 -3.27783 
1.99425 6.39486 -3.31654 
1.89038 6.38301 -3.1927 
1.75588 6.40278 -3.27281 
1.64502 6.4085 -3.26638 
1.50849 6.35319 -2.83145 
1.40752 6.4207 -3.25228 
1.27361 6.42953 -3.25769 
1.16516 6.5176 -3.81626 
1.02672 6.47745 -3.48434 
0.919612 6.51669 -3.709 
0.789998 6.45874 -3.25883 
0.683637 6.50304 -3.51848 
0.438324 6.5572 -3.78848 
0.194067 6.61241 -4.06613 
-0.0432399 6.47597 -3.03392 
-0.289544 6.50814 -3.15288 
-0.529659 6.45181 -2.66827 
-0.768271 6.45599 -2.59865 
-1.37967 6.4242 -2.12914 
-1.48476 6.40641 -1.96395 
-1.62237 6.40271 -1.88196 
-1.72429 6.41748 -1.94112 
-1.85518 6.38824 -1.68693 
-1.96657 6.45548 -2.10159 
-2.09166 6.37348 -1.48837 
-2.20217 6.46046 -2.03863 
-2.33468 6.42472 -1.7392 
-2.44093 6.44457 -1.83138 
-2.57736 6.46412 -1.90908 
-2.68891 6.49062 -2.04464 
-2.81125 6.4657 -1.82345 
-2.92869 6.52022 -2.14848 
-3.06236 6.50759 -2.00687 
-3.16392 6.52859 -2.10885 
-3.39952 6.50308 -1.83696 
-3.63582 6.504 -1.74586 
-4.09623 6.4391 -1.11142 
-4.56726 6.45378 -1.01763 
6.1613 6.66786 -6.62465 
5.93537 6.73015 -6.95758 
5.33982 6.4905 -5.07547 
5.21681 6.52749 -5.27779 
5.07179 6.41611 -4.45711 
4.82957 6.44857 -4.57955 
4.6659 6.32798 -3.68832 
4.56053 6.3609 -3.87003 
4.43541 6.39547 -4.05494 
4.30858 6.30503 -3.38486 
4.1786 6.33276 -3.52105 
4.0786 6.3931 -3.89234 
3.91815 6.26078 -2.92222 
3.83212 6.38082 -3.70729 
3.68797 6.33323 -3.32292 
3.58872 6.39847 -3.72801 
3.44235 6.29631 -2.96977 
3.3365 6.31543 -3.05699 
3.19746 6.31373 -2.98834 
3.09399 6.33571 -3.09608 
2.95488 6.32224 -2.94692 
2.84464 6.29784 -2.73486 
2.71193 6.30874 -2.75488 
2.60257 6.30677 -2.69653 
2.47571 6.34022 -2.87306 
2.36878 6.34373 -2.85317 
2.23444 6.38371 -3.07122 
2.13324 6.43617 -3.38813 
1.99504 6.42281 -3.24008 
1.89257 6.4288 -3.23894 
1.75703 6.43616 -3.23357 
1.5098 6.38121 -2.75653 
1.40826 6.44347 -3.14031 
1.2727 6.49048 -3.40589 
1.16637 6.58162 -3.98506 
1.02658 6.45069 -3.03287 
0.9212 6.56827 -3.7931 
0.790759 6.50637 -3.31646 
0.681839 6.58468 -3.80692 
0.547214 6.5733 -3.67383 
0.440436 6.54265 -3.42044 
0.304885 6.58035 -3.62237 
0.195492 6.61071 -3.78492 
0.0580916 6.67189 -4.14659 
-0.0425104 6.51493 -3.03253 
-0.185736 6.69076 -4.17533 
-0.287613 6.5419 -3.11604 
-0.530856 6.49598 -2.70222 
-0.766265 6.52722 -2.81893 
-1.3761 6.40121 -1.7069 
-1.48144 6.38918 -1.58135 
-1.62129 6.44933 -1.93491 
-1.72156 6.48171 -2.11492 
-1.8536 6.4352 -1.7427 
-1.9647 6.51563 -2.2467 
-2.09151 6.43444 -1.63964 
-2.19827 6.48014 -1.90801 
-2.44442 6.53049 -2.1508 
-2.56896 6.48272 -1.77303 
-2.68817 6.55889 -2.24459 
-2.81092 6.52307 -1.94927 
-2.92548 6.54553 -2.05555 
-3.05567 6.52067 -1.83203 
-3.15722 6.53361 -1.8787 
-3.2809 6.47787 -1.44675 
-3.39602 6.52925 -1.75055 
-3.53365 6.55088 -1.84172 
-3.63777 6.56136 -1.87045 
-4.46581 6.4862 -1.01556 
6.18891 6.77943 -7.12408 
5.34166 6.51756 -4.99101 
4.83232 6.48505 -4.56063 
4.66824 6.36586 -3.68059 
4.55763 6.37622 -3.70594 
4.43214 6.4124 -3.90117 
4.30855 6.33707 -3.3369 
4.19197 6.43246 -3.93952 
4.06144 6.31622 -3.09337 
3.93685 6.37338 -3.43208 
3.83318 6.40484 -3.60418 
3.67934 6.30882 -2.88629 
3.58412 6.39246 -3.41763 
3.44756 6.38095 -3.28316 
3.33508 6.35798 -3.08042 
3.20244 6.388 -3.23076 
3.09099 6.34299 -2.87814 
2.94935 6.32855 -2.72161 
2.84923 6.3482 -2.81454 
2.70908 6.33112 -2.64058 
2.60827 6.35915 -2.79043 
2.47377 6.36291 -2.76092 
2.37637 6.41117 -3.05005 
2.23803 6.40801 -2.97176 
2.13805 6.48446 -3.45208 
1.99799 6.48298 -3.38452 
1.89463 6.48243 -3.3384 
1.75888 6.45628 -3.10443 
1.64758 6.48093 -3.22683 
1.51947 6.47467 -3.13157 
1.41139 6.53226 -3.47995 
1.27389 6.51368 -3.29683 
1.16854 6.56795 -3.62368 
1.02937 6.53869 -3.36711 
0.926214 6.64501 -4.04977 
0.791888 6.52928 -3.20547 
0.681846 6.63784 -3.90059 
0.54854 6.60534 -3.62423 
0.443026 6.57981 -3.40685 
0.309779 6.58822 -3.4095 
0.196949 6.65988 -3.85185 
-0.0432617 6.56356 -3.09641 
-0.282994 6.55431 -2.93489 
-0.418086 6.60999 -3.25913 
-0.528168 6.47632 -2.30237 
-0.896319 6.47677 -2.15419 
-1.3754 6.4968 -2.09397 
-1.48123 6.44831 -1.7198 
-1.61643 6.50026 -2.01853 
-1.72283 6.52163 -2.12052 
-1.84994 6.48096 -1.7909 
-1.95944 6.53108 -2.08772 
-2.09244 6.50904 -1.88277 
-2.19855 6.51435 -1.87537 
-2.33106 6.49025 -1.65649 
-2.43567 6.50851 -1.73801 
-2.56878 6.51978 -1.76018 
-2.68256 6.56313 -2.00902 
-2.81483 6.59734 -2.18797 
-2.93013 6.64508 -2.46612 
-3.04902 6.54058 -1.70455 
-3.16053 6.5996 -2.06119 
-3.28474 6.5352 -1.57087 
-3.38414 6.49406 -1.24943 
-3.5243 6.56568 -1.68025 
-3.62382 6.52586 -1.36767 
-3.87242 6.5924 -1.7192 
6.17456 6.77081 -6.78635 
6.03388 6.77681 -6.7695 
5.90677 6.7309 -6.40511 
5.76025 6.70302 -6.15543 
5.21462 6.58404 -5.12244 
5.09582 6.56263 -4.92808 
4.82011 6.47919 -4.24749 
4.6784 6.44975 -3.9892 
4.55958 6.40252 -3.61918 
4.39618 6.28712 -2.76707 
4.31716 6.41712 -3.61929 
4.17177 6.36979 -3.23773 
4.06865 6.40245 -3.4177 
3.91296 6.3024 -2.6732 
3.82391 6.36926 -3.09168 
3.69123 6.38376 -3.13606 
3.58353 6.41548 -3.30779 
3.42861 6.31975 -2.59295 
3.33797 6.39502 -3.06798 
3.2081 6.44815 -3.37636 
3.10475 6.43521 -3.24596 
2.95997 6.4053 -2.98316 
2.84886 6.37853 -2.75553 
2.71131 6.37344 -2.66457 
2.60916 6.39623 -2.77777 
2.47755 6.41409 -2.84538 
2.37608 6.44315 -3.00159 
2.24128 6.45457 -3.02408 
2.13807 6.49034 -3.22517 
2.00165 6.55171 -3.58692 
1.89571 6.51861 -3.31825 
1.75753 6.47666 -2.97621 
1.65161 6.52476 -3.26008 
1.51778 6.49099 -2.97547 
1.41502 6.55347 -3.35849 
1.27505 6.59249 -3.56669 
1.16897 6.55281 -3.25322 
1.03233 6.57863 -3.3729 
0.92735 6.67536 -3.9881 
0.790726 6.6376 -3.67515 
0.682096 6.6702 -3.85242 
0.550081 6.63672 -3.57047 
0.443005 6.71841 -4.08247 
0.308977 6.65089 -3.56811 
0.0663687 6.66146 -3.54051 
-0.0419664 6.61918 -3.20838 
-0.414393 6.55381 -2.61083 
-1.13309 6.48059 -1.81768 
-1.37033 6.42448 -1.33851 
-1.47905 6.4627 -1.55399 
-1.61522 6.55923 -2.15499 
-1.71779 6.50527 -1.74567 
-1.8488 6.54079 -1.93364 
-1.9551 6.53194 -1.82973 
-2.08741 6.52913 -1.75628 
-2.19949 6.57379 -2.01423 
-2.43885 6.57535 -1.92654 
-2.5714 6.59753 -2.02303 
-2.68483 6.65442 -2.36363 
-2.80757 6.61064 -2.01526 
-2.92729 6.68034 -2.44046 
-3.15628 6.61318 -1.88931 
-3.39214 6.62839 -1.89591 
-3.6308 6.60334 -1.62741 
-4.45756 6.55157 -0.935245 
-4.69742 6.58697 -1.07755 
-4.80165 6.59034 -1.05762 
-5.02989 6.5602 -0.75864 
5.72538 6.64979 -5.50902 
5.08042 6.5411 -4.50727 
4.92633 6.49842 -4.15452 
4.81071 6.45955 -3.84332 
4.67221 6.44993 -3.72134 
4.56657 6.46062 -3.75076 
4.42149 6.42721 -3.46462 
4.31947 6.45943 -3.64167 
4.16801 6.39173 -3.12006 
4.07233 6.44885 -3.46879 
3.92473 6.39194 -3.022 
3.83579 6.4877 -3.63584 
3.69401 6.44872 -3.31317 
3.5848 6.43799 -3.19563 
3.44183 6.4074 -2.92953 
3.34928 6.47286 -3.33613 
3.19606 6.41368 -2.87161 
3.10242 6.45444 -3.11008 
2.95467 6.41082 -2.75349 
2.85159 6.42274 -2.79227 
2.71132 6.41834 -2.70502 
2.61314 6.45004 -2.88007 
2.47056 6.4086 -2.54038 
2.3805 6.54338 -3.41866 
2.24538 6.52621 -3.24679 
2.14147 6.54871 -3.35707 
1.99854 6.51036 -3.03815 
1.89411 6.50317 -2.94663 
1.75545 6.4861 -2.77398 
1.65296 6.54925 -3.16081 
1.52247 6.55792 -3.16626 
1.41435 6.59922 -3.40246 
1.27532 6.6103 -3.42081 
1.17422 6.61877 -3.43689 
1.03621 6.63002 -3.45679 
0.928068 6.69324 -3.84177 
0.792131 6.67022 -3.62983 
0.687982 6.73492 -4.02654 
0.553178 6.66016 -3.46368 
0.447171 6.74114 -3.97015 
0.311766 6.69536 -3.60386 
0.199212 6.79591 -4.24052 
0.0714761 6.59532 -2.82616 
-0.17252 6.63263 -2.97954 
-0.413899 6.49214 -1.92672 
-0.762943 6.54707 -2.1567 
-1.00055 6.49751 -1.72276 
-1.13272 6.51527 -1.78919 
-1.37402 6.55112 -1.93372 
-1.47669 6.50577 -1.58372 
-1.60873 6.51658 -1.603 
-1.71505 6.5448 -1.75098 
-1.84627 6.56661 -1.84533 
-1.95488 6.58466 -1.92336 
-2.0864 6.58173 -1.8495 
-2.19649 6.60515 -1.96341 
-2.32788 6.57271 -1.68926 
-2.43844 6.61423 -1.92584 
-2.57082 6.63977 -2.04495 
-2.67848 6.65243 -2.08681 
-2.80511 6.64916 -2.01263 
-2.91611 6.6586 -2.03122 
-3.04759 6.6382 -1.83873 
-3.28035 6.61798 -1.60587 
-3.38103 6.58929 -1.36975 
-3.63365 6.6793 -1.87736 
-3.76173 6.66488 -1.72682 
-3.86559 6.66645 -1.69485 
5.91124 6.80854 -6.39165 
5.46407 6.66173 -5.21439 
5.34137 6.63062 -4.95348 
5.2066 6.62741 -4.87668 
5.07049 6.54844 -4.28608 
4.93998 6.5659 -4.35105 
4.66016 6.43494 -3.34954 
4.58933 6.5921 -4.38534 
4.41225 6.4043 -3.04068 
4.32585 6.51853 -3.77934 
4.18413 6.49006 -3.52855 
4.07047 6.46379 -3.30416 
3.95035 6.56087 -3.91279 
3.83118 6.4868 -3.36232 
3.68562 6.42985 -2.91703 
3.58537 6.48252 -3.23292 
3.44828 6.45654 -3.00088 
3.33543 6.42882 -2.767 
3.21125 6.51233 -3.28207 
3.10009 6.46325 -2.90412 
2.96056 6.45421 -2.78588 
2.85679 6.48188 -2.93093 
2.71113 6.43677 -2.56585 
2.61184 6.47929 -2.81334 
2.47861 6.47662 -2.74081 
2.3757 6.52563 -3.03078 
2.23148 6.46496 -2.5608 
2.13696 6.52858 -2.95324 
1.98741 6.45418 -2.38804 
1.89478 6.55081 -3.00488 
1.75911 6.55645 -2.98762 
1.65658 6.6063 -3.28347 
1.52527 6.58056 -3.05541 
1.41627 6.70737 -3.87002 
1.27673 6.60367 -3.11034 
1.17838 6.69236 -3.67105 
1.03992 6.70658 -3.71082 
0.931249 6.74296 -3.91285 
0.795867 6.68361 -3.45534 
0.691041 6.7859 -4.1056 
0.556048 6.69576 -3.43959 
0.447491 6.73711 -3.67539 
0.310852 6.731 -3.57812 
0.203372 6.75992 -3.73007 
0.075733 6.6438 -2.89112 
-0.0374794 6.61467 -2.6474 
-0.172305 6.70369 -3.1954 
-0.412853 6.51125 -1.79312 
-0.652979 6.59803 -2.28282 
-0.887242 6.41462 -0.944173 
-1.13169 6.54857 -1.75176 
-1.36913 6.52971 -1.52673 
-1.47575 6.59874 -1.95081 
-1.60768 6.56404 -1.66168 
-1.71192 6.60636 -1.90572 
-1.84606 6.58521 -1.70746 
-1.95557 6.66067 -2.17393 
-2.08663 6.62426 -1.8736 
-2.19978 6.65477 -2.03397 
-2.32537 6.61262 -1.69691 
-2.43892 6.67369 -2.06422 
-2.56271 6.62334 -1.67233 
-2.6767 6.68401 -2.03671 
-2.80766 6.70115 -2.09923 
-2.91915 6.71268 -2.13163 
-3.04835 6.70449 -2.0232 
-3.15436 6.7011 -1.95678 
-3.28386 6.67138 -1.7023 
-3.3993 6.75053 -2.19135 
-3.52484 6.71307 -1.88608 
-3.62576 6.68768 -1.67264 
-4.57593 6.71119 -1.44232 
-4.68778 6.64345 -0.937443 
5.47801 6.72456 -5.37711 
5.34625 6.67138 -4.96384 
4.81584 6.53467 -3.82326 
4.66381 6.4926 -3.47679 
4.55754 6.50234 -3.49932 
4.42173 6.48851 -3.35041 
4.33151 6.56059 -3.80091 
4.1944 6.57235 -3.82445 
4.07944 6.53989 -3.55811 
3.94271 6.5462 -3.54502 
3.8299 6.50499 -3.22039 
3.69382 6.48672 -3.04135 
3.59515 6.55467 -3.46049 
3.45627 6.54373 -3.32984 
3.34946 6.5026 -3.00824 
3.20301 6.49972 -2.92901 
3.10926 6.55412 -3.25848 
2.95673 6.47064 -2.6319 
2.86029 6.51582 -2.89797 
2.71882 6.47726 -2.57956 
2.61214 6.50649 -2.73364 
2.48086 6.52556 -2.80902 
2.3829 6.57694 -3.11635 
2.24751 6.57566 -3.05244 
2.13947 6.56324 -2.92438 
2.00021 6.54763 -2.76198 
1.89953 6.64058 -3.34931 
1.75949 6.56715 -2.79571 
1.65813 6.61578 -3.08313 
1.52129 6.58327 -2.80747 
1.41695 6.68425 -3.44755 
1.27792 6.66537 -3.26311 
1.18164 6.71619 -3.56739 
1.04192 6.73529 -3.63949 
0.934654 6.77659 -3.87487 
0.79831 6.75858 -3.69748 
0.693091 6.71 -3.32603 
0.555146 6.78631 -3.7856 
0.451927 6.78769 -3.75277 
0.20907 6.73849 -3.32091 
0.0743394 6.71359 -3.09755 
-0.169802 6.69124 -2.84663 
-0.409312 6.69051 -2.74382 
-0.756477 6.54698 -1.6315 
-0.886231 6.50956 -1.32542 
-0.994982 6.564 -1.64908 
-1.12806 6.54152 -1.44262 
-1.23307 6.54607 -1.4305 
-1.36672 6.58635 -1.64816 
-1.47454 6.60706 -1.74411 
-1.60197 6.55549 -1.34328 
-1.71149 6.65651 -1.98151 
-1.84489 6.64217 -1.82999 
-1.9509 6.68249 -2.0593 
-2.08063 6.62742 -1.63387 
-2.19866 6.69898 -2.06938 
-2.32188 6.63944 -1.61641 
-2.42808 6.6307 -1.51385 
-2.56641 6.70453 -1.95647 
-2.67996 6.77092 -2.35893 
-2.80815 6.7523 -2.18052 
-2.91824 6.75976 -2.1859 
-3.04216 6.71112 -1.80633 
-3.15711 6.76147 -2.09972 
-3.38538 6.70857 -1.64857 
-3.51242 6.69009 -1.47163 
-3.62449 6.72667 -1.67305 
-3.76603 6.79037 -2.04584 
6.19105 6.95595 -6.96122 
5.93026 6.9287 -6.67107 
5.65203 6.85863 -6.08502 
5.34754 6.70755 -4.94168 
5.20635 6.71226 -4.91596 
4.93064 6.59498 -4.01247 
4.86102 6.74504 -4.99639 
4.68305 6.60907 -4.00663 
4.59718 6.68597 -4.49042 
4.44189 6.59787 -3.83279 
4.20928 6.65747 -4.1401 
4.07379 6.54002 -3.29255 
3.92907 6.51818 -3.08627 
3.84466 6.61863 -3.72948 
3.69825 6.54627 -3.18166 
3.59107 6.54086 -3.10152 
3.44511 6.52406 -2.92868 
3.35886 6.63602 -3.64888 
3.20849 6.55386 -3.03334 
3.10257 6.54129 -2.90532 
2.96575 6.53618 -2.81512 
2.8633 6.57165 -3.01264 
2.7238 6.53248 -2.69151 
2.61386 6.56073 -2.83728 
2.48454 6.57575 -2.88594 
2.38269 6.59836 -2.99694 
2.25372 6.65899 -3.35339 
2.14801 6.61461 -3.01087 
2.01201 6.66364 -3.28617 
1.90026 6.62817 -3.00131 
1.76852 6.63757 -3.01101 
1.65556 6.62882 -2.90597 
1.52655 6.66613 -3.10504 
1.28488 6.7464 -3.54797 
1.18088 6.7882 -3.78755 
1.04499 6.81302 -3.89959 
0.935982 6.846 -4.07763 
0.800498 6.81312 -3.80055 
0.692959 6.89768 -4.32714 
0.557379 6.73305 -3.16114 
0.453024 6.73975 -3.16376 
0.213648 6.71644 -2.90885 
0.0769315 6.72794 -2.93063 
-0.168646 6.68462 -2.53818 
-0.407412 6.71445 -2.64197 
-0.750823 6.50186 -1.06742 
-0.991274 6.58405 -1.52378 
-1.12452 6.49302 -0.855199 
-1.36384 6.60958 -1.54382 
-1.47203 6.61332 -1.52491 
-1.7092 6.66976 -1.80882 
-1.94754 6.70293 -1.93524 
-2.07985 6.68228 -1.74181 
-2.19275 6.71687 -1.92909 
-2.31777 6.67789 -1.61498 
-2.42627 6.68944 -1.64854 
-2.56234 6.71544 -1.7684 
-2.68081 6.85521 -2.663 
-2.80758 6.80216 -2.25329 
-2.915 6.80474 -2.22676 
-3.04366 6.76591 -1.91215 
-3.15323 6.80666 -2.14234 
-3.2724 6.70208 -1.38797 
-3.39163 6.80058 -2.00383 
-3.60891 6.68369 -1.12626 
-3.75824 6.80328 -1.87212 
-3.97504 6.69338 -1.04192 
-4.31624 6.67824 -0.800159 
-4.45841 6.7283 -1.07975 
-4.56201 6.74552 -1.15358 
-4.79072 6.72555 -0.925201 
-5.02814 6.7333 -0.880372 
5.78057 6.93849 -6.40653 
5.34865 6.75504 -4.99576 
5.08714 6.70349 -4.54233 
4.84699 6.72595 -4.59583 
4.69525 6.69109 -4.29936 
4.58948 6.68046 -4.18477 
4.32005 6.55833 -3.25302 
4.18988 6.59273 -3.43155 
4.07536 6.59417 -3.39468 
3.93729 6.57578 -3.21467 
3.8475 6.65971 -3.74312 
3.68589 6.52691 -2.78341 
3.59346 6.59435 -3.19978 
3.44789 6.56662 -2.9538 
3.35616 6.64583 -3.44973 
3.21011 6.57193 -2.8928 
3.113 6.6283 -3.23272 
2.96751 6.57134 -2.79004 
2.86391 6.60646 -2.98428 
2.72385 6.57018 -2.68305 
2.62043 6.60636 -2.88452 
2.48757 6.60847 -2.84459 
2.37895 6.60539 -2.77963 
2.2551 6.69178 -3.31075 
2.1457 6.65867 -3.04333 
2.0103 6.69627 -3.24128 
1.90195 6.68639 -3.13065 
1.76316 6.62722 -2.67586 
1.65843 6.6951 -3.09014 
1.41981 6.76304 -3.45028 
1.28842 6.71194 -3.05275 
1.18262 6.87225 -4.08885 
1.04451 6.7612 -3.28502 
0.93687 6.89495 -4.14155 
0.804261 6.79285 -3.40019 
0.696595 6.88938 -4.00615 
0.561506 6.78404 -3.24199 
0.456062 6.73344 -2.85835 
0.213425 6.74786 -2.85655 
-0.0300612 6.69796 -2.42133 
-0.750876 6.54858 -1.12176 
-0.886404 6.55067 -1.08053 
-0.985873 6.56752 -1.15343 
-1.1205 6.52229 -0.794003 
-1.22701 6.57921 -1.13373 
-1.36186 6.62185 -1.36579 
-1.46925 6.68731 -1.76272 
-1.60049 6.64541 -1.42703 
-1.70631 6.72153 -1.89634 
-1.84513 6.74608 -2.00498 
-1.94349 6.71869 -1.78044 
-2.07931 6.7055 -1.63619 
-2.193 6.77803 -2.07813 
-2.31528 6.7152 -1.60522 
-2.42842 6.75602 -1.83389 
-2.55698 6.73009 -1.60677 
-2.68428 6.90496 -2.7322 
-2.80095 6.80683 -2.02389 
-2.91183 6.8266 -2.11171 
-3.05045 6.86074 -2.28494 
-3.1467 6.80527 -1.87218 
-3.26938 6.74187 -1.39525 
-3.37952 6.78294 -1.62672 
-3.51667 6.80886 -1.74522 
-3.6247 6.84156 -1.92131 
-3.85055 6.7684 -1.33645 
-4.45385 6.76414 -1.06124 
-4.90695 6.72009 -0.579435 
5.93378 7.00824 -6.66895 
5.45227 6.74579 -4.71019 
5.21623 6.80306 -4.99892 
5.09586 6.76767 -4.71226 
4.95287 6.74107 -4.47546 
4.67601 6.64457 -3.71467 
4.58958 6.72207 -4.20012 
4.42129 6.56339 -3.06582 
4.34324 6.7301 -4.15394 
4.20307 6.69884 -3.887 
4.09047 6.71162 -3.92705 
3.94914 6.67307 -3.61063 
3.83455 6.62196 -3.22074 
3.70454 6.65573 -3.39473 
3.59454 6.62119 -3.118 
3.45513 6.61679 -3.03178 
3.36231 6.72633 -3.72987 
3.22 6.66261 -3.24399 
3.09697 6.57636 -2.61453 
2.97559 6.63821 -2.98064 
2.8686 6.65543 -3.05283 
2.72298 6.60501 -2.65493 
2.62351 6.64802 -2.90339 
2.48741 6.63166 -2.73815 
2.38506 6.65752 -2.87022 
2.25295 6.69262 -3.05227 
2.14167 6.66956 -2.8521 
2.00991 6.70756 -3.05379 
1.90317 6.69472 -2.92413 
1.76903 6.70756 -2.9558 
1.6614 6.72667 -3.04043 
1.53118 6.7562 -3.1858 
1.42451 6.82924 -3.63305 
1.29025 6.79695 -3.36151 
1.18346 6.88998 -3.94298 
1.04617 6.81415 -3.37776 
0.94159 6.99724 -4.56508 
0.804736 6.88086 -3.72763 
0.698984 6.89795 -3.79936 
0.56134 6.90713 -3.80499 
0.320164 6.92442 -3.823 
0.207682 6.67676 -2.11351 
-0.751076 6.61334 -1.29697 
-0.885141 6.5894 -1.0815 
-0.98456 6.57886 -0.970167 
-1.11912 6.62535 -1.22771 
-1.22557 6.65323 -1.3716 
-1.35825 6.65313 -1.3169 
-1.46743 6.70392 -1.61361 
-1.60005 6.71297 -1.62039 
-1.70402 6.75947 -1.89041 
-1.84123 6.77878 -1.96421 
-1.94574 6.78173 -1.94143 
-2.07913 6.75497 -1.70721 
-2.1945 6.82958 -2.16145 
-2.31658 6.76839 -1.70059 
-2.43417 6.85433 -2.23006 
-2.56683 6.88201 -2.36187 
-2.67433 6.86482 -2.20257 
-2.80178 6.85976 -2.11661 
-2.91579 6.91551 -2.44464 
-3.03824 6.83727 -1.86909 
-3.14844 6.86897 -2.03709 
-3.26461 6.77304 -1.3452 
-3.37416 6.7997 -1.47963 
-3.51921 6.86691 -1.87199 
-3.61955 6.86479 -1.81682 
-3.75185 6.84193 -1.60924 
-4.08151 6.79669 -1.17081 
-4.55819 6.81926 -1.12787 
-4.78625 6.79632 -0.880614 
-4.90475 6.75298 -0.54104 
5.91692 6.99608 -6.31216 
5.48633 6.88378 -5.38455 
5.08463 6.76595 -4.43159 
4.93689 6.71955 -4.06055 
4.83096 6.73705 -4.13486 
4.67372 6.66196 -3.5677 
4.57911 6.696 -3.75746 
4.43587 6.68121 -3.60018 
4.33706 6.71849 -3.80991 
4.19623 6.69632 -3.60416 
4.08653 6.70836 -3.64033 
3.95331 6.71793 -3.65035 
3.83579 6.64259 -3.09765 
3.69856 6.65321 -3.1131 
3.45475 6.64711 -2.97317 
3.35076 6.66485 -3.04986 
3.22336 6.71547 -3.33746 
3.10479 6.63954 -2.78037 
2.96372 6.62282 -2.61095 
2.87482 6.72655 -3.27015 
2.72152 6.62583 -2.53278 
2.62722 6.69507 -2.95857 
2.48576 6.66034 -2.66832 
2.38306 6.68771 -2.81008 
2.24165 6.64474 -2.46461 
2.13824 6.68417 -2.68689 
2.01238 6.73593 -2.98271 
1.90929 6.79566 -3.34122 
1.76874 6.73589 -2.88343 
1.66574 6.80334 -3.29376 
1.42862 6.87983 -3.71014 
1.29229 6.83544 -3.35715 
1.18447 6.93326 -3.96902 
1.05056 6.88852 -3.61471 
0.94236 7.0466 -4.63041 
0.806797 6.92892 -3.78642 
0.699348 6.87885 -3.40714 
0.453411 6.76131 -2.51919 
0.323706 6.91917 -3.52471 
0.212724 6.7874 -2.59623 
-0.511056 6.63835 -1.30265 
-0.643579 6.6565 -1.3704 
-0.749017 6.59103 -0.8886 
-0.880423 6.62438 -1.05871 
-0.981583 6.58411 -0.747588 
-1.11652 6.58692 -0.711479 
-1.22023 6.65718 -1.14031 
-1.46475 6.74135 -1.60503 
-1.59821 6.75486 -1.64127 
-1.70552 6.7927 -1.85128 
-1.83426 6.77788 -1.69954 
-1.9435 6.84865 -2.12948 
-2.07916 6.79863 -1.7389 
-2.19126 6.85514 -2.07214 
-2.43193 6.86849 -2.06361 
-2.56218 6.8886 -2.14542 
-2.6757 6.94175 -2.45549 
-2.79556 6.85932 -1.85404 
-2.90746 6.9078 -2.13344 
-3.03839 6.87051 -1.83015 
-3.14387 6.88838 -1.90698 
-3.26942 6.86297 -1.68543 
-3.37474 6.85256 -1.57278 
-3.84507 6.84875 -1.35556 
-4.54889 6.83135 -0.951928 
-4.90886 6.81682 -0.707732 
-5.01059 6.80765 -0.604794 
-5.24036 6.80121 -0.467897 
5.49456 6.93631 -5.47392 
5.23683 6.91647 -5.23669 
4.95189 6.80049 -4.34533 
4.83382 6.77419 -4.12153 
4.69271 6.76053 -3.97293 
4.59919 6.80951 -4.26263 
4.43161 6.68698 -3.37512 
4.33198 6.71929 -3.55078 
4.18922 6.70466 -3.39506 
4.09608 6.77365 -3.81877 
3.94368 6.68575 -3.16896 
3.85089 6.75583 -3.60007 
3.70766 6.7274 -3.35187 
3.60164 6.71927 -3.25446 
3.45972 6.69388 -3.0271 
3.3589 6.7479 -3.34753 
3.21443 6.7006 -2.97256 
3.10874 6.68157 -2.80235 
2.97824 6.73444 -3.10308 
2.87534 6.763 -3.25235 
2.7235 6.67237 -2.58451 
2.62679 6.71621 -2.83852 
2.49175 6.71576 -2.78075 
2.38281 6.70653 -2.67479 
2.25475 6.75129 -2.92222 
2.14268 6.72927 -2.72946 
2.01483 6.79497 -3.11709 
1.90533 6.76919 -2.90014 
1.77664 6.80762 -3.10502 
1.66869 6.85881 -3.40361 
1.43286 6.90533 -3.61907 
1.29328 6.89775 -3.51169 
1.18501 6.90015 -3.48379 
1.04982 6.96858 -3.88665 
0.945194 7.0159 -4.16072 
0.808209 6.89771 -3.31452 
0.326672 6.85748 -2.84983 
-0.508469 6.59046 -0.724355 
-0.641553 6.66967 -1.20015 
-0.745411 6.61505 -0.792577 
-0.880406 6.64535 -0.940391 
-0.981507 6.65568 -0.968379 
-1.11441 6.63794 -0.795719 
-1.21988 6.72767 -1.35306 
-1.35593 6.75319 -1.46847 
-1.46486 6.79604 -1.71085 
-1.59667 6.78437 -1.57919 
-1.70259 6.81965 -1.77214 
-1.83827 6.85403 -1.94698 
-1.94069 6.87182 -2.0243 
-2.0762 6.82725 -1.67104 
-2.18387 6.8709 -1.91923 
-2.31216 6.84186 -1.67281 
-2.42767 6.8825 -1.89771 
-2.56297 6.95676 -2.33943 
-2.67112 6.98339 -2.47363 
-2.79853 6.94474 -2.16319 
-2.90868 6.96536 -2.25634 
-3.03508 6.90775 -1.81948 
-3.14224 6.92835 -1.91373 
-3.27028 6.92158 -1.8163 
-3.37591 6.91286 -1.71499 
-3.60938 6.8929 -1.48641 
-3.84967 6.91963 -1.56744 
-3.97319 6.87772 -1.23679 
-4.31011 6.86059 -0.984951 
-4.43988 6.85639 -0.904007 
-4.54762 6.87013 -0.952089 
-4.78453 6.87612 -0.895633 
-5.26089 6.9126 -0.945703 
5.97497 7.22128 -7.30576 
5.74276 6.97839 -5.59044 
5.69403 7.15554 -6.75311 
5.51089 7.01832 -5.76304 
5.3812 6.97063 -5.39218 
5.11532 6.93447 -5.04307 
4.92956 6.74903 -3.73006 
4.86574 6.92777 -4.89725 
4.70945 6.85898 -4.37476 
4.59774 6.84922 -4.26437 
4.45007 6.79094 -3.81558 
4.32019 6.68499 -3.05577 
4.20876 6.83534 -4.01419 
4.09556 6.80161 -3.74316 
3.96156 6.79643 -3.65432 
3.85831 6.83504 -3.87023 
3.70447 6.71834 -3.02891 
3.61345 6.82608 -3.71121 
3.46118 6.73738 -3.05743 
3.3531 6.72044 -2.90059 
3.22069 6.75549 -3.08091 
3.11382 6.73052 -2.87093 
2.97843 6.74934 -2.94168 
2.87528 6.77379 -3.06309 
2.72879 6.71773 -2.62954 
2.6252 6.74914 -2.79723 
2.48828 6.72018 -2.54846 
2.38463 6.74151 -2.64882 
2.25757 6.78472 -2.88573 
2.14248 6.76885 -2.73314 
2.00801 6.77078 -2.69152 
1.90639 6.83152 -3.05575 
1.7736 6.84127 -3.06699 
1.66553 6.80836 -2.80355 
1.4329 6.9191 -3.44836 
1.29582 6.96847 -3.72236 
1.18785 6.99515 -3.85663 
1.05721 7.08249 -4.38671 
0.94774 7.01139 -3.86768 
0.81147 6.97847 -3.59272 
0.705349 6.90863 -3.08345 
0.45392 6.76162 -2.0002 
0.219722 6.87032 -2.63077 
-0.402756 6.59763 -0.557922 
-0.506389 6.61408 -0.625644 
-0.639431 6.66818 -0.932744 
-0.746157 6.638 -0.687989 
-0.879084 6.69178 -0.992991 
-0.982887 6.70815 -1.06013 
-1.11102 6.69279 -0.905616 
-1.22173 6.7626 -1.32663 
-1.35371 6.76486 -1.28814 
-1.45978 6.80815 -1.53402 
-1.59679 6.82806 -1.61133 
-1.70144 6.84665 -1.69289 
-1.83684 6.90408 -2.02128 
-1.94065 6.90886 -2.01105 
-2.07434 6.89669 -1.87548 
-2.18188 6.91059 -1.92459 
-2.31071 6.88545 -1.70441 
-2.43154 6.97364 -2.24409 
-2.5609 6.99708 -2.34801 
-2.66272 6.9764 -2.16855 
-2.78891 6.92693 -1.78706 
-2.90582 6.99733 -2.20951 
-3.13818 6.94324 -1.75395 
-3.26804 6.94206 -1.69332 
-3.37604 6.97539 -1.87193 
-3.61122 6.96053 -1.6771 
-3.97314 6.90992 -1.1921 
-4.4477 6.93962 -1.19734 
-4.54232 6.90529 -0.929674 
-4.68354 6.94571 -1.14205 
-4.77773 6.9014 -0.807904 
-4.90228 6.88943 -0.677316 
-5.00653 6.88175 -0.58364 
-5.23694 6.87232 -0.426914 
5.75513 7.05518 -5.84239 
5.5209 7.0816 -5.92355 
5.35874 6.94358 -4.9386 
5.23347 6.98091 -5.13657 
5.10028 6.9138 -4.63569 
4.95374 6.88502 -4.38467 
4.84883 6.89475 -4.40702 
4.6944 6.8304 -3.91596 
4.56942 6.7347 -3.22796 
4.44758 6.80341 -3.63633 
4.33818 6.81424 -3.66415 
4.207 6.84395 -3.80898 
4.08776 6.77998 -3.33468 
3.9594 6.80349 -3.43933 
3.84483 6.77182 -3.18199 
3.70498 6.75883 -3.0389 
3.60932 6.83396 -3.50059 
3.46862 6.81594 -3.32363 
3.35972 6.77544 -3.00981 
3.22516 6.80137 -3.12806 
3.11536 6.76558 -2.84524 
2.97691 6.77578 -2.85717 
2.88491 6.8695 -3.44417 
2.73337 6.77106 -2.72716 
2.63034 6.81049 -2.94806 
2.38946 6.8002 -2.782 
2.25958 6.83637 -2.97036 
2.15142 6.82931 -2.87954 
2.01671 6.83848 -2.88607 
1.9078 6.84493 -2.88496 
1.77905 6.91676 -3.31128 
1.67384 6.91913 -3.28446 
1.43295 7.00026 -3.72729 
1.29802 6.9982 -3.65891 
1.18763 7.04292 -3.91214 
1.05733 7.06556 -4.01016 
0.949269 7.09445 -4.15877 
0.812148 7.03628 -3.71576 
-0.0340631 6.62666 -0.644395 
-0.399811 6.64527 -0.620096 
-0.501654 6.58131 -0.15279 
-0.639263 6.69762 -0.871743 
-0.740789 6.63261 -0.397495 
-0.878127 6.71949 -0.920572 
-0.981991 6.81549 -1.51795 
-1.11133 6.7245 -0.85934 
-1.21966 6.78186 -1.19749 
-1.35217 6.78152 -1.1415 
-1.45736 6.83775 -1.47339 
-1.59716 6.90046 -1.83443 
-1.69849 6.90344 -1.81321 
-1.82984 6.8759 -1.57646 
-1.94345 6.9576 -2.07461 
-2.07328 6.93463 -1.86893 
-2.18165 7.00339 -2.28299 
-2.30887 6.92094 -1.68208 
-2.42478 6.96327 -1.91708 
-2.55484 7.00243 -2.12516 
-2.66463 7.03883 -2.32306 
-2.79434 7.03785 -2.26392 
-2.90537 7.05078 -2.30495 
-3.03642 7.01376 -2.00514 
-3.13002 6.94518 -1.51026 
-3.26158 6.9543 -1.51764 
-3.36996 6.99293 -1.73094 
-3.50389 6.99288 -1.67624 
-3.61502 7.01981 -1.81056 
-3.96801 6.9189 -0.994885 
-4.5333 6.91407 -0.733093 
-4.77161 6.92281 -0.694442 
-5.01244 6.95578 -0.816233 
-5.23926 6.9306 -0.55627 
-5.37437 6.94263 -0.581526 
5.93853 7.19524 -6.58296 
5.40568 7.11485 -5.83319 
4.95556 6.92279 -4.37467 
4.86762 6.99826 -4.84078 
4.60644 6.94098 -4.35448 
4.44036 6.79727 -3.33219 
4.33507 6.83275 -3.52548 
4.19055 6.79602 -3.22289 
4.09985 6.8687 -3.66931 
3.95647 6.82923 -3.34905 
3.84252 6.79689 -3.08802 
3.71009 6.80608 -3.09559 
3.60591 6.81943 -3.14223 
3.46828 6.83465 -3.18776 
3.36023 6.81589 -3.01938 
3.22262 6.81 -2.92462 
3.11756 6.81073 -2.88696 
2.98356 6.86412 -3.18767 
2.88453 6.87851 -3.2433 
2.7373 6.80666 -2.70619 
2.63353 6.84114 -2.89344 
2.25872 6.84645 -2.77719 
2.15661 6.93996 -3.35745 
2.01182 6.84623 -2.67587 
1.91454 6.90049 -2.99716 
1.77636 6.90286 -2.95705 
1.67529 6.97125 -3.37072 
1.30006 7.04507 -3.70964 
1.05798 7.08834 -3.89932 
0.458743 6.93127 -2.61281 
-0.266675 6.71038 -0.850909 
-0.396389 6.74691 -1.0412 
-0.499328 6.63191 -0.235092 
-0.635931 6.74187 -0.910687 
-0.738233 6.65879 -0.317007 
-0.872302 6.71472 -0.634445 
-0.978442 6.78656 -1.069 
-1.10891 6.7643 -0.868219 
-1.21652 6.79351 -1.01875 
-1.35014 6.84602 -1.3137 
-1.45793 6.89519 -1.59683 
-1.59277 6.90229 -1.58944 
-1.69887 6.98682 -2.10836 
-1.82942 6.96181 -1.88916 
-1.93638 6.96183 -1.84597 
-2.06659 6.95693 -1.76065 
-2.17939 7.02439 -2.16334 
-2.31066 6.98152 -1.82521 
-2.42065 7.01237 -1.98566 
-2.54938 7.00039 -1.85388 
-2.66192 7.05115 -2.14566 
-2.79218 7.06706 -2.19861 
-2.89668 7.02606 -1.88368 
-3.03053 7.02863 -1.84652 
-3.13447 7.03508 -1.84723 
-3.26466 7.01925 -1.68919 
-3.36861 7.03185 -1.7308 
-3.50496 7.04592 -1.76906 
-3.60621 7.01416 -1.51682 
-3.84321 7.0245 -1.48947 
-4.54035 6.98337 -0.933162 
-4.67478 6.98849 -0.912613 
-5.00818 6.97941 -0.716895 
-5.24551 6.99173 -0.702499 
-5.49916 7.06845 -1.10955 
5.93983 7.23179 -6.56042 
5.7948 7.22736 -6.47246 
5.64267 7.10436 -5.59523 
5.35561 7.00292 -4.80646 
5.23694 7.06256 -5.15414 
5.08942 6.93832 -4.27054 
4.96193 6.97791 -4.48164 
4.83906 6.923 -4.06781 
4.68512 6.85177 -3.53325 
4.60504 6.96394 -4.24491 
4.43921 6.82917 -3.28406 
4.35922 6.98155 -4.26245 
4.21486 6.93431 -3.89086 
4.0812 6.81939 -3.07467 
3.95351 6.84546 -3.19608 
3.85426 6.90986 -3.58313 
3.71559 6.88102 -3.33586 
3.61149 6.89325 -3.37494 
3.4755 6.89296 -3.31814 
3.3745 6.94451 -3.61922 
3.22721 6.85646 -2.97575 
3.12246 6.86175 -2.96858 
2.97384 6.84461 -2.79486 
2.87995 6.87559 -2.96244 
2.73911 6.8495 -2.7325 
2.63422 6.87068 -2.83066 
2.49258 6.83966 -2.56766 
2.38453 6.8423 -2.54156 
2.25643 6.87095 -2.67984 
2.14754 6.88597 -2.73547 
2.01617 6.90271 -2.79344 
1.91678 6.94189 -3.01315 
1.7822 6.94681 -2.99145 
1.67627 6.97747 -3.15202 
1.43583 7.07358 -3.69234 
1.30237 7.06399 -3.57484 
1.19695 7.22691 -4.61288 
1.05956 7.13765 -3.96531 
0.214761 6.80285 -1.40311 
-0.0295758 6.7292 -0.81577 
-0.162874 6.6474 -0.219277 
-0.396167 6.7085 -0.53017 
-0.498492 6.65761 -0.151251 
-0.631089 6.7114 -0.454388 
-0.736942 6.72897 -0.528152 
-0.869462 6.75856 -0.670817 
-0.976416 6.86703 -1.34705 
-1.10626 6.78783 -0.769138 
-1.21578 6.86506 -1.23713 
-1.34798 6.86284 -1.16892 
-1.45468 6.92146 -1.51459 
-1.58921 6.93031 -1.51885 
-1.69365 6.94551 -1.57737 
-1.82411 6.96766 -1.6715 
-1.93376 7.00469 -1.87275 
-2.06199 6.94746 -1.44125 
-2.18008 7.062 -2.15321 
-2.42133 7.0796 -2.17233 
-2.55502 7.09013 -2.18802 
-2.65957 7.10475 -2.24269 
-2.78921 7.0695 -1.95634 
-2.90269 7.13686 -2.35723 
-3.0352 7.11441 -2.15463 
-3.13828 7.11509 -2.11738 
-3.36536 7.05067 -1.59808 
-3.49633 7.04364 -1.49841 
-3.6087 7.08107 -1.70113 
-3.73486 7.07111 -1.58394 
-3.96189 7.00502 -1.05354 
-4.78374 7.05062 -1.02292 
-5.00898 7.01998 -0.728346 
-5.24165 7.02468 -0.665192 
-5.47332 7.02547 -0.576421 
5.96169 7.32813 -6.942 
5.78131 7.21312 -6.10797 
5.68919 7.26755 -6.4311 
5.49531 7.11913 -5.37053 
5.41588 7.21162 -5.95066 
5.22604 7.0581 -4.858 
4.95461 6.98547 -4.26782 
