ply
format ascii 1.0
element vertex 1797
property float x
property float y
property float z
end_header
2.3715 -7.36559 2.6193 
2.27152 -7.36075 2.5968 
2.14317 -7.36281 2.79379 
2.04417 -7.35422 2.66761 
1.91331 -7.35792 2.91239 
1.81103 -7.35383 2.91288 
1.6768 -7.36726 3.42687 
1.57954 -7.35881 3.30277 
1.4511 -7.35968 3.4676 
1.35354 -7.35463 3.43656 
1.22633 -7.35856 3.68357 
1.12514 -7.35593 3.72257 
0.999331 -7.35674 3.88296 
0.899334 -7.34831 3.76229 
0.672129 -7.34582 3.94373 
0.547538 -7.34655 4.10026 
0.446469 -7.34388 4.13842 
0.321142 -7.34043 4.18163 
0.221902 -7.33604 4.17073 
0.0983407 -7.32852 4.10075 
-0.00116431 -7.32492 4.11161 
-0.225948 -7.3245 4.34706 
-0.350686 -7.31787 4.30286 
-0.450122 -7.31734 4.39764 
-0.575702 -7.31194 4.38788 
-0.674676 -7.30316 4.25669 
-0.800084 -7.30064 4.3258 
-0.900595 -7.3001 4.42119 
-1.12442 -7.28905 4.36538 
-1.24784 -7.28467 4.3812 
-1.34762 -7.27954 4.35057 
-1.47247 -7.27665 4.40875 
-1.57161 -7.27019 4.34129 
-1.69857 -7.2609 4.22676 
-1.79564 -7.25968 4.3001 
-2.02084 -7.25077 4.30413 
-2.14768 -7.23957 4.13759 
-2.24847 -7.23637 4.16095 
-2.39585 -7.19373 3.15771 
-2.48997 -7.19816 3.38224 
-2.63228 -7.16716 2.69148 
-2.74033 -7.15544 2.48983 
-2.97264 -7.13865 2.28638 
-3.11073 -7.11953 1.91568 
-3.21028 -7.11582 1.92374 
-3.34171 -7.10378 1.73921 
-3.44523 -7.09838 1.70557 
-3.58707 -7.07648 1.26295 
-3.68645 -7.07766 1.40457 
-3.80594 -7.07955 1.58758 
-3.91489 -7.06959 1.43542 
-4.03697 -7.07196 1.63436 
-4.14868 -7.05789 1.37264 
-4.26719 -7.06298 1.64217 
-4.37377 -7.05579 1.56304 
-4.50356 -7.04654 1.45282 
-4.60319 -7.0469 1.57227 
-4.73271 -7.04056 1.54156 
-4.83077 -7.04104 1.66258 
-4.96156 -7.03307 1.58862 
-5.05652 -7.03572 1.76575 
-5.19145 -7.02316 1.57085 
-5.29154 -7.0213 1.63009 
-5.41397 -7.02201 1.78435 
-5.52514 -7.00839 1.53434 
-5.63693 -7.01795 1.9189 
-5.73806 -7.0135 1.90858 
-5.87403 -7.00379 1.7927 
-5.95915 -7.01155 2.09865 
-6.10336 -6.99418 1.78273 
-6.20548 -6.98971 1.77282 
-6.32587 -6.99214 1.97196 
-6.43448 -6.98275 1.83491 
-6.63609 -6.99181 2.30448 
-6.7714 -6.98275 2.20589 
-6.86931 -6.98095 2.26477 
-7.10929 -6.96507 2.09494 
-7.3371 -6.95759 2.14151 
4.79978 -7.29092 -1.0566 
4.56115 -7.28695 -0.904713 
4.46127 -7.27717 -1.06118 
4.31328 -7.29556 -0.402299 
4.20683 -7.29286 -0.359449 
4.06231 -7.30559 0.142311 
3.94605 -7.31221 0.448149 
3.82148 -7.30276 0.327558 
3.72876 -7.29054 0.097517 
3.57242 -7.30915 0.771679 
3.47725 -7.30422 0.741731 
3.33268 -7.30979 1.04989 
3.22672 -7.31251 1.23877 
3.1128 -7.29293 0.832412 
3.02121 -7.27348 0.405167 
2.88058 -7.28584 0.89309 
2.77982 -7.27776 0.783978 
2.51119 -7.32117 2.25224 
2.36903 -7.33205 2.70183 
2.2731 -7.32853 2.71098 
2.1447 -7.32259 2.68994 
2.04645 -7.31789 2.66968 
1.91062 -7.32893 3.11657 
1.81305 -7.31845 2.93887 
1.6808 -7.32714 3.31851 
1.582 -7.32205 3.28816 
1.45298 -7.32351 3.46837 
1.35474 -7.32184 3.53011 
1.22836 -7.32081 3.63977 
1.12959 -7.31496 3.589 
1.00103 -7.31937 3.84858 
0.898845 -7.31712 3.89898 
0.774197 -7.31785 4.05467 
0.675658 -7.30659 3.85688 
0.548281 -7.31244 4.15419 
0.447892 -7.30649 4.10256 
0.323138 -7.30269 4.13561 
0.223696 -7.30224 4.23184 
0.0999119 -7.29359 4.13232 
0.000170827 -7.29546 4.29164 
-0.125006 -7.29304 4.36259 
-0.225514 -7.2895 4.3764 
-0.349495 -7.28359 4.35137 
-0.448017 -7.28051 4.37524 
-0.571503 -7.2721 4.28211 
-0.673905 -7.26873 4.30266 
-0.797729 -7.26356 4.29748 
-0.898221 -7.26312 4.3953 
-1.123 -7.25493 4.41861 
-1.24605 -7.24895 4.39073 
-1.34685 -7.24259 4.3283 
-1.47144 -7.23589 4.2827 
-1.56998 -7.23688 4.41713 
-1.69545 -7.23061 4.3842 
-1.7931 -7.22616 4.37 
-2.02086 -7.21374 4.28219 
-2.14836 -7.1981 3.99743 
-2.24762 -7.19826 4.11013 
-2.39436 -7.15422 3.07692 
-2.48228 -7.16851 3.55998 
-2.63479 -7.12598 2.57404 
-2.737 -7.12087 2.54728 
-2.97114 -7.10073 2.25693 
-3.11075 -7.0797 1.8396 
-3.20666 -7.08125 1.98615 
-3.34281 -7.06391 1.66491 
-3.44351 -7.06099 1.69579 
-3.58178 -7.0422 1.33767 
-3.68512 -7.03969 1.38229 
-3.80836 -7.03919 1.5034 
-3.91203 -7.03503 1.50391 
-4.03175 -7.03873 1.73502 
-4.14133 -7.02719 1.54197 
-4.27227 -7.01931 1.47148 
-4.37422 -7.01482 1.46118 
-4.49806 -7.01344 1.55907 
-4.60036 -7.01101 1.60492 
-4.72604 -7.00694 1.63199 
-4.82099 -7.01044 1.83064 
-4.95446 -7.00067 1.71152 
-5.0566 -6.99631 1.70494 
-5.18414 -6.99173 1.72018 
-5.29298 -6.98051 1.53506 
-5.41219 -6.98324 1.73956 
-5.51747 -6.97641 1.66936 
-5.7375 -6.97624 1.90525 
-5.86522 -6.97139 1.91342 
-5.96245 -6.97036 1.9918 
-6.0962 -6.96 1.85746 
-6.19883 -6.95632 1.86991 
-6.32844 -6.95212 1.89776 
-6.42897 -6.94877 1.9168 
-6.6408 -6.9519 2.23351 
-6.75969 -6.9521 2.36892 
-6.86564 -6.94533 2.30136 
-7.00394 -6.93316 2.12269 
-7.10608 -6.92946 2.13424 
-7.33434 -6.92123 2.16068 
4.82434 -7.23463 -1.58793 
4.57394 -7.23737 -1.24425 
4.45772 -7.24871 -0.814035 
4.31502 -7.25967 -0.365708 
4.20241 -7.26332 -0.146222 
4.05976 -7.27192 0.238902 
3.95398 -7.2688 0.269434 
3.82543 -7.26358 0.268034 
3.72341 -7.26136 0.318483 
3.57175 -7.27644 0.887397 
3.49084 -7.25201 0.31863 
3.33378 -7.27406 1.08069 
3.23317 -7.2697 1.07241 
3.10964 -7.26128 0.979555 
3.02342 -7.23628 0.401205 
2.87723 -7.25183 0.977011 
2.77322 -7.25223 1.10018 
2.51153 -7.28698 2.31654 
2.36827 -7.30341 2.91289 
2.27842 -7.28695 2.56781 
2.14196 -7.29428 2.91231 
2.04396 -7.28654 2.81048 
1.91348 -7.29026 3.0515 
1.81594 -7.28197 2.93432 
1.68159 -7.29625 3.46328 
1.58291 -7.28681 3.31639 
1.45619 -7.28635 3.44114 
1.35732 -7.28373 3.47765 
1.23044 -7.28405 3.62361 
1.13151 -7.27754 3.55561 
1.00437 -7.27846 3.71799 
0.903811 -7.27472 3.7263 
0.672799 -7.27937 4.1013 
0.549297 -7.276 4.14457 
0.450213 -7.27237 4.15414 
0.323691 -7.27276 4.30162 
0.225397 -7.26446 4.1849 
0.101037 -7.26155 4.24156 
0.00197762 -7.25705 4.22775 
-0.22171 -7.25588 4.43852 
-0.348682 -7.25155 4.45981 
-0.446725 -7.24317 4.34077 
-0.57101 -7.23753 4.32372 
-0.671527 -7.23489 4.36175 
-0.795621 -7.23216 4.42279 
-0.897515 -7.22688 4.39126 
-1.12165 -7.21549 4.32805 
-1.2446 -7.21287 4.39095 
-1.34402 -7.20942 4.40586 
-1.46971 -7.20207 4.34459 
-1.5681 -7.19896 4.36749 
-1.69455 -7.19082 4.28595 
-1.79146 -7.18827 4.32244 
-2.01713 -7.17722 4.26998 
-2.14641 -7.16073 3.96691 
-2.24469 -7.16247 4.12015 
-2.38559 -7.12977 3.39439 
-2.47799 -7.13699 3.68853 
-2.73217 -7.0883 2.65557 
-2.97033 -7.06363 2.2509 
-3.10921 -7.04156 1.80842 
-3.20452 -7.04722 2.06372 
-3.34029 -7.0288 1.71588 
-3.44031 -7.0288 1.82426 
-3.57948 -7.00338 1.29214 
-3.67955 -7.00741 1.50894 
-3.80268 -7.00742 1.64269 
-3.90993 -6.9967 1.47103 
-4.03475 -6.99596 1.58652 
-4.14007 -6.98872 1.50627 
-4.2675 -6.98485 1.54041 
-4.36842 -6.98367 1.61818 
-4.49596 -6.97768 1.59562 
-4.60038 -6.97181 1.5511 
-4.72188 -6.97408 1.74392 
-4.8212 -6.97105 1.77033 
-4.95204 -6.9646 1.73892 
-5.04753 -6.96522 1.85934 
-5.18848 -6.94986 1.59946 
-5.2854 -6.94927 1.68872 
-5.42078 -6.93755 1.52059 
-5.51587 -6.94004 1.69073 
-5.75122 -6.92826 1.62963 
-5.86279 -6.93515 1.93596 
-5.96947 -6.92774 1.85255 
-6.09697 -6.92316 1.8679 
-6.19584 -6.92113 1.92087 
-6.3147 -6.92171 2.06549 
-6.4254 -6.9119 1.922 
-6.63267 -6.91934 2.34719 
-6.76382 -6.91147 2.27804 
-6.8538 -6.91416 2.44807 
-7.1112 -6.8893 2.05954 
-7.33009 -6.88556 2.19669 
4.80725 -7.21315 -1.13876 
4.56044 -7.21696 -0.772707 
4.46551 -7.20275 -1.04945 
4.30602 -7.23388 -0.0493122 
4.21464 -7.21485 -0.458256 
4.07734 -7.22296 -0.0949248 
3.96771 -7.22189 -0.00580462 
3.81396 -7.24163 0.684992 
3.72623 -7.22399 0.30919 
3.57721 -7.23598 0.788487 
3.48543 -7.22195 0.513258 
3.33663 -7.23742 1.08495 
3.22705 -7.24099 1.29765 
3.11611 -7.21969 0.849399 
3.02785 -7.19697 0.338713 
2.87164 -7.22624 1.28616 
2.76881 -7.22274 1.30338 
2.61447 -7.25154 2.23645 
2.52032 -7.24066 2.04744 
2.37531 -7.25855 2.67981 
2.27867 -7.25243 2.62055 
2.14702 -7.25534 2.83961 
2.04712 -7.2478 2.74605 
1.91612 -7.25006 2.94683 
1.81511 -7.24563 2.93747 
1.5845 -7.25004 3.30275 
1.45585 -7.25381 3.5413 
1.35747 -7.24994 3.54402 
1.23215 -7.24877 3.6474 
1.13142 -7.24842 3.7462 
1.00469 -7.25109 3.95362 
0.906438 -7.24228 3.82449 
0.678433 -7.23711 3.93183 
0.551259 -7.24063 4.16231 
0.451541 -7.23507 4.12146 
0.325789 -7.23529 4.26248 
0.226988 -7.2284 4.18518 
0.101894 -7.22963 4.35244 
0.00364836 -7.22519 4.33973 
-0.121973 -7.22025 4.34309 
-0.220707 -7.2236 4.53862 
-0.345909 -7.21324 4.39717 
-0.445051 -7.20954 4.40511 
-0.57007 -7.20134 4.32114 
-0.670375 -7.19459 4.2491 
-0.793807 -7.19589 4.41665 
-0.895124 -7.19317 4.45302 
-1.11846 -7.18325 4.42901 
-1.24245 -7.179 4.44919 
-1.3424 -7.17399 4.42322 
-1.46825 -7.16249 4.25213 
-1.56432 -7.16734 4.48477 
-1.69101 -7.15804 4.37325 
-1.78772 -7.15757 4.46473 
-2.01245 -7.15035 4.51432 
-2.14302 -7.12981 4.10747 
-2.24356 -7.12462 4.0775 
-2.38105 -7.09779 3.51046 
-2.47196 -7.10701 3.85381 
-2.62956 -7.05571 2.65654 
-2.72381 -7.06066 2.88973 
-2.86656 -7.03271 2.29855 
-2.96494 -7.03122 2.36475 
-3.10933 -7.00453 1.80892 
-3.20396 -7.0073 1.98474 
-3.33821 -6.99106 1.69647 
-3.4367 -6.99289 1.85132 
-3.57688 -6.96653 1.29976 
-3.68397 -6.96198 1.29372 
-3.80781 -6.96199 1.4274 
-3.90594 -6.96368 1.57823 
-4.03533 -6.95663 1.52969 
-4.13302 -6.95696 1.6437 
-4.26957 -6.94498 1.47158 
-4.3654 -6.94467 1.56644 
-4.49548 -6.93841 1.53981 
-4.59438 -6.94087 1.71197 
-4.72015 -6.93679 1.73861 
-4.82109 -6.93359 1.76226 
-4.95216 -6.92603 1.70198 
-5.05532 -6.91994 1.6508 
-5.18074 -6.91851 1.74774 
-5.28914 -6.9081 1.58723 
-5.41568 -6.90321 1.59339 
-5.51299 -6.90483 1.7413 
-5.73862 -6.89844 1.81435 
-5.86047 -6.89829 1.94167 
-5.96059 -6.8954 1.97259 
-6.09139 -6.88894 1.94145 
-6.19701 -6.88187 1.867 
-6.32747 -6.87482 1.81977 
-6.4129 -6.88307 2.1317 
-6.63761 -6.87722 2.21819 
-6.75962 -6.87625 2.32398 
-6.85339 -6.8768 2.43985 
-7.00436 -6.8564 2.05883 
-7.10619 -6.85393 2.10297 
-7.22208 -6.85569 2.27494 
-7.3308 -6.84709 2.16297 
4.81979 -7.16539 -1.42251 
4.57581 -7.16462 -1.18326 
4.46147 -7.17694 -0.735928 
4.31403 -7.19051 -0.220674 
4.2058 -7.18641 -0.213659 
4.05121 -7.2089 0.545208 
3.95058 -7.20119 0.448844 
3.82665 -7.19354 0.378655 
3.73724 -7.17696 0.0358291 
3.59247 -7.18472 0.395232 
3.48255 -7.19071 0.670573 
3.34002 -7.20131 1.10257 
3.23427 -7.2 1.18067 
3.11214 -7.18907 1.02207 
3.03009 -7.15732 0.270633 
2.89183 -7.16253 0.555844 
2.77739 -7.17815 1.09058 
2.38068 -7.22158 2.66104 
2.2756 -7.2187 2.69714 
2.15147 -7.21378 2.69938 
2.04955 -7.21062 2.72466 
1.91799 -7.21553 2.9947 
1.81622 -7.20981 2.95226 
1.68661 -7.21872 3.32587 
1.58761 -7.211 3.22757 
1.45822 -7.21734 3.53309 
1.35894 -7.21501 3.57763 
1.23358 -7.21526 3.71793 
1.13412 -7.21103 3.71229 
1.00979 -7.20929 3.79905 
0.906709 -7.20803 3.87584 
0.7793 -7.21159 4.1058 
0.678456 -7.20514 4.043 
0.553451 -7.20325 4.12666 
0.452665 -7.19816 4.09966 
0.328439 -7.19473 4.14165 
0.229175 -7.19138 4.15923 
0.104203 -7.18964 4.24663 
0.00469433 -7.19025 4.36903 
-0.120819 -7.18817 4.44822 
-0.218159 -7.18642 4.5058 
-0.344797 -7.1769 4.38947 
-0.443925 -7.16971 4.30537 
-0.568661 -7.16584 4.33622 
-0.668188 -7.16398 4.39353 
-0.792296 -7.16244 4.48529 
-0.892565 -7.16065 4.54527 
-1.11666 -7.1486 4.46607 
-1.2401 -7.14284 4.44586 
-1.34047 -7.13793 4.42333 
-1.46631 -7.13026 4.35505 
-1.56509 -7.1246 4.31097 
-1.68897 -7.12049 4.33489 
-1.78843 -7.11778 4.36967 
-2.01331 -7.10719 4.32999 
-2.13967 -7.09699 4.19555 
-2.2395 -7.09183 4.16576 
-2.37488 -7.06713 3.65786 
-2.4709 -7.07361 3.93155 
-2.6272 -7.01856 2.6437 
-2.8647 -6.99587 2.29804 
-2.9631 -6.99437 2.3636 
-3.1012 -6.97217 1.92441 
-3.20177 -6.97013 1.97811 
-3.33741 -6.95097 1.61671 
-3.43976 -6.95027 1.7077 
-3.57049 -6.93587 1.46686 
-3.67495 -6.93385 1.52501 
-3.80337 -6.92927 1.54145 
-3.90422 -6.92567 1.55424 
-4.02937 -6.92535 1.67958 
-4.12876 -6.92131 1.67903 
-4.26294 -6.91179 1.57101 
-4.36496 -6.90559 1.51642 
-4.49169 -6.90509 1.63863 
-4.59584 -6.89905 1.59052 
-4.72011 -6.89876 1.71593 
-4.82364 -6.89226 1.65494 
-4.94726 -6.8912 1.75915 
-5.05099 -6.88609 1.73511 
-5.17941 -6.88092 1.73598 
-5.27966 -6.87832 1.77447 
-5.40809 -6.87136 1.72784 
-5.51462 -6.86396 1.64638 
-5.73371 -6.86376 1.87569 
-5.85193 -6.86742 2.09899 
-5.95328 -6.86263 2.08102 
-6.08481 -6.85512 2.02341 
-6.19455 -6.84385 1.84278 
-6.3133 -6.84541 2.01134 
-6.42854 -6.83334 1.81568 
-6.62967 -6.84385 2.30894 
-6.76126 -6.83611 2.24549 
-6.85615 -6.83748 2.38327 
-7.10605 -6.8161 2.0857 
-7.32291 -6.81375 2.25614 
4.8218 -7.12644 -1.45986 
4.46668 -7.13517 -0.855487 
4.30917 -7.15964 -0.0477884 
4.22375 -7.12993 -0.735879 
4.05008 -7.17202 0.550808 
3.96456 -7.15361 0.158731 
3.81795 -7.16732 0.673216 
3.73103 -7.1471 0.235395 
3.58611 -7.15459 0.584963 
3.49026 -7.14608 0.463316 
3.34607 -7.15791 0.925997 
3.24019 -7.15769 1.0324 
3.12089 -7.14481 0.821123 
3.02936 -7.125 0.399054 
2.88849 -7.13309 0.760101 
2.77706 -7.1426 1.12752 
2.62074 -7.17755 2.20898 
2.52228 -7.1705 2.12834 
2.37738 -7.19217 2.84985 
2.27816 -7.17959 2.62528 
2.15217 -7.17971 2.76193 
2.04943 -7.17779 2.82061 
1.91923 -7.18423 3.12732 
1.81809 -7.17596 3.01773 
1.59086 -7.17353 3.19473 
1.45911 -7.18485 3.6311 
1.36202 -7.17609 3.50456 
1.23452 -7.17629 3.64488 
1.13493 -7.17438 3.70048 
1.00975 -7.17384 3.81881 
0.91067 -7.16976 3.81697 
0.681826 -7.16841 4.0244 
0.554854 -7.16959 4.18996 
0.454632 -7.16581 4.19697 
0.328913 -7.15953 4.1659 
0.230641 -7.1585 4.24317 
0.106468 -7.15567 4.30051 
0.00704061 -7.15527 4.3956 
-0.21638 -7.14865 4.45894 
-0.341959 -7.14397 4.46961 
-0.440712 -7.13961 4.46 
-0.566797 -7.13134 4.37711 
-0.665888 -7.13204 4.50047 
-0.791022 -7.12639 4.48512 
-0.892722 -7.12099 4.45146 
-1.11501 -7.11439 4.51453 
-1.23965 -7.10814 4.48281 
-1.33817 -7.10602 4.53186 
-1.46448 -7.09603 4.40406 
-1.56124 -7.09526 4.48678 
-1.68551 -7.08794 4.42655 
-1.78609 -7.08311 4.40679 
-2.00905 -7.07675 4.47673 
-2.13891 -7.05945 4.16118 
-2.23917 -7.05662 4.19357 
-2.37505 -7.029 3.61351 
-2.46757 -7.04073 4.01931 
-2.6279 -6.97864 2.56179 
-2.86139 -6.95981 2.31625 
-2.96529 -6.95211 2.22464 
-3.09465 -6.94412 2.15258 
-3.201 -6.9347 2.01854 
-3.33916 -6.90782 1.46054 
-3.43748 -6.91414 1.7308 
-3.56991 -6.89738 1.43217 
-3.67114 -6.89837 1.56563 
-3.79897 -6.89668 1.65696 
-3.89968 -6.89134 1.62414 
-4.02563 -6.88932 1.705 
-4.12778 -6.8845 1.68703 
-4.25541 -6.88063 1.72129 
-4.36236 -6.8711 1.58501 
-4.4848 -6.8724 1.74927 
-4.58403 -6.87174 1.83751 
-4.71629 -6.86295 1.74771 
-4.81935 -6.85744 1.71265 
-4.94331 -6.85573 1.79965 
-5.04657 -6.85087 1.78208 
-5.18238 -6.83752 1.5763 
-5.27984 -6.84024 1.75124 
-5.40671 -6.83391 1.72018 
-5.50906 -6.83061 1.74257 
-5.72936 -6.82922 1.94037 
-5.85535 -6.82624 1.99624 
-5.9624 -6.81792 1.89195 
-6.09148 -6.811 1.84774 
-6.18582 -6.81376 2.02053 
-6.31671 -6.80563 1.94669 
-6.42008 -6.80153 1.94921 
-6.63095 -6.80451 2.25167 
-6.75126 -6.80475 2.386 
-6.85946 -6.79738 2.30794 
-7.00462 -6.78047 2.01882 
-7.09664 -6.78332 2.19151 
4.82696 -7.08721 -1.50689 
4.5643 -7.10922 -0.659085 
4.46528 -7.09547 -0.912466 
4.30948 -7.122 -0.0591441 
4.22964 -7.08907 -0.831222 
4.07711 -7.11531 0.0112396 
3.96892 -7.11347 0.0770616 
3.82139 -7.12773 0.602674 
3.73627 -7.10729 0.160876 
3.5898 -7.12124 0.677608 
3.48318 -7.11728 0.686844 
3.34247 -7.12732 1.09582 
3.23643 -7.12727 1.20598 
3.12074 -7.10682 0.796042 
3.03002 -7.08867 0.419658 
2.8767 -7.1175 1.33029 
2.78013 -7.10499 1.1067 
2.3828 -7.14691 2.61459 
2.28489 -7.14072 2.55652 
2.15007 -7.14895 2.91247 
2.05071 -7.14136 2.81963 
1.92096 -7.14566 3.06819 
1.81985 -7.13974 3.02065 
1.6896 -7.14854 3.3865 
1.5906 -7.14297 3.34608 
1.46269 -7.14612 3.56252 
1.36286 -7.14267 3.57804 
1.23529 -7.14985 3.89891 
1.1361 -7.14043 3.75841 
1.01304 -7.1354 3.75721 
0.909192 -7.13306 3.80573 
0.684328 -7.13373 4.06011 
0.557663 -7.13505 4.22788 
0.455007 -7.13396 4.30772 
0.331495 -7.12384 4.17466 
0.233133 -7.1228 4.25123 
0.106965 -7.12175 4.35688 
0.00919857 -7.11752 4.34995 
-0.115925 -7.11395 4.38896 
-0.215054 -7.11033 4.39922 
-0.341408 -7.1113 4.55746 
-0.44033 -7.10572 4.51678 
-0.564435 -7.09659 4.41 
-0.665335 -7.09421 4.45455 
-0.788984 -7.09177 4.52159 
-0.888093 -7.0882 4.53301 
-1.11302 -7.07759 4.49437 
-1.23693 -7.07273 4.4987 
-1.33603 -7.06932 4.51451 
-1.46272 -7.06182 4.45286 
-1.55839 -7.06144 4.54384 
-1.68473 -7.05146 4.41777 
-1.78376 -7.04991 4.48191 
-2.00779 -7.03927 4.44136 
-2.13705 -7.02284 4.1505 
-2.23709 -7.02147 4.22031 
-2.46683 -6.99992 3.90233 
-2.61976 -6.95139 2.80157 
-2.95963 -6.92313 2.42518 
-3.09602 -6.90364 2.06217 
-3.19484 -6.90045 2.08355 
-3.33794 -6.8718 1.48955 
-3.43337 -6.88207 1.85729 
-3.57134 -6.85837 1.38644 
-3.67016 -6.86228 1.59243 
-3.79714 -6.85848 1.62765 
-3.90097 -6.85062 1.53273 
-4.02728 -6.84866 1.6151 
-4.12894 -6.84563 1.64377 
-4.2574 -6.84004 1.63402 
-4.35475 -6.84216 1.79173 
-4.48233 -6.83595 1.76517 
-4.58056 -6.83517 1.84839 
-4.71237 -6.82644 1.7607 
-4.81883 -6.82042 1.71647 
-4.9492 -6.81213 1.63853 
-5.04488 -6.81343 1.77345 
-5.18103 -6.80173 1.61299 
-5.2761 -6.80432 1.78075 
-5.40205 -6.80027 1.80826 
-5.49759 -6.8015 1.94134 
-5.6313 -6.79123 1.81531 
-5.72152 -6.79721 2.06624 
-5.85389 -6.78773 1.95948 
-5.94799 -6.79044 2.12958 
-6.08398 -6.7787 1.96769 
-6.19023 -6.77244 1.9173 
-6.31509 -6.76991 1.98342 
-6.41597 -6.76667 2.00575 
-6.51894 -6.77891 2.43301 
-6.62732 -6.7686 2.27938 
-6.75197 -6.76662 2.35967 
-6.85545 -6.76183 2.34444 
-6.99431 -6.74848 2.14396 
-7.08685 -6.75162 2.32347 
-7.32521 -6.73685 2.19125 
4.80714 -7.07287 -0.885601 
4.47173 -7.05299 -1.04816 
4.31116 -7.08492 -0.0574004 
4.21964 -7.06497 -0.476157 
4.06982 -7.08692 0.246142 
3.96841 -7.07821 0.127605 
3.82857 -7.08634 0.483138 
3.73199 -7.07523 0.297633 
3.58298 -7.09087 0.856451 
3.49126 -7.07505 0.544245 
3.34688 -7.0896 1.07032 
3.24766 -7.08218 0.982808 
3.12515 -7.0682 0.750139 
3.03244 -7.04985 0.373812 
2.89377 -7.05991 0.778114 
2.78421 -7.0664 1.0601 
2.52354 -7.09894 2.17154 
2.38543 -7.11146 2.63879 
2.28252 -7.1105 2.72179 
2.15283 -7.10904 2.81954 
2.05279 -7.10519 2.82501 
1.92373 -7.1088 3.05307 
1.82269 -7.10271 3.00149 
1.69311 -7.10952 3.3127 
1.59359 -7.10088 3.19398 
1.46441 -7.10796 3.51158 
1.36474 -7.10738 3.60105 
1.23902 -7.1048 3.66604 
1.13895 -7.10474 3.76919 
1.01408 -7.09523 3.65435 
0.909318 -7.10249 3.95134 
0.784156 -7.1036 4.11079 
0.684452 -7.09485 3.98957 
0.557538 -7.10235 4.31568 
0.45743 -7.09797 4.30742 
0.333121 -7.08908 4.20828 
0.234422 -7.08673 4.25098 
0.109094 -7.08026 4.21536 
0.0103505 -7.08592 4.46458 
-0.114831 -7.07879 4.41183 
-0.213286 -7.0766 4.45833 
-0.338178 -7.07139 4.45479 
-0.438384 -7.06917 4.50224 
-0.562699 -7.06014 4.39942 
-0.663206 -7.05188 4.29165 
-0.786709 -7.05194 4.42261 
-0.887163 -7.05398 4.58049 
-1.11116 -7.04265 4.52264 
-1.23502 -7.03872 4.551 
-1.33469 -7.0325 4.49493 
-1.4605 -7.02626 4.46581 
-1.55668 -7.02388 4.50527 
-1.68168 -7.01837 4.49387 
-1.78215 -7.01097 4.40829 
-2.00885 -6.99876 4.33074 
-2.13482 -6.98899 4.21088 
-2.23732 -6.98156 4.12643 
-2.36516 -6.96769 3.90278 
-2.46506 -6.96349 3.89896 
-2.9609 -6.88115 2.2946 
-3.09955 -6.85869 1.86035 
-3.19376 -6.86191 2.04227 
-3.33113 -6.84345 1.71009 
-3.43277 -6.84202 1.77954 
-3.57074 -6.8191 1.33288 
-3.67036 -6.82107 1.48825 
-3.79155 -6.82605 1.74368 
-3.90029 -6.81378 1.54118 
-4.02458 -6.81439 1.68729 
-4.12484 -6.81236 1.73993 
-4.25562 -6.80249 1.62246 
-4.35497 -6.80104 1.68945 
-4.48087 -6.79989 1.79161 
-4.58476 -6.79255 1.71134 
-4.71212 -6.78996 1.77801 
-4.81867 -6.78049 1.64557 
-4.93943 -6.78215 1.81492 
-5.04198 -6.7788 1.83606 
-5.177 -6.76617 1.65186 
-5.27331 -6.76828 1.80755 
-5.40698 -6.75718 1.66144 
-5.49847 -6.76227 1.88868 
-5.63083 -6.75298 1.78782 
-5.72707 -6.75426 1.92178 
-5.85023 -6.7513 1.97466 
-5.95616 -6.74612 1.9524 
-6.08446 -6.74137 1.96438 
-6.19011 -6.73485 1.907 
-6.30536 -6.7388 2.12993 
-6.41291 -6.72966 2.00695 
-6.75612 -6.72582 2.26835 
4.83638 -7.01027 -1.55922 
4.59371 -7.00881 -1.34506 
4.47372 -7.01517 -1.05786 
4.3098 -7.05028 0.0103107 
4.07472 -7.04664 0.160837 
3.97451 -7.03756 0.0326463 
3.84918 -7.03339 0.0559716 
3.73184 -7.04066 0.363694 
3.59522 -7.04227 0.546669 
3.49009 -7.04495 0.724304 
3.35102 -7.05092 1.02132 
3.24593 -7.04876 1.07512 
3.11811 -7.04184 1.0308 
3.03431 -7.01237 0.363695 
2.88863 -7.03283 1.03833 
2.78635 -7.02838 1.03069 
2.52621 -7.06121 2.14089 
2.38433 -7.07979 2.76353 
2.28547 -7.07228 2.67403 
2.15294 -7.07766 2.94931 
2.05451 -7.06891 2.82756 
1.92324 -7.0748 3.1146 
1.82229 -7.07011 3.0995 
1.69466 -7.07252 3.29381 
1.59401 -7.06861 3.29833 
1.46483 -7.07832 3.68107 
1.36595 -7.07296 3.64653 
1.24007 -7.07226 3.75942 
1.14126 -7.06517 3.68072 
1.01287 -7.07059 3.95296 
0.912484 -7.05836 3.74441 
0.68775 -7.06055 4.03399 
0.559707 -7.06275 4.22339 
0.458743 -7.06094 4.28194 
0.334782 -7.05437 4.24263 
0.235454 -7.05364 4.32723 
0.110218 -7.04829 4.32064 
0.0118386 -7.04785 4.41165 
-0.112796 -7.04794 4.54352 
-0.212148 -7.04313 4.52376 
-0.33581 -7.03438 4.42861 
-0.438186 -7.02939 4.40721 
-0.561082 -7.0243 4.40485 
-0.661512 -7.02228 4.45775 
-0.785105 -7.01712 4.45416 
-0.885483 -7.01822 4.58672 
-1.10956 -7.00668 4.52465 
-1.23339 -7.00579 4.63067 
-1.33344 -6.99458 4.44783 
-1.45876 -6.98998 4.46063 
-1.55525 -6.98679 4.47941 
-1.68109 -6.98201 4.488 
-1.77896 -6.98016 4.5425 
-2.00594 -6.96724 4.448 
-2.13388 -6.95198 4.19069 
-2.23355 -6.94916 4.22222 
-2.36052 -6.93591 4.01544 
-2.46179 -6.93181 4.01584 
-3.09464 -6.82722 1.99804 
-3.1949 -6.82142 1.95408 
-3.32611 -6.81187 1.84623 
-3.43389 -6.80383 1.75263 
-3.56862 -6.78373 1.37851 
-3.66704 -6.78443 1.49905 
-3.78888 -6.78666 1.68295 
-3.8938 -6.78279 1.69322 
-4.02502 -6.77381 1.59996 
-4.12828 -6.76602 1.50821 
-4.25432 -6.76587 1.63576 
-4.35505 -6.76365 1.68386 
-4.478 -6.76289 1.7924 
-4.58439 -6.75518 1.70587 
-4.70934 -6.75433 1.81437 
-4.81017 -6.7498 1.8034 
-4.94146 -6.74073 1.70821 
-5.04783 -6.73494 1.67085 
-5.1721 -6.7319 1.72248 
-5.27362 -6.72965 1.77091 
-5.40084 -6.72434 1.76755 
-5.49673 -6.72399 1.85843 
-5.72708 -6.71538 1.87836 
-5.84891 -6.71453 1.98368 
-5.95067 -6.71254 2.03865 
-6.08048 -6.70468 1.97292 
-6.18193 -6.70023 1.96475 
-6.31023 -6.69612 1.9935 
-6.41003 -6.69283 2.01335 
-6.7488 -6.69293 2.36915 
-6.99484 -6.67181 2.08515 
-7.08404 -6.67641 2.29596 
-7.31845 -6.66468 2.24044 
4.84195 -6.97182 -1.58481 
4.57073 -6.99505 -0.715958 
4.48312 -6.97327 -1.17855 
4.32559 -7.00118 -0.308009 
4.07092 -7.0156 0.320531 
3.98586 -6.99318 -0.160824 
3.84321 -7.00215 0.213647 
3.74857 -6.98983 -0.00137234 
3.59423 -7.01194 0.718756 
3.4916 -7.00585 0.670117 
3.35376 -7.01134 0.951674 
3.24412 -7.01378 1.12665 
3.12021 -7.00447 1.01795 
3.03566 -6.97691 0.405672 
2.90346 -6.97921 0.600493 
2.78125 -7.00097 1.27875 
2.6212 -7.0411 2.46234 
2.52709 -7.02783 2.22262 
2.38604 -7.04124 2.70855 
2.2866 -7.0371 2.70603 
2.15526 -7.04282 2.98676 
2.0575 -7.0317 2.80545 
1.92568 -7.04001 3.15242 
1.82575 -7.03241 3.06268 
1.69527 -7.04197 3.44003 
1.59539 -7.03483 3.36197 
1.4675 -7.0368 3.54382 
1.36831 -7.03451 3.58827 
1.24274 -7.03221 3.65948 
1.14303 -7.03138 3.74137 
1.01466 -7.03355 3.92891 
0.912032 -7.03207 3.99741 
0.789277 -7.03186 4.11871 
0.688785 -7.02816 4.12851 
0.561591 -7.02964 4.29745 
0.460637 -7.02507 4.28588 
0.337369 -7.0182 4.23877 
0.237904 -7.01656 4.2998 
0.112225 -7.01394 4.36311 
0.0134602 -7.01492 4.49009 
-0.111175 -7.01296 4.56902 
-0.210625 -7.00644 4.50627 
-0.335533 -7.00248 4.53479 
-0.434935 -6.99672 4.49122 
-0.559294 -6.99069 4.46657 
-0.659258 -6.98973 4.54571 
-0.78351 -6.98043 4.4379 
-0.884241 -6.97656 4.44382 
-1.00765 -6.97349 4.49336 
-1.10747 -6.97236 4.56785 
-1.23174 -6.96518 4.5141 
-1.33004 -6.96416 4.5898 
-1.45673 -6.95528 4.49517 
-1.55243 -6.95493 4.58534 
-1.67984 -6.94286 4.4105 
-1.7766 -6.94624 4.59641 
-2.0045 -6.92875 4.3879 
-2.1311 -6.91608 4.19732 
-2.2297 -6.91659 4.31225 
-2.36087 -6.8967 3.94283 
-2.46016 -6.89346 3.96322 
-3.09301 -6.79003 1.99154 
-3.19574 -6.78177 1.88827 
-3.32987 -6.76589 1.62364 
-3.43112 -6.7663 1.73899 
-3.56269 -6.75239 1.52183 
-3.66341 -6.75103 1.5915 
-3.78523 -6.75258 1.75694 
-3.8924 -6.74397 1.64907 
-4.02116 -6.7391 1.65877 
-4.12186 -6.73668 1.70153 
-4.24782 -6.73224 1.71917 
-4.35703 -6.72469 1.64056 
-4.47601 -6.72648 1.80912 
-4.57547 -6.72401 1.84936 
-4.70471 -6.72006 1.88297 
-4.81266 -6.70962 1.72956 
-4.93898 -6.70559 1.75803 
-5.04437 -6.69971 1.71766 
-5.16999 -6.69738 1.78857 
-5.2779 -6.68743 1.64765 
-5.40091 -6.68588 1.73585 
-5.50112 -6.68552 1.8305 
-5.61625 -6.68846 2.02425 
-5.7216 -6.6817 1.9618 
-5.84793 -6.67817 2.00304 
-5.95085 -6.67467 2.02072 
-6.07739 -6.66895 2.00666 
-6.18079 -6.66227 1.94417 
-6.29919 -6.66643 2.1724 
-6.40288 -6.66054 2.13029 
-6.51809 -6.66473 2.35599 
-6.75694 -6.6483 2.18641 
-6.98938 -6.63795 2.16431 
-7.08697 -6.63609 2.21824 
-7.31336 -6.62983 2.29414 
4.84072 -6.93563 -1.5463 
4.58079 -6.95226 -0.861685 
4.4796 -6.93775 -1.12355 
4.33397 -6.95557 -0.525708 
4.08984 -6.96351 -0.0757368 
3.98297 -6.96107 -0.0278229 
3.84919 -6.96133 0.115721 
3.74771 -6.95455 0.0489176 
3.60291 -6.96267 0.401698 
3.49487 -6.96701 0.621667 
3.35799 -6.97198 0.887072 
3.24114 -6.97837 1.16769 
3.12464 -6.9655 0.962953 
3.04211 -6.93654 0.318059 
2.62997 -6.99729 2.27051 
2.53294 -6.98656 2.09959 
2.39221 -6.99942 2.56771 
2.28202 -7.00502 2.8217 
2.1592 -7.00509 2.94952 
2.05673 -6.99738 2.86031 
1.92979 -6.99686 2.97748 
1.82579 -6.99934 3.14648 
1.59731 -6.99952 3.38538 
1.46918 -7.00335 3.61312 
1.37037 -6.99904 3.60599 
1.24436 -6.99689 3.68109 
1.14391 -6.99416 3.71538 
1.01735 -6.99495 3.86523 
0.91393 -6.9947 3.96493 
0.688987 -6.9889 4.04965 
0.562593 -6.99419 4.31253 
0.462413 -6.98774 4.25292 
0.338248 -6.98572 4.32944 
0.239928 -6.98328 4.36883 
0.112888 -6.98149 4.45429 
0.0155603 -6.97683 4.43662 
-0.108899 -6.97247 4.45464 
-0.208231 -6.9724 4.55484 
-0.333545 -6.96558 4.51175 
-0.432276 -6.9637 4.56568 
-0.55734 -6.95587 4.49685 
-0.657717 -6.95002 4.45246 
-0.781955 -6.94967 4.57129 
-0.882412 -6.9483 4.64 
-1.10528 -6.93507 4.53554 
-1.2301 -6.93145 4.57266 
-1.32767 -6.93055 4.65017 
-1.45496 -6.9174 4.44954 
-1.55169 -6.91747 4.55062 
-1.67813 -6.90829 4.44928 
-1.77632 -6.90544 4.47841 
-2.00269 -6.89556 4.46198 
-2.13203 -6.87361 4.04198 
-2.22924 -6.87995 4.30154 
-2.35782 -6.86442 4.04264 
-2.45586 -6.862 4.08229 
-3.08812 -6.75375 2.005 
-3.18909 -6.75366 2.1066 
-3.32712 -6.73058 1.66685 
-3.43135 -6.7246 1.62346 
-3.56103 -6.71472 1.50787 
-3.66377 -6.71281 1.56536 
-3.78463 -6.71316 1.69849 
-3.88823 -6.7092 1.70512 
-4.01245 -6.70799 1.80231 
-4.12185 -6.69865 1.67944 
-4.24438 -6.69835 1.79814 
-4.35778 -6.68243 1.51349 
-4.47416 -6.69033 1.83234 
-4.57156 -6.69085 1.94546 
-4.70289 -6.68114 1.83591 
-4.80761 -6.67632 1.82228 
-4.93618 -6.67119 1.82524 
-5.03516 -6.66923 1.87776 
-5.16332 -6.66245 1.83888 
-5.2686 -6.65627 1.79143 
-5.39378 -6.6541 1.86542 
-5.49755 -6.64746 1.80509 
-5.7259 -6.64074 1.87076 
-5.85142 -6.63666 1.89714 
-5.94911 -6.63656 1.99501 
-6.08533 -6.62458 1.8334 
-6.17773 -6.62704 1.99064 
-6.30194 -6.62661 2.10762 
-6.41312 -6.61576 1.94854 
-6.74135 -6.62117 2.42296 
-7.08523 -6.59991 2.24128 
-7.31184 -6.59213 2.2788 
4.58523 -6.90956 -0.997102 
4.47556 -6.90711 -0.946753 
4.33524 -6.92108 -0.454935 
4.23859 -6.90262 -0.817738 
4.08458 -6.93226 0.0795057 
3.84975 -6.92381 0.107189 
3.73455 -6.9316 0.419047 
3.60214 -6.92841 0.474054 
3.50453 -6.92348 0.450142 
3.35501 -6.94011 1.01796 
3.24826 -6.93853 1.08718 
3.1268 -6.92886 0.969069 
3.04358 -6.89831 0.29066 
2.78627 -6.92542 1.22989 
2.62449 -6.96776 2.45272 
2.38991 -6.97036 2.75663 
2.29358 -6.95602 2.49651 
2.15885 -6.96713 2.91115 
2.05972 -6.96163 2.87476 
1.92938 -6.96359 3.05647 
1.82861 -6.95861 3.03475 
1.59834 -6.96424 3.41022 
1.47046 -6.96684 3.60544 
1.37084 -6.96628 3.69295 
1.24613 -6.96126 3.69471 
1.14641 -6.95881 3.73493 
1.0217 -6.96004 3.89299 
0.917533 -6.95551 3.88578 
0.690775 -6.95922 4.20983 
0.563862 -6.96191 4.40625 
0.464203 -6.95462 4.32578 
0.339772 -6.95036 4.3463 
0.241352 -6.94389 4.28486 
0.115933 -6.94215 4.36939 
0.0171818 -6.93921 4.3964 
-0.107248 -6.94056 4.55726 
-0.208414 -6.93789 4.5936 
-0.332247 -6.93417 4.62688 
-0.431468 -6.92571 4.51676 
-0.555958 -6.91674 4.41961 
-0.657033 -6.92069 4.62128 
-0.780338 -6.91322 4.56035 
-0.880002 -6.91049 4.59381 
-1.00415 -6.90551 4.59599 
-1.10415 -6.89896 4.53452 
-1.2279 -6.89713 4.61492 
-1.32708 -6.89171 4.58066 
-1.45286 -6.88476 4.53543 
-1.54932 -6.88342 4.60019 
-1.67581 -6.8718 4.43893 
-1.77602 -6.86892 4.46915 
-2.00116 -6.86097 4.50043 
-2.12829 -6.84316 4.18496 
-2.22769 -6.84253 4.27082 
-2.35686 -6.82572 3.98246 
-2.45316 -6.82864 4.15373 
-3.08876 -6.71958 2.07662 
-3.1894 -6.71304 2.01587 
-3.32526 -6.69322 1.65912 
-3.42611 -6.69295 1.75554 
-3.56161 -6.67635 1.47891 
-3.66325 -6.67543 1.5598 
-3.78461 -6.67385 1.64409 
-3.88787 -6.67305 1.72965 
-4.0151 -6.66769 1.72555 
-4.11717 -6.6636 1.72764 
-4.24597 -6.66236 1.82823 
-4.35878 -6.6426 1.44967 
-4.47603 -6.65158 1.79403 
-4.56792 -6.65521 1.97856 
-4.70349 -6.64252 1.7999 
-4.80625 -6.63953 1.83014 
-4.93492 -6.6313 1.75601 
-5.03356 -6.6324 1.88422 
-5.165 -6.62307 1.78547 
-5.26219 -6.6233 1.89061 
-5.39217 -6.61645 1.85222 
-5.48926 -6.61652 1.9532 
-5.61187 -6.61654 2.079 
-5.71789 -6.60823 1.97976 
-5.84339 -6.60586 2.0488 
-5.94614 -6.60102 2.03277 
-6.07456 -6.59362 1.97914 
-6.17291 -6.59312 2.06724 
-6.30107 -6.58837 2.07956 
-6.39879 -6.5876 2.16034 
-6.51045 -6.59298 2.40903 
-6.60789 -6.5917 2.47691 
-6.74011 -6.58402 2.41999 
-6.83825 -6.58197 2.46927 
-6.98841 -6.56185 2.11981 
-7.07806 -6.5661 2.31788 
-7.30281 -6.55956 2.38438 
4.85591 -6.85033 -1.80888 
4.58448 -6.87442 -0.937464 
4.48095 -6.86548 -1.05458 
4.3509 -6.86902 -0.835356 
4.24487 -6.86139 -0.917352 
4.09807 -6.88337 -0.224149 
3.99121 -6.87965 -0.208213 
3.84956 -6.88837 0.151068 
3.7434 -6.88918 0.278648 
3.60245 -6.89473 0.558696 
3.49576 -6.89762 0.738273 
3.35732 -6.90355 1.0254 
3.25392 -6.89832 1.00019 
3.12753 -6.89352 1.0091 
3.01312 -6.90436 1.39363 
2.79266 -6.88167 1.054 
2.63085 -6.92431 2.27512 
2.5397 -6.90967 2.00428 
2.39056 -6.93936 2.89164 
2.29085 -6.92794 2.70929 
2.16295 -6.92515 2.76951 
2.05963 -6.92813 2.94795 
1.9319 -6.92938 3.10841 
1.83128 -6.92674 3.14474 
1.7005 -6.9323 3.41516 
1.60095 -6.92673 3.37779 
1.47119 -6.92773 3.53393 
1.37321 -6.92816 3.64383 
1.2469 -6.93026 3.82382 
1.14638 -6.92247 3.73233 
1.02151 -6.92382 3.89243 
0.918365 -6.91919 3.88204 
0.7916 -6.92588 4.17623 
0.691572 -6.91817 4.08659 
0.565995 -6.92095 4.28261 
0.466207 -6.91745 4.29692 
0.340118 -6.92034 4.49628 
0.241926 -6.91316 4.41784 
0.116557 -6.90939 4.45141 
0.0191409 -6.90655 4.47956 
-0.106863 -6.90311 4.5221 
-0.208549 -6.90078 4.56731 
-0.32956 -6.90081 4.69079 
-0.430087 -6.89565 4.66467 
-0.553907 -6.88681 4.57087 
-0.655071 -6.88188 4.5511 
-0.778441 -6.87397 4.47998 
-0.878861 -6.87631 4.6399 
-1.00269 -6.86959 4.59884 
-1.10227 -6.86477 4.58015 
-1.22646 -6.86003 4.58856 
-1.325 -6.85635 4.59734 
-1.45186 -6.8472 4.49884 
-1.54766 -6.84857 4.63009 
-1.67321 -6.84061 4.55993 
-1.77312 -6.83242 4.45818 
-1.89714 -6.82971 4.51663 
-2.00133 -6.81993 4.37987 
-2.12573 -6.80873 4.22834 
-2.22514 -6.80848 4.3229 
-2.35451 -6.79078 4.01512 
-2.45383 -6.78623 4.00301 
-3.08714 -6.68259 2.07478 
-3.18773 -6.67573 2.00691 
-3.32323 -6.65539 1.63967 
-3.42682 -6.65225 1.66699 
-3.55774 -6.64091 1.51854 
-3.6609 -6.63752 1.53928 
-3.7809 -6.64175 1.76591 
-3.88818 -6.63207 1.63484 
-4.0156 -6.62913 1.69128 
-4.11963 -6.62271 1.63764 
-4.23428 -6.63344 2.02024 
-4.35794 -6.6057 1.45751 
-4.47114 -6.61566 1.81954 
-4.56357 -6.61965 2.01236 
-4.7057 -6.60409 1.77086 
-4.80429 -6.60203 1.81992 
-4.93236 -6.59555 1.7892 
-5.03063 -6.59653 1.91327 
-5.15891 -6.59055 1.8951 
-5.26328 -6.58524 1.86962 
-5.39537 -6.57482 1.74533 
-5.48908 -6.57915 1.94779 
-5.61192 -6.57687 2.01613 
-5.71957 -6.56896 1.92934 
-5.83867 -6.5723 2.13318 
-5.94344 -6.56413 2.03705 
-6.07185 -6.55852 2.02813 
-6.16695 -6.56126 2.19282 
-6.29285 -6.55689 2.2125 
-6.39999 -6.54747 2.08756 
-6.61258 -6.55088 2.3885 
-6.74485 -6.54232 2.31045 
-6.83927 -6.5434 2.43323 
-6.98373 -6.52684 2.16941 
-7.07886 -6.52772 2.28778 
4.86479 -6.80841 -1.92042 
4.5887 -6.83539 -0.979566 
4.35464 -6.82997 -0.877804 
4.23981 -6.83156 -0.723462 
4.08335 -6.86156 0.17182 
3.99485 -6.83836 -0.310089 
3.84918 -6.85639 0.279939 
3.76002 -6.83679 -0.11268 
3.59989 -6.86293 0.691413 
3.51076 -6.847 0.388912 
3.36176 -6.86211 0.910542 
3.25593 -6.86351 1.0513 
3.103 -6.88668 1.77512 
2.79207 -6.84829 1.14317 
2.62801 -6.89425 2.43898 
2.53865 -6.87699 2.10413 
2.39554 -6.89363 2.65771 
2.29473 -6.88642 2.58156 
2.16252 -6.8934 2.88641 
2.06302 -6.8891 2.88051 
1.93303 -6.89184 3.07883 
1.83337 -6.8866 3.05012 
1.7012 -6.89834 3.47203 
1.60173 -6.89251 3.42863 
1.4727 -6.89627 3.65091 
1.37433 -6.8936 3.68437 
1.24974 -6.8889 3.69399 
1.14973 -6.88872 3.79017 
1.02375 -6.88996 3.94763 
0.919466 -6.8854 3.94022 
0.694701 -6.88471 4.14947 
0.568176 -6.88459 4.2741 
0.468968 -6.87995 4.25968 
0.342362 -6.8789 4.36132 
0.244371 -6.87519 4.36882 
0.118318 -6.87542 4.50142 
0.0206005 -6.86583 4.36378 
-0.203017 -6.86747 4.62918 
-0.327977 -6.86294 4.64356 
-0.427636 -6.85913 4.65035 
-0.552528 -6.84979 4.54617 
-0.652813 -6.84667 4.57039 
-0.776468 -6.84399 4.62897 
-0.87668 -6.83655 4.54688 
-1.10054 -6.83153 4.64898 
-1.22459 -6.82552 4.62603 
-1.32314 -6.82153 4.627 
-1.44851 -6.81569 4.60963 
-1.54439 -6.81694 4.73701 
-1.67251 -6.80155 4.48728 
-1.77133 -6.79843 4.51018 
-1.99823 -6.78763 4.47298 
-2.12534 -6.77034 4.17568 
-2.22347 -6.76881 4.23681 
-2.35336 -6.754 4.00331 
-2.451 -6.75403 4.10256 
-3.18748 -6.63683 1.96021 
-3.32172 -6.61724 1.61332 
-3.42232 -6.6198 1.77784 
-3.55837 -6.60504 1.5518 
-3.66365 -6.59605 1.43665 
-3.77495 -6.60939 1.87723 
-3.88327 -6.59861 1.72129 
-4.01607 -6.59105 1.66917 
-4.11202 -6.59068 1.75685 
-4.24274 -6.58448 1.73606 
-4.35069 -6.57437 1.59606 
-4.46884 -6.57848 1.81642 
-4.56203 -6.58323 2.02759 
-4.7026 -6.56957 1.83315 
-4.80132 -6.56536 1.82895 
-4.93301 -6.55958 1.81956 
-5.03097 -6.55722 1.86045 
-5.15858 -6.54989 1.80889 
-5.2574 -6.54977 1.9056 
-5.38926 -6.54291 1.86998 
-5.48438 -6.54351 1.98056 
-5.60655 -6.54344 2.10223 
-5.7096 -6.53836 2.08139 
-5.84343 -6.53001 2.011 
-5.93743 -6.52943 2.09148 
-6.07339 -6.51997 1.99584 
-6.16922 -6.5194 2.07863 
-6.29795 -6.51455 2.08928 
-6.39075 -6.51629 2.22585 
-6.51006 -6.51784 2.38462 
-6.61118 -6.51485 2.41323 
-6.73129 -6.51312 2.49202 
-6.83791 -6.50758 2.46312 
-7.07344 -6.49195 2.31634 
-7.30804 -6.48067 2.27569 
5.52635 -6.75476 -2.9675 
5.36041 -6.77498 -2.3086 
5.11189 -6.77657 -2.02178 
4.99509 -6.77953 -1.83305 
4.87413 -6.7661 -2.0405 
4.61781 -6.77186 -1.64411 
4.4981 -6.77906 -1.34875 
4.34663 -6.80213 -0.634208 
4.25034 -6.78419 -0.97633 
3.86358 -6.80631 -0.049894 
3.7619 -6.80195 -0.0549597 
3.60457 -6.82033 0.551093 
3.50315 -6.82221 0.698072 
3.25762 -6.82922 1.11452 
3.00442 -6.84667 1.79379 
2.88963 -6.82341 1.34053 
2.78943 -6.81438 1.21996 
2.63685 -6.84909 2.22015 
2.54041 -6.83971 2.08745 
2.39635 -6.85827 2.68478 
2.29627 -6.85025 2.58891 
2.16647 -6.85442 2.82054 
2.06506 -6.85007 2.81549 
1.93203 -6.86191 3.23776 
1.83503 -6.84864 3.01075 
1.70348 -6.85968 3.41194 
1.60649 -6.84821 3.22876 
1.47311 -6.86445 3.75876 
1.37633 -6.85807 3.69972 
1.25087 -6.85626 3.78093 
1.15157 -6.84874 3.69651 
1.02307 -6.85733 4.03489 
0.924377 -6.84941 3.9402 
0.79416 -6.85802 4.28069 
0.698644 -6.84586 4.07929 
0.569748 -6.85213 4.36144 
0.470805 -6.84301 4.23778 
0.344251 -6.84628 4.4443 
0.245683 -6.8394 4.37473 
0.120076 -6.83851 4.47874 
0.022119 -6.83539 4.50048 
-0.104077 -6.83489 4.61461 
-0.20301 -6.82754 4.53418 
-0.326172 -6.82475 4.58938 
-0.426353 -6.82051 4.58593 
-0.550883 -6.81387 4.54841 
-0.651387 -6.80899 4.52983 
-0.775041 -6.80614 4.58404 
-0.874173 -6.80646 4.69123 
-1.09963 -6.79097 4.53864 
-1.22365 -6.78963 4.62994 
-1.32091 -6.78746 4.67434 
-1.4471 -6.77784 4.56586 
-1.54364 -6.77684 4.63816 
-1.67097 -6.76491 4.4742 
-1.76798 -6.76619 4.60272 
-1.99728 -6.74719 4.36823 
-2.12322 -6.73424 4.17815 
-2.22257 -6.73258 4.237 
-2.34988 -6.72106 4.08321 
-2.44945 -6.71684 4.07974 
-3.18436 -6.60293 2.03377 
-3.31958 -6.58295 1.68103 
-3.42422 -6.57916 1.69333 
-3.55896 -6.56433 1.46622 
-3.66056 -6.56003 1.463 
-3.77832 -6.5652 1.7073 
-3.88375 -6.56002 1.68654 
-4.00862 -6.55647 1.72496 
-4.11151 -6.55292 1.74135 
-4.23871 -6.54812 1.75164 
-4.35243 -6.53041 1.43287 
-4.46553 -6.54409 1.8807 
-4.56295 -6.54564 2.01624 
-4.70098 -6.53111 1.79974 
-4.80328 -6.52475 1.74678 
-4.92459 -6.52698 1.92313 
-5.02738 -6.52204 1.9055 
-5.15553 -6.51601 1.88664 
-5.25458 -6.5151 1.96395 
-5.39092 -6.5027 1.79775 
-5.48422 -6.50553 1.96051 
-5.60813 -6.50328 2.02991 
-5.71525 -6.49652 1.97205 
-5.8349 -6.49695 2.10264 
-5.93513 -6.49307 2.10843 
-6.07234 -6.48114 1.95472 
-6.16541 -6.48432 2.12595 
-6.28931 -6.48134 2.17742 
-6.38741 -6.48033 2.25126 
-6.50314 -6.48404 2.45812 
-6.61581 -6.47268 2.29367 
-6.83171 -6.47335 2.52673 
-6.98167 -6.45084 2.12719 
-7.31418 -6.43848 2.15926 
5.10005 -6.74951 -1.74976 
5.02351 -6.72177 -2.3461 
4.86001 -6.73981 -1.74704 
4.74161 -6.74589 -1.48228 
4.60491 -6.74615 -1.34032 
4.49728 -6.74396 -1.28659 
4.24656 -6.75381 -0.799224 
4.09531 -6.77895 -0.0400325 
3.98747 -6.77846 0.0550664 
3.85474 -6.77939 0.209303 
3.75289 -6.77446 0.19097 
3.60461 -6.78756 0.655643 
3.51137 -6.77678 0.487015 
3.3698 -6.78645 0.861778 
3.26311 -6.78807 1.00693 
2.89047 -6.78295 1.25289 
2.6367 -6.8162 2.31094 
2.39723 -6.82579 2.78111 
2.29601 -6.81859 2.70732 
2.16585 -6.82145 2.90595 
2.06478 -6.81575 2.86798 
1.93488 -6.82325 3.17884 
1.83796 -6.81454 3.06418 
1.7058 -6.82229 3.38335 
1.60691 -6.81514 3.30832 
1.47505 -6.82663 3.71788 
1.37839 -6.82155 3.69073 
1.2521 -6.82323 3.85706 
1.15343 -6.81628 3.78661 
1.02796 -6.81495 3.87913 
0.925301 -6.80813 3.81589 
0.79729 -6.81745 4.16903 
0.698456 -6.81606 4.23371 
0.572242 -6.81244 4.27132 
0.470896 -6.80953 4.30175 
0.345053 -6.81229 4.49363 
0.248169 -6.79919 4.27261 
0.121374 -6.80169 4.45916 
0.0239646 -6.79878 4.48544 
-0.102219 -6.80109 4.66713 
-0.199779 -6.79654 4.6537 
-0.324851 -6.79421 4.7218 
-0.42536 -6.78169 4.51832 
-0.548681 -6.7767 4.51992 
-0.648776 -6.77471 4.57129 
-0.773347 -6.77106 4.6067 
-0.873705 -6.76875 4.65061 
-1.09696 -6.75836 4.62088 
-1.22108 -6.75307 4.61627 
-1.31869 -6.75253 4.70033 
-1.44568 -6.7416 4.56162 
-1.542 -6.73946 4.60578 
-1.66885 -6.72903 4.47911 
-1.76602 -6.72845 4.5618 
-1.99452 -6.71423 4.44456 
-2.12043 -6.70043 4.23542 
-2.22196 -6.69657 4.24279 
-2.35041 -6.68099 3.99307 
-2.44895 -6.68111 4.09415 
-2.57978 -6.66356 3.79898 
-3.18033 -6.57124 2.15862 
-3.31977 -6.54287 1.60975 
-3.42493 -6.53502 1.52412 
-3.55756 -6.52452 1.40162 
-3.66013 -6.52303 1.4677 
-3.77832 -6.52897 1.72948 
-3.88289 -6.52205 1.66583 
-4.00949 -6.51907 1.71996 
-4.11251 -6.51252 1.66357 
-4.22878 -6.52204 2.01032 
-4.34599 -6.49846 1.5555 
-4.46224 -6.50908 1.92889 
-4.56558 -6.5038 1.9038 
-4.70101 -6.49103 1.72918 
-4.79939 -6.49029 1.80919 
-4.92348 -6.49027 1.93254 
-5.02384 -6.48639 1.9384 
-5.1572 -6.4768 1.83898 
-5.24962 -6.48136 2.04152 
-5.38423 -6.46999 1.90019 
-5.47952 -6.47055 2.00884 
-5.60859 -6.46577 2.02152 
-5.71116 -6.4609 2.0058 
-5.83242 -6.4616 2.14364 
-5.94022 -6.45186 2.01507 
-6.06558 -6.44816 2.0503 
-6.16932 -6.44286 2.02542 
-6.29033 -6.44399 2.17355 
-6.39333 -6.43848 2.14254 
-6.49766 -6.4497 2.51875 
-6.6134 -6.43591 2.29999 
-6.73309 -6.43677 2.44009 
-6.83307 -6.43451 2.48511 
-7.07064 -6.41862 2.33684 
-7.31109 -6.40217 2.17802 
5.78619 -6.67288 -3.36111 
5.63359 -6.68152 -3.00319 
5.56745 -6.65162 -3.65721 
5.36249 -6.69948 -2.30438 
5.26404 -6.6906 -2.4209 
5.13141 -6.68607 -2.39926 
5.02988 -6.68091 -2.42325 
4.88529 -6.68308 -2.22866 
4.75133 -6.70137 -1.65685 
4.60573 -6.70826 -1.34754 
4.49149 -6.71807 -0.999094 
4.35385 -6.72243 -0.758407 
4.25477 -6.70898 -0.984284 
4.09622 -6.74457 0.0279864 
4.00104 -6.72728 -0.294 
3.8526 -6.74589 0.300167 
3.75671 -6.7342 0.113411 
3.59772 -6.75813 0.846062 
3.49653 -6.75592 0.89268 
3.36855 -6.75142 0.91065 
3.26248 -6.75238 1.03838 
3.12526 -6.75641 1.27082 
3.04927 -6.71751 0.410042 
2.79922 -6.73297 1.02867 
2.64095 -6.77382 2.16769 
2.53922 -6.76883 2.14798 
2.39915 -6.79121 2.82464 
2.30112 -6.77555 2.54462 
2.16778 -6.78864 2.99141 
2.06623 -6.78477 2.99842 
1.93699 -6.78511 3.13422 
1.83598 -6.7821 3.16163 
1.70673 -6.78606 3.38449 
1.60845 -6.77686 3.26031 
1.47861 -6.78506 3.58593 
1.38089 -6.78245 3.61956 
1.25637 -6.77348 3.52681 
1.15509 -6.77497 3.66262 
1.02925 -6.78277 3.97476 
0.924497 -6.77883 3.98336 
0.798952 -6.78526 4.26209 
0.697045 -6.78463 4.34765 
0.574021 -6.78011 4.36052 
0.472844 -6.77061 4.23207 
0.347484 -6.77142 4.37546 
0.249046 -6.76919 4.41916 
0.123736 -6.76681 4.48566 
0.0261734 -6.76027 4.42475 
-0.100108 -6.76505 4.66447 
-0.198089 -6.75905 4.6171 
-0.323382 -6.7528 4.59048 
-0.422919 -6.75692 4.78814 
-0.54763 -6.74543 4.63504 
-0.647055 -6.7354 4.49196 
-0.771584 -6.7322 4.53824 
-0.872107 -6.7323 4.63999 
-0.995861 -6.72428 4.56946 
-1.09529 -6.72216 4.61679 
-1.21879 -6.72031 4.69446 
-1.31718 -6.71729 4.71917 
-1.4439 -6.70549 4.56041 
-1.54036 -6.70478 4.63892 
-1.66615 -6.69519 4.53242 
-1.76608 -6.68938 4.49154 
-1.89035 -6.68129 4.41996 
-1.9934 -6.67722 4.42394 
-2.11855 -6.66483 4.24966 
-2.2185 -6.6629 4.3021 
-2.34665 -6.64964 4.10977 
-2.44635 -6.64304 4.04969 
-3.18288 -6.5261 1.96477 
-3.31854 -6.50271 1.53622 
-3.42199 -6.49925 1.55533 
-3.55441 -6.48699 1.39148 
-3.65824 -6.48706 1.49586 
-3.77671 -6.49087 1.70481 
-3.88345 -6.48265 1.61272 
-4.0082 -6.48128 1.70336 
-4.10799 -6.47861 1.73787 
-4.24395 -6.46413 1.52408 
-4.33821 -6.46556 1.65196 
-4.46288 -6.46921 1.86324 
-4.56346 -6.46764 1.92517 
-4.68709 -6.46753 2.04488 
-4.79567 -6.45523 1.85649 
-4.9226 -6.45326 1.93485 
-5.0229 -6.44972 1.94908 
-5.15433 -6.44153 1.88233 
-5.24981 -6.44243 1.99861 
-5.37998 -6.43541 1.95846 
-5.47912 -6.43248 1.98629 
-5.60564 -6.43028 2.05887 
-5.70315 -6.42892 2.12263 
-5.8402 -6.41479 1.91839 
-5.9345 -6.41784 2.08531 
-6.06065 -6.41458 2.13196 
-6.16382 -6.40864 2.0914 
-6.29178 -6.40422 2.11181 
-6.39072 -6.40006 2.1097 
-6.50359 -6.40769 2.40529 
-6.72561 -6.40406 2.53826 
-7.06575 -6.38402 2.39321 
-7.30435 -6.36871 2.26137 
6.03145 -6.64351 -3.39069 
5.89848 -6.64026 -3.33818 
5.78678 -6.63697 -3.30742 
5.6473 -6.6374 -3.16068 
5.55346 -6.62533 -3.35702 
5.36545 -6.66011 -2.34272 
5.27989 -6.64336 -2.65895 
5.11055 -6.66812 -1.90208 
4.9898 -6.67707 -1.57023 
4.87098 -6.65797 -1.90967 
4.76633 -6.65203 -1.94893 
4.59978 -6.67912 -1.13905 
4.4991 -6.67331 -1.17914 
4.34856 -6.69469 -0.521272 
4.26417 -6.66274 -1.20143 
4.09129 -6.71394 0.190407 
4.00339 -6.69037 -0.285985 
3.85635 -6.70771 0.271982 
3.7651 -6.68979 -0.066422 
3.61132 -6.71022 0.572252 
3.52278 -6.69252 0.23647 
3.37004 -6.71419 0.903521 
3.26188 -6.71798 1.10014 
3.12802 -6.71772 1.2254 
3.05276 -6.67766 0.342599 
2.64664 -6.7338 2.08145 
2.40255 -6.75292 2.77763 
2.2975 -6.74903 2.78787 
2.17283 -6.74306 2.76767 
2.06969 -6.74542 2.92504 
1.93804 -6.74874 3.13364 
1.83697 -6.75005 3.26422 
1.70858 -6.75427 3.49093 
1.60989 -6.74825 3.44411 
1.47866 -6.75426 3.71642 
1.38162 -6.74993 3.70827 
1.25577 -6.75056 3.84693 
1.15709 -6.73715 3.62367 
1.02833 -6.74744 3.9959 
0.928373 -6.73804 3.86962 
0.799948 -6.75051 4.29334 
0.702976 -6.73746 4.07712 
0.57561 -6.7422 4.31543 
0.476063 -6.73557 4.25478 
0.349312 -6.73672 4.40675 
0.251082 -6.7334 4.4241 
0.125011 -6.73202 4.51501 
0.0276115 -6.72989 4.55966 
-0.0976989 -6.73296 4.75612 
-0.197599 -6.72028 4.55166 
-0.321958 -6.71898 4.64283 
-0.421057 -6.71169 4.566 
-0.545703 -6.7103 4.65529 
-0.645395 -6.706 4.65061 
-0.769683 -6.70238 4.68632 
-0.870188 -6.69826 4.68668 
-1.09325 -6.68717 4.64123 
-1.21704 -6.68544 4.72161 
-1.31441 -6.68611 4.83339 
-1.44281 -6.66868 4.54324 
-1.53818 -6.66975 4.66275 
-1.66356 -6.66024 4.55873 
-1.76404 -6.65917 4.63199 
-1.99191 -6.63933 4.38231 
-2.11641 -6.63311 4.35617 
-2.21643 -6.62576 4.27909 
-2.34515 -6.61152 4.06557 
-2.44284 -6.61131 4.15656 
-2.57608 -6.59159 3.81677 
-3.17785 -6.49215 2.03352 
-3.32201 -6.46061 1.42206 
-3.41835 -6.46285 1.57036 
-3.55242 -6.4512 1.4242 
-3.65736 -6.44901 1.47508 
-3.77555 -6.45108 1.64091 
-3.87958 -6.44838 1.67872 
-4.00687 -6.44376 1.69369 
-4.10565 -6.44185 1.74519 
-4.239 -6.42985 1.58987 
-4.33678 -6.42826 1.64807 
-4.46169 -6.4311 1.83908 
-4.56521 -6.42669 1.83559 
-4.68444 -6.43096 2.05515 
-4.79567 -6.41723 1.83656 
-4.92481 -6.41299 1.86243 
-5.01867 -6.41513 2.00608 
-5.14764 -6.40844 1.9733 
-5.2516 -6.40238 1.93095 
-5.3805 -6.39677 1.92376 
-5.48463 -6.39079 1.88354 
-5.60512 -6.39103 2.00807 
-5.70422 -6.38877 2.0516 
-5.82914 -6.38717 2.13661 
-5.93582 -6.3791 2.04897 
-6.06955 -6.36824 1.92122 
-6.1594 -6.37302 2.12396 
-6.27787 -6.37681 2.33139 
-6.38482 -6.36768 2.21846 
-6.50054 -6.37257 2.44946 
-6.60463 -6.36615 2.39873 
-6.82029 -6.36696 2.63064 
-6.96743 -6.34795 2.32146 
-7.06396 -6.34695 2.3929 
-7.30146 -6.33188 2.26694 
5.88076 -6.6143 -3.03143 
5.78163 -6.60608 -3.12986 
5.55088 -6.59094 -3.26426 
5.39549 -6.6001 -2.89607 
5.2922 -6.59573 -2.89899 
5.10236 -6.63861 -1.6982 
5.03929 -6.60141 -2.51838 
4.8551 -6.63575 -1.52531 
4.77635 -6.60975 -2.06478 
4.60697 -6.63735 -1.24578 
4.51447 -6.62125 -1.53726 
4.35358 -6.65423 -0.598982 
4.25885 -6.63643 -0.928553 
4.1036 -6.66675 -0.0586565 
4.00218 -6.6573 -0.183969 
3.87032 -6.66068 0.0247631 
3.76359 -6.6585 0.0771355 
3.60746 -6.67753 0.680365 
3.51565 -6.66599 0.496264 
3.36714 -6.68129 1.00364 
3.26579 -6.67832 1.03196 
3.13319 -6.67694 1.12866 
3.05828 -6.63621 0.23636 
2.90268 -6.66995 1.18783 
2.79932 -6.66853 1.25486 
2.65001 -6.69675 2.06929 
2.55115 -6.68515 1.89076 
2.40028 -6.71908 2.84209 
2.30089 -6.70384 2.5779 
2.17094 -6.71664 3.0081 
2.07305 -6.703 2.78027 
1.94106 -6.71307 3.14771 
1.84171 -6.70823 3.12987 
1.70898 -6.72143 3.57235 
1.61172 -6.7102 3.40109 
1.4804 -6.71716 3.6943 
1.38361 -6.70794 3.57005 
1.25643 -6.71814 3.93612 
1.15746 -6.70848 3.80363 
1.02944 -6.71085 3.98495 
0.929667 -6.70699 3.99082 
0.702767 -6.70619 4.19339 
0.57677 -6.70703 4.33636 
0.475485 -6.7082 4.4628 
0.351276 -6.69985 4.38619 
0.25256 -6.69918 4.46669 
0.126119 -6.69755 4.55163 
0.0287436 -6.69474 4.58015 
-0.195712 -6.69046 4.69789 
-0.319293 -6.67941 4.5566 
-0.41877 -6.67992 4.6659 
-0.543982 -6.67701 4.71936 
-0.643693 -6.67089 4.67171 
-0.768567 -6.66512 4.65692 
-0.868077 -6.66082 4.6521 
-1.09195 -6.6499 4.61205 
-1.21534 -6.64966 4.72686 
-1.31222 -6.65214 4.88046 
-1.44123 -6.63039 4.49082 
-1.53632 -6.63446 4.68021 
-1.66223 -6.62296 4.53074 
-1.76075 -6.62186 4.60098 
-1.98997 -6.60613 4.45211 
-2.11692 -6.58856 4.15964 
-2.21577 -6.58872 4.26006 
-2.44338 -6.56963 4.03015 
-3.17541 -6.45813 2.10245 
-3.31925 -6.42593 1.47966 
-3.41809 -6.42907 1.65075 
-3.55109 -6.41349 1.41151 
-3.65374 -6.41282 1.496 
-3.77161 -6.41595 1.68554 
-3.88019 -6.40782 1.59887 
-4.00295 -6.41026 1.77685 
-4.10204 -6.40616 1.77672 
-4.23522 -6.3966 1.68025 
-4.3388 -6.39119 1.65341 
-4.46323 -6.38948 1.73453 
-4.56385 -6.38929 1.82846 
-4.69247 -6.38249 1.79334 
-4.79179 -6.38315 1.9061 
-4.91891 -6.3755 1.84924 
-5.01616 -6.37757 1.99346 
-5.14525 -6.36951 1.92865 
-5.24841 -6.36673 1.96374 
-5.37877 -6.35949 1.91985 
-5.48501 -6.35056 1.81205 
-5.60588 -6.35078 1.93559 
-5.70051 -6.35376 2.09887 
-5.82894 -6.34782 2.08398 
-5.92585 -6.34939 2.21615 
-6.06154 -6.337 2.05517 
-6.15497 -6.33848 2.18174 
-6.28259 -6.33522 2.22942 
-6.39444 -6.32183 2.02162 
-6.50123 -6.33343 2.4012 
-6.59753 -6.33371 2.50219 
-6.72272 -6.32977 2.53147 
