ply
format ascii 1.0
element vertex 1856
property float x
property float y
property float z
end_header
0.395927 3.36443 2.18971 
0.285112 3.29095 2.82066 
0.157105 3.29114 2.87643 
0.0558079 3.28785 2.94777 
-0.0720991 3.26023 3.22351 
-0.171558 3.26319 3.24463 
-0.301701 3.27966 3.17255 
-0.401987 3.23383 3.58 
-0.529661 3.24947 3.51344 
-0.624997 3.21632 3.81838 
-0.756407 3.2293 3.77446 
-0.854994 3.20944 3.97577 
-0.981219 3.23036 3.8667 
-1.07587 3.19227 4.21048 
-1.19876 3.18517 4.32165 
-1.29833 3.17188 4.47144 
-1.42266 3.17371 4.51263 
-1.52227 3.14722 4.76679 
-1.64504 3.16718 4.66385 
-1.74395 3.15659 4.79196 
-1.86615 3.13662 5.00466 
-1.96787 3.15351 4.91659 
-2.09111 3.14307 5.0544 
-2.18991 3.14222 5.10539 
-2.3128 3.1292 5.26348 
-2.41173 3.1335 5.27376 
-2.53786 3.14804 5.21527 
-2.63224 3.12746 5.42037 
-2.7604 3.14225 5.36076 
-2.85277 3.12366 5.54927 
-2.97487 3.11911 5.64004 
-3.07306 3.11705 5.70032 
-3.29562 3.12064 5.77171 
-3.41863 3.12586 5.78555 
-3.52307 3.14067 5.71514 
-3.64426 3.15061 5.69082 
-3.74603 3.16271 5.6407 
-3.86881 3.16591 5.67046 
-3.9701 3.18394 5.57319 
-4.19714 3.20301 5.5241 
-4.32179 3.20908 5.53195 
-4.43087 3.2446 5.29986 
-4.5591 3.26861 5.16733 
-4.66537 3.29348 5.0182 
-4.79617 3.31781 4.88431 
-4.90814 3.35792 4.61716 
-5.14477 3.40166 4.37719 
-5.27889 3.4238 4.26215 
-5.38629 3.45126 4.09304 
-5.51945 3.47232 3.98614 
-5.64833 3.55191 3.41413 
-5.78722 3.58826 3.18878 
-5.89138 3.59932 3.148 
-6.03005 3.63355 2.93932 
-6.14266 3.6665 2.72911 
-6.27108 3.67654 2.70729 
-6.37536 3.68515 2.68603 
-6.50769 3.70193 2.6126 
-6.60384 3.69602 2.70255 
-6.73542 3.71049 2.6471 
-6.83895 3.71367 2.66843 
-6.95953 3.70785 2.76857 
-7.07632 3.74575 2.52107 
-7.19012 3.72271 2.75455 
-7.29674 3.74009 2.66488 
-7.42901 3.7534 2.61893 
-7.53514 3.76851 2.54703 
6.29479 4.22524 -6.93798 
6.03381 4.20549 -6.6659 
5.85985 4.13152 -6.00478 
5.77944 4.19988 -6.50834 
5.63216 4.17528 -6.24865 
5.23845 4.12203 -5.65308 
5.13163 4.19627 -6.19133 
4.98962 4.11785 -5.50933 
4.85319 4.12059 -5.47013 
4.70198 4.00531 -4.49308 
4.60802 4.13597 -5.4823 
4.48605 4.12123 -5.31162 
4.2225 4.04637 -4.60352 
4.07845 4.01673 -4.30546 
3.81508 3.93938 -3.57771 
3.5503 3.86887 -2.90326 
3.44498 3.86471 -2.82351 
3.31522 3.89218 -2.9825 
3.1917 3.83204 -2.45281 
2.92639 3.7454 -1.65083 
2.79535 3.76075 -1.71355 
2.67201 3.68748 -1.08036 
2.51665 3.59808 -0.305591 
2.42738 3.66315 -0.779271 
2.29344 3.66765 -0.754991 
2.17568 3.56411 0.114585 
2.04633 3.58937 -0.0270234 
1.93778 3.55691 0.277509 
1.81025 3.57126 0.221209 
1.69918 3.49784 0.850152 
1.56525 3.4715 1.11776 
1.46896 3.53465 0.66243 
1.33495 3.50744 0.93695 
1.22367 3.43053 1.59359 
1.09838 3.45129 1.48567 
0.989883 3.40789 1.87657 
0.873617 3.53278 0.942851 
0.765392 3.49083 1.32227 
0.630632 3.45896 1.63393 
0.523279 3.40467 2.11038 
0.397493 3.37776 2.37893 
0.285882 3.34761 2.66669 
0.160575 3.32626 2.89115 
0.0580766 3.35684 2.6956 
-0.069162 3.32585 2.997 
-0.16979 3.27654 3.43113 
-0.300064 3.30041 3.30098 
-0.399097 3.28637 3.45605 
-0.527376 3.28554 3.51987 
-0.623951 3.25925 3.77057 
-0.751619 3.2518 3.88643 
-0.851103 3.25356 3.91695 
-0.978417 3.25483 3.96385 
-1.0733 3.22084 4.27457 
-1.19937 3.24264 4.15883 
-1.29882 3.21225 4.44315 
-1.4192 3.19947 4.59785 
-1.52434 3.22802 4.41953 
-1.64127 3.18771 4.78996 
-1.74037 3.17852 4.90686 
-1.86607 3.19449 4.83703 
-1.96251 3.18343 4.96745 
-2.08876 3.17457 5.09387 
-2.18705 3.17099 5.16608 
-2.31137 3.17347 5.2021 
-2.40887 3.16008 5.3514 
-2.53527 3.17612 5.28138 
-2.6291 3.15753 5.47009 
-2.75653 3.16537 5.46521 
-2.85067 3.15758 5.56882 
-2.97292 3.15355 5.65531 
-3.07021 3.15273 5.70539 
-3.1934 3.15305 5.758 
-3.29527 3.1597 5.7511 
-3.41684 3.15878 5.81271 
-3.51799 3.16613 5.80003 
-3.64264 3.18372 5.71698 
-3.74503 3.20221 5.6169 
-3.87099 3.21862 5.54371 
-3.96329 3.20496 5.69286 
-4.19664 3.24688 5.46646 
-4.32268 3.2558 5.45255 
-4.42976 3.2862 5.26049 
-4.56085 3.31421 5.0981 
-4.6569 3.30407 5.22118 
-4.78819 3.33467 5.03847 
-4.9048 3.39008 4.6533 
-5.1513 3.45915 4.21846 
-5.27074 3.44902 4.35199 
-5.38608 3.49243 4.061 
-5.51569 3.50373 4.02982 
-5.64486 3.58241 3.46659 
-5.90096 3.666 2.9215 
-6.02655 3.66462 2.98869 
-6.14952 3.7274 2.54821 
-6.27529 3.72444 2.62799 
-6.37631 3.725 2.66882 
-6.50265 3.73061 2.68115 
-6.6052 3.73247 2.71241 
-6.73255 3.74234 2.69161 
-6.83305 3.74076 2.74917 
-6.95204 3.72946 2.89173 
-7.07045 3.77141 2.61365 
-7.18973 3.76204 2.74111 
-7.30622 3.79683 2.51863 
-7.4207 3.77579 2.73607 
-7.53305 3.80526 2.55384 
6.03279 4.23621 -6.59351 
5.88366 4.21671 -6.37374 
5.77345 4.21115 -6.2809 
5.65785 4.28488 -6.80987 
5.52337 4.21098 -6.16839 
5.26566 4.2102 -6.04765 
5.13354 4.23236 -6.16331 
4.98418 4.13662 -5.34325 
4.82924 4.08304 -4.85263 
4.73213 4.13468 -5.21587 
4.59025 4.12348 -5.06464 
4.50678 4.20539 -5.67225 
4.22229 4.07892 -4.55019 
4.07271 4.02743 -4.07834 
3.95135 3.97104 -3.58048 
3.70836 3.98372 -3.57218 
3.56252 3.94652 -3.21444 
3.459 3.95003 -3.19595 
3.29032 3.84176 -2.26867 
3.18005 3.83242 -2.14608 
3.05235 3.85144 -2.23895 
2.93294 3.80636 -1.83093 
2.78394 3.7506 -1.32563 
2.68145 3.74321 -1.22182 
2.5446 3.75064 -1.21941 
2.29547 3.69467 -0.667875 
2.18323 3.65325 -0.291794 
2.05075 3.65744 -0.265766 
1.94206 3.65374 -0.188214 
1.80583 3.54624 0.718726 
1.70846 3.58507 0.456392 
1.57206 3.54775 0.811016 
1.47038 3.55306 0.814497 
1.33547 3.5211 1.12624 
1.22358 3.47015 1.57717 
1.09688 3.47472 1.59767 
1.00352 3.56975 0.891171 
0.880419 3.59229 0.768596 
0.762237 3.48455 1.66946 
0.634361 3.50002 1.60471 
0.526292 3.4414 2.11431 
0.399078 3.42003 2.33931 
0.289351 3.39346 2.59742 
0.163007 3.39552 2.63754 
0.057497 3.38761 2.74692 
-0.0675541 3.36295 2.99682 
-0.166752 3.32429 3.34543 
-0.298834 3.34205 3.26455 
-0.397223 3.30683 3.58573 
-0.524425 3.31489 3.579 
-0.624601 3.32145 3.57204 
-0.751633 3.30089 3.79057 
-0.847297 3.26868 4.08692 
-0.975009 3.30883 3.82778 
-1.07251 3.27087 4.17016 
-1.19548 3.25884 4.31981 
-1.29698 3.2476 4.45356 
-1.41636 3.24972 4.49021 
-1.52092 3.25428 4.50094 
-1.64106 3.23408 4.71362 
-1.74042 3.22773 4.80799 
-1.86309 3.21366 4.97358 
-1.96018 3.21179 5.03163 
-2.08997 3.23387 4.91576 
-2.18452 3.20348 5.19726 
-2.30754 3.19523 5.31718 
-2.40699 3.19605 5.35512 
-2.53453 3.21779 5.24096 
-2.63058 3.21036 5.34242 
-2.75436 3.20055 5.47496 
-2.85056 3.20257 5.50204 
-2.97329 3.20145 5.56565 
-3.06693 3.1815 5.76459 
-3.19052 3.18319 5.80649 
-3.2917 3.20163 5.70658 
-3.41463 3.19532 5.81114 
-3.51382 3.20018 5.81721 
-3.64303 3.23056 5.63584 
-3.7441 3.24258 5.58632 
-3.86698 3.24134 5.65102 
-3.96898 3.2615 5.53795 
-4.19765 3.29024 5.41387 
-4.32003 3.28778 5.48794 
-4.42467 3.31107 5.35134 
-4.5527 3.32988 5.2605 
-4.6597 3.35848 5.08317 
-4.78644 3.37288 5.02644 
-4.89763 3.40948 4.78803 
-5.14917 3.49359 4.23822 
-5.26813 3.48071 4.39289 
-5.38054 3.52002 4.13367 
-5.51617 3.54997 3.95847 
-5.65434 3.65412 3.20023 
-5.77005 3.63089 3.43489 
-5.89195 3.67988 3.10364 
-6.0249 3.70102 2.99668 
-6.14304 3.75007 2.66332 
-6.2756 3.76922 2.57188 
-6.37626 3.76419 2.65648 
-6.50226 3.77301 2.64346 
-6.60607 3.77699 2.65856 
-6.72704 3.77089 2.76075 
-6.82845 3.77876 2.74418 
-6.95117 3.77194 2.85278 
-7.06811 3.80391 2.6534 
-7.18899 3.79665 2.76468 
-7.29507 3.81309 2.68272 
-7.42262 3.82477 2.6479 
6.29955 4.30612 -6.94806 
6.02099 4.24274 -6.32673 
5.8912 4.2759 -6.52947 
5.75823 4.21911 -6.02448 
5.65222 4.30648 -6.66346 
5.24519 4.19593 -5.6147 
5.00065 4.22225 -5.71277 
4.83113 4.12987 -4.9121 
4.72929 4.16256 -5.12352 
4.5921 4.17825 -5.1858 
4.48338 4.1744 -5.10725 
4.22993 4.1397 -4.72225 
4.07778 4.08813 -4.24971 
3.9905 4.16547 -4.8182 
3.82664 4.06549 -3.96035 
3.57946 4.03846 -3.63828 
3.44525 3.93014 -2.72807 
3.30543 3.92151 -2.5982 
3.19207 3.91252 -2.47727 
3.05233 3.88934 -2.23312 
2.93766 3.85772 -1.93383 
2.78195 3.78534 -1.29629 
2.68518 3.79051 -1.29383 
2.54037 3.75907 -0.982584 
2.18752 3.7112 -0.449802 
2.05731 3.72545 -0.503763 
1.94259 3.61828 0.388784 
1.81135 3.60852 0.523858 
1.70224 3.55517 0.991276 
1.5759 3.57573 0.886088 
1.46168 3.53454 1.26031 
1.2278 3.50062 1.63077 
1.09718 3.50532 1.65198 
0.990468 3.47966 1.90104 
0.877189 3.60952 0.931715 
0.76765 3.55152 1.43593 
0.633221 3.54093 1.57888 
0.526319 3.45621 2.29182 
0.403939 3.47826 2.17312 
0.292834 3.43818 2.53735 
0.166517 3.43065 2.65272 
0.0630528 3.39615 2.96976 
-0.0634843 3.39066 3.06926 
-0.165113 3.36976 3.27863 
-0.297924 3.40089 3.09332 
-0.392376 3.347 3.55861 
-0.523111 3.36442 3.48002 
-0.621033 3.32692 3.81817 
-0.750218 3.33913 3.77987 
-0.846732 3.33181 3.88038 
-0.97369 3.32351 4.00209 
-1.06794 3.27855 4.39724 
-1.19266 3.29542 4.32036 
-1.29559 3.27599 4.51883 
-1.41381 3.27432 4.58464 
-1.51629 3.27298 4.64087 
-1.6383 3.25353 4.84802 
-1.73828 3.26034 4.83908 
-1.86175 3.26536 4.85468 
-1.96079 3.24233 5.07977 
-2.08571 3.25871 5.00684 
-2.18363 3.23939 5.20226 
-2.307 3.23948 5.25654 
-2.40529 3.23696 5.32021 
-2.52831 3.22469 5.47144 
-2.62561 3.22577 5.50639 
-2.75346 3.24265 5.43083 
-2.84624 3.22676 5.597 
-2.9702 3.23071 5.62132 
-3.06538 3.21763 5.7665 
-3.19017 3.22108 5.79506 
-3.28889 3.23029 5.76682 
-3.41474 3.24728 5.68958 
-3.51415 3.24844 5.72479 
-3.63938 3.26348 5.66257 
-3.73928 3.2652 5.69367 
-3.86827 3.29087 5.54967 
-3.96387 3.29163 5.58635 
-4.19271 3.31598 5.4973 
-4.31722 3.32313 5.49672 
-4.42699 3.35574 5.28955 
-4.55303 3.37375 5.20438 
-4.65587 3.38838 5.13543 
-4.7815 3.40071 5.09466 
-4.89627 3.44504 4.79773 
-5.1364 3.50141 4.46227 
-5.26933 3.52467 4.33893 
-5.37929 3.55688 4.13508 
-5.50871 3.57373 4.0605 
-5.6363 3.6448 3.55926 
-5.77399 3.67722 3.36611 
-6.02061 3.73972 2.98542 
-6.13876 3.77887 2.73066 
-6.27018 3.79395 2.67094 
-6.36781 3.78341 2.79739 
-6.49801 3.8049 2.68676 
-6.59918 3.79943 2.77494 
-6.72833 3.81468 2.71285 
-6.82536 3.81224 2.77541 
-6.95218 3.81299 2.8262 
-7.06157 3.83374 2.71211 
-7.17644 3.81512 2.90971 
-7.29034 3.8431 2.74088 
-7.40732 3.83597 2.84922 
-7.52177 3.86019 2.71012 
6.05672 4.36064 -6.95457 
5.88097 4.2777 -6.22705 
5.78983 4.32897 -6.5882 
5.5161 4.27037 -6.00786 
5.26201 4.26831 -5.87902 
5.1203 4.27201 -5.84514 
4.99668 4.24756 -5.59885 
4.83478 4.17968 -4.99535 
4.74057 4.22622 -5.31811 
4.60308 4.24039 -5.36816 
4.47086 4.16515 -4.72015 
4.32445 4.12422 -4.33464 
4.22379 4.14563 -4.45766 
4.08084 4.13726 -4.32868 
3.96132 4.07536 -3.79083 
3.82803 4.10711 -3.98043 
3.71095 4.06449 -3.59462 
3.47435 4.07317 -3.55763 
3.31039 3.96755 -2.65762 
3.21363 4.01597 -2.99393 
3.04072 3.86123 -1.70512 
2.93739 3.87835 -1.79332 
2.79122 3.84903 -1.49885 
2.67506 3.78893 -0.976485 
2.53956 3.77836 -0.833514 
2.43331 3.76213 -0.659256 
2.18224 3.66681 0.198865 
2.05232 3.7183 -0.146756 
1.94225 3.65047 0.433462 
1.70299 3.61232 0.838637 
1.57704 3.63082 0.749642 
1.47033 3.6136 0.931976 
1.22757 3.53412 1.6624 
1.09857 3.53417 1.71938 
1.00816 3.65947 0.77798 
0.867692 3.55113 1.6891 
0.772294 3.59506 1.38739 
0.63711 3.59425 1.45386 
0.530154 3.5255 2.03992 
0.401657 3.4793 2.45894 
0.296168 3.486 2.45336 
0.166756 3.47928 2.56356 
0.0673451 3.46342 2.73201 
-0.0611451 3.42736 3.07169 
-0.16322 3.38963 3.41261 
-0.295008 3.40004 3.38967 
-0.389851 3.39312 3.48611 
-0.52047 3.38142 3.63587 
-0.619797 3.39298 3.5895 
-0.752125 3.38693 3.6958 
-0.845367 3.34967 4.02914 
-0.971403 3.35346 4.05555 
-1.0695 3.33239 4.26427 
-1.19096 3.33302 4.31337 
-1.29391 3.32292 4.43832 
-1.41519 3.33932 4.36388 
-1.51645 3.32148 4.54871 
-1.63668 3.29845 4.78266 
-1.73488 3.27798 4.98673 
-1.86098 3.29746 4.89027 
-1.9584 3.2826 5.0501 
-2.08043 3.2676 5.22192 
-2.18261 3.27631 5.19921 
-2.30425 3.27118 5.2936 
-2.40261 3.26419 5.39214 
-2.52835 3.27562 5.3586 
-2.62597 3.27187 5.43151 
-2.74839 3.26777 5.51811 
-2.84296 3.25423 5.66636 
-2.97254 3.28331 5.49625 
-3.06345 3.25542 5.75523 
-3.18884 3.26163 5.7625 
-3.28615 3.25685 5.84333 
-3.41378 3.28632 5.66926 
-3.5161 3.28751 5.70557 
-3.63913 3.30241 5.64368 
-3.73561 3.2938 5.75417 
-3.86237 3.31264 5.66306 
-3.96427 3.32846 5.58452 
-4.32086 3.37919 5.34606 
-4.42303 3.38817 5.3212 
-4.54904 3.40172 5.27121 
-4.65267 3.41592 5.2062 
-4.77704 3.42761 5.17008 
-4.89185 3.47706 4.83382 
-5.26406 3.55101 4.42043 
-5.38068 3.60332 4.06256 
-5.50598 3.608 4.08184 
-5.63942 3.69518 3.45824 
-5.7682 3.70605 3.43057 
-6.0198 3.77368 3.01286 
-6.13681 3.81862 2.71293 
-6.26739 3.83175 2.66835 
-6.36548 3.82252 2.78443 
-6.49748 3.84484 2.66845 
-6.60413 3.84979 2.67729 
-6.72852 3.85621 2.68246 
-6.82157 3.84643 2.80064 
-6.95316 3.85899 2.76097 
-7.06136 3.87079 2.71682 
-7.15604 3.81673 3.18265 
-7.29246 3.88863 2.68019 
-7.40971 3.87999 2.80022 
-7.52007 3.89691 2.71692 
6.28578 4.34566 -6.62678 
6.03212 4.33636 -6.4418 
5.9392 4.45949 -7.36266 
5.76693 4.30463 -6.07644 
5.65394 4.37115 -6.54615 
5.53028 4.34133 -6.25846 
5.26329 4.3084 -5.88295 
5.11743 4.30088 -5.75956 
5.00822 4.31098 -5.79013 
4.87025 4.31028 -5.7236 
4.7417 4.26471 -5.31057 
4.59865 4.2527 -5.15339 
4.48023 4.2215 -4.85716 
4.23823 4.22664 -4.79017 
4.10251 4.24868 -4.90222 
3.97397 4.16071 -4.15801 
3.70451 4.0633 -3.27754 
3.57481 4.056 -3.16303 
3.45416 4.02488 -2.86636 
3.20827 4.03645 -2.8478 
3.04538 3.91633 -1.8371 
2.78934 3.8644 -1.31782 
2.67794 3.83361 -1.02786 
2.54484 3.83862 -1.00802 
2.29362 3.78524 -0.479572 
2.1921 3.78983 -0.470376 
1.94911 3.70401 0.307955 
1.81733 3.67379 0.602512 
1.71012 3.66288 0.735345 
1.58183 3.68558 0.614869 
1.47361 3.64931 0.946287 
1.34067 3.63959 1.0812 
1.22736 3.56584 1.7078 
1.1016 3.55718 1.83123 
1.00444 3.62024 1.38163 
0.875732 3.6337 1.33354 
0.770793 3.6057 1.59894 
0.639889 3.62498 1.50637 
0.403672 3.55017 2.19586 
0.295588 3.50213 2.6192 
0.169838 3.48283 2.82588 
0.0655049 3.45357 3.10088 
-0.0613123 3.45845 3.11901 
-0.162593 3.47635 3.02418 
-0.293784 3.45914 3.21688 
-0.389196 3.43919 3.41519 
-0.519652 3.42639 3.57317 
-0.618364 3.40546 3.78056 
-0.747373 3.42125 3.71449 
-0.845562 3.40807 3.86111 
-0.970791 3.42207 3.8074 
-1.07156 3.38627 4.13197 
-1.19021 3.38017 4.23233 
-1.29271 3.37083 4.35091 
-1.41053 3.3487 4.57617 
-1.51448 3.36219 4.51701 
-1.63439 3.33057 4.81741 
-1.73534 3.3407 4.78311 
-1.85764 3.31516 5.03709 
-1.95601 3.31007 5.12062 
-2.08234 3.32895 5.02924 
-2.18122 3.32313 5.11871 
-2.40196 3.30896 5.3276 
-2.52431 3.29782 5.46908 
-2.62256 3.30092 5.48851 
-2.7467 3.30387 5.52075 
-2.84211 3.29831 5.60658 
-2.96739 3.30469 5.6125 
-3.06168 3.29518 5.72878 
-3.28486 3.30548 5.74762 
-3.41181 3.31687 5.71509 
-3.50819 3.31147 5.80019 
-3.63467 3.32205 5.77379 
-3.7368 3.34458 5.64317 
-3.86051 3.35211 5.63937 
-3.9596 3.36098 5.61416 
-4.31266 3.38968 5.547 
-4.41584 3.4108 5.42792 
-4.54477 3.43101 5.32737 
-4.65469 3.46853 5.08305 
-4.78352 3.4875 4.9921 
-4.89154 3.51556 4.82094 
-5.25346 3.56604 4.58755 
-5.36234 3.59879 4.38013 
-5.50204 3.63811 4.13502 
-5.64258 3.74543 3.35878 
-5.78243 3.78274 3.12951 
-5.8831 3.78813 3.13218 
-6.01728 3.81182 3.00677 
-6.13747 3.86224 2.66631 
-6.26561 3.86904 2.67018 
-6.36429 3.86253 2.76509 
-6.49588 3.88373 2.65801 
-6.59763 3.88062 2.72764 
-6.72711 3.89883 2.64301 
-6.81575 3.87687 2.85415 
-6.94423 3.88106 2.8787 
-7.04571 3.88021 2.93059 
-7.15936 3.86162 3.12657 
-7.27929 3.90438 2.84576 
-7.51612 3.92713 2.77354 
6.04164 4.39523 -6.59462 
5.90409 4.40523 -6.61172 
5.78189 4.37443 -6.31764 
5.64911 4.39625 -6.42901 
5.52726 4.3703 -6.17293 
5.26557 4.34701 -5.87568 
5.01467 4.35655 -5.83907 
4.86791 4.33212 -5.58381 
4.75987 4.33868 -5.58712 
4.60289 4.29196 -5.15361 
4.47803 4.23825 -4.67974 
4.23005 4.21985 -4.42666 
4.08941 4.2376 -4.5028 
3.95749 4.12281 -3.54982 
3.82245 4.13331 -3.57192 
3.71043 4.12249 -3.438 
3.58235 4.12629 -3.41093 
3.47253 4.13461 -3.42724 
3.05043 3.97117 -1.96657 
2.78251 3.87015 -1.0606 
2.68065 3.86228 -0.95416 
2.44204 3.88663 -1.03828 
2.29669 3.82466 -0.490935 
2.18938 3.8244 -0.441423 
2.05745 3.81148 -0.28226 
1.81777 3.71454 0.579511 
1.71257 3.67429 0.939842 
1.58428 3.72851 0.573994 
1.47737 3.70681 0.790527 
1.34941 3.71412 0.79021 
1.22436 3.57884 1.90011 
1.00982 3.70338 1.02442 
0.877642 3.67446 1.30845 
0.7763 3.71046 1.07274 
0.642347 3.66688 1.4718 
0.532197 3.60094 2.03464 
0.40444 3.57038 2.32943 
0.296856 3.56765 2.39846 
0.173079 3.53369 2.71802 
0.0691831 3.49932 3.03205 
-0.0610954 3.51574 2.9618 
-0.162474 3.49347 3.18034 
-0.290056 3.48867 3.27439 
-0.389225 3.46993 3.46444 
-0.517259 3.46714 3.54297 
-0.614788 3.44813 3.73445 
-0.743224 3.45144 3.76565 
-0.84073 3.43057 3.97158 
-0.968186 3.43577 3.98758 
-1.06854 3.41744 4.17505 
-1.18618 3.38913 4.44794 
-1.29179 3.41323 4.30692 
-1.40873 3.38408 4.58604 
-1.51067 3.38459 4.62735 
-1.63556 3.38562 4.67474 
-1.73218 3.3623 4.89946 
-1.85557 3.35629 5.00109 
-1.95563 3.3596 5.01969 
-2.07788 3.3424 5.20809 
-2.1779 3.34708 5.21602 
-2.30197 3.34966 5.251 
-2.40265 3.35857 5.22622 
-2.52491 3.34134 5.41487 
-2.62062 3.33518 5.50541 
-2.7429 3.33428 5.56676 
-2.84096 3.33818 5.57991 
-2.96343 3.33172 5.68464 
-3.06218 3.33911 5.67089 
-3.28502 3.34478 5.72576 
-3.4117 3.36061 5.65861 
-3.50667 3.34331 5.83567 
-3.63323 3.36106 5.75356 
-3.7354 3.37937 5.6562 
-3.85982 3.38919 5.63498 
-3.95689 3.38873 5.6817 
-4.19008 3.43429 5.43011 
-4.31529 3.44074 5.43555 
-4.41763 3.4578 5.348 
-4.54664 3.47995 5.23268 
-4.64763 3.49302 5.17572 
-4.77896 3.51489 5.06355 
-4.88288 3.53757 4.93293 
-5.1289 3.60631 4.50645 
-5.25637 3.61801 4.47187 
-5.37055 3.65911 4.20224 
-5.50001 3.67251 4.15534 
-5.64039 3.78058 3.37518 
-5.77589 3.8095 3.21 
-5.8723 3.80035 3.32422 
-6.14083 3.90997 2.58896 
-6.27163 3.92533 2.52741 
-6.36259 3.90076 2.75942 
-6.48615 3.90228 2.80255 
-6.59705 3.92405 2.6822 
-6.72425 3.93351 2.66505 
-6.8153 3.91049 2.88504 
-7.04163 3.91576 2.94472 
-7.15439 3.89419 3.1631 
-7.27326 3.93114 2.92786 
-7.51525 3.96821 2.74656 
6.3101 4.45491 -6.86736 
6.05997 4.47696 -6.92836 
5.89884 4.421 -6.42212 
5.81206 4.4806 -6.84721 
5.65542 4.4467 -6.51442 
5.56389 4.49584 -6.85612 
5.27456 4.4025 -6.00264 
5.1168 4.37171 -5.6936 
5.02379 4.41076 -5.95616 
4.8702 4.37338 -5.59769 
4.74447 4.32568 -5.17136 
4.6094 4.34529 -5.26419 
4.47815 4.26385 -4.57303 
4.22314 4.23249 -4.21657 
4.09612 4.29038 -4.61058 
3.97587 4.23924 -4.15983 
3.71263 4.14701 -3.32647 
3.46199 4.11969 -3.00332 
3.32504 4.11362 -2.89566 
2.80129 3.97336 -1.57365 
2.69132 3.93172 -1.20125 
2.54976 3.91206 -0.985811 
2.4378 3.89018 -0.766216 
2.18746 3.85501 -0.382086 
2.05925 3.84453 -0.243917 
1.95071 3.78153 0.293915 
1.8186 3.76881 0.451302 
1.71381 3.73741 0.741805 
1.57528 3.69547 1.12917 
1.23972 3.71187 1.15006 
1.10483 3.62673 1.87175 
1.01337 3.74354 1.00403 
0.886936 3.79516 0.658536 
0.780602 3.7452 1.09412 
0.64265 3.70551 1.46374 
0.534957 3.62104 2.16829 
0.405711 3.61196 2.29604 
0.297611 3.57864 2.60304 
0.171835 3.56266 2.78295 
0.0694921 3.55193 2.91175 
-0.0584699 3.54515 3.02112 
-0.160405 3.52338 3.2355 
-0.286686 3.53427 3.20682 
-0.386907 3.48628 3.62431 
-0.515286 3.50972 3.49892 
-0.614378 3.47128 3.84175 
-0.744 3.49827 3.68928 
-0.839117 3.46371 4.00022 
-0.964596 3.46393 4.05408 
-1.06211 3.43436 4.32723 
-1.18699 3.44959 4.26411 
-1.28716 3.43752 4.40242 
-1.40702 3.42519 4.55138 
-1.51245 3.4316 4.54827 
-1.6301 3.40239 4.82758 
-1.73118 3.40393 4.86045 
-1.85541 3.39668 4.97185 
-1.95386 3.39592 5.02143 
-2.07803 3.38801 5.13797 
-2.1758 3.37058 5.31689 
-2.2999 3.38306 5.27487 
-2.39716 3.37538 5.37776 
-2.52361 3.38842 5.33237 
-2.61876 3.37377 5.48852 
-2.74352 3.37377 5.54386 
-2.84139 3.38246 5.51967 
-2.96397 3.37907 5.60046 
-3.05899 3.36742 5.73321 
-3.18567 3.38625 5.64295 
-3.28411 3.38782 5.67445 
-3.40429 3.37722 5.81018 
-3.5058 3.37168 5.89833 
-3.63149 3.4009 5.72683 
-3.73507 3.42162 5.61168 
-3.85915 3.42817 5.6158 
-3.9604 3.44383 5.53901 
-4.1865 3.45768 5.53164 
-4.31161 3.47067 5.48612 
-4.41697 3.49337 5.3564 
-4.54761 3.52585 5.16179 
-4.64463 3.52031 5.24789 
-4.77452 3.54304 5.12884 
-4.88127 3.57044 4.9631 
-5.12952 3.64826 4.46812 
-5.25322 3.65154 4.49754 
-5.37069 3.70165 4.15996 
-5.5113 3.74552 3.88123 
-5.63733 3.81346 3.40878 
-5.78251 3.87187 3.01898 
-5.88551 3.87636 3.02983 
-6.01768 3.89605 2.93538 
-6.13059 3.92661 2.74788 
-6.26416 3.94272 2.68191 
-6.3657 3.95045 2.6669 
-6.48985 3.94969 2.72799 
-6.59231 3.9558 2.72597 
-6.71905 3.96133 2.7393 
-6.8183 3.95478 2.83435 
-6.93253 3.93931 3.0054 
-7.03803 3.94887 2.97794 
-7.17221 3.9718 2.85925 
-7.26183 3.94979 3.07029 
-7.40121 3.98297 2.87416 
-7.51286 4.008 2.7291 
6.018 4.41247 -6.09976 
5.91941 4.50654 -6.78586 
5.7953 4.47074 -6.45349 
5.54075 4.47228 -6.35322 
5.26708 4.41623 -5.79782 
5.11799 4.4094 -5.67913 
5.01309 4.41373 -5.66652 
4.89007 4.46068 -5.97635 
4.75094 4.37809 -5.27451 
4.61506 4.40523 -5.42508 
4.49038 4.339 -4.85638 
4.23179 4.30015 -4.44107 
3.96559 4.22596 -3.74824 
3.83628 4.26886 -4.02396 
3.72378 4.21858 -3.58432 
3.57019 4.14794 -2.9687 
2.93999 4.0219 -1.71309 
2.68381 3.93035 -0.889952 
2.54257 3.91609 -0.716976 
2.29946 3.88195 -0.344882 
2.06184 3.87373 -0.17622 
1.81625 3.78179 0.645359 
1.71096 3.736 1.04706 
1.58647 3.80919 0.534366 
1.24633 3.76784 1.00532 
1.10804 3.68425 1.71482 
1.01384 3.78216 0.996997 
0.887801 3.79695 0.937935 
0.772627 3.70636 1.69155 
0.640912 3.7201 1.64313 
0.537223 3.64799 2.24832 
0.406702 3.65531 2.24925 
0.299737 3.62021 2.56881 
0.174476 3.61023 2.70159 
0.0698749 3.54384 3.26279 
-0.0552367 3.57736 3.05811 
-0.156347 3.54182 3.3785 
-0.284678 3.58651 3.0886 
-0.386929 3.52951 3.57598 
-0.513866 3.55263 3.45277 
-0.612613 3.50894 3.83536 
-0.741776 3.51585 3.8389 
-0.83707 3.50337 3.97789 
-0.96439 3.50215 4.0437 
-1.06175 3.48321 4.23371 
-1.18581 3.49007 4.23537 
-1.28386 3.46015 4.51089 
-1.40529 3.44497 4.68233 
-1.50861 3.4539 4.65882 
-1.63099 3.45722 4.68723 
-1.72912 3.43979 4.8659 
-1.85424 3.4529 4.81959 
-1.9501 3.42911 5.04654 
-2.07486 3.4115 5.23838 
-2.17275 3.40396 5.34027 
-2.29774 3.41235 5.33054 
-2.39594 3.41743 5.33459 
-2.52114 3.41639 5.39809 
-2.61755 3.41062 5.48553 
-2.74469 3.42442 5.43483 
-2.83709 3.40659 5.61405 
-2.96202 3.41436 5.6091 
-3.05796 3.40876 5.69511 
-3.18473 3.42011 5.66321 
-3.28203 3.41999 5.70724 
-3.40557 3.42008 5.76127 
-3.50432 3.40682 5.90791 
-3.63406 3.45573 5.58592 
-3.73211 3.45308 5.64998 
-3.855 3.45346 5.7015 
-3.95404 3.46386 5.66468 
-4.18115 3.4849 5.6021 
-4.31015 3.50851 5.4761 
-4.41663 3.53792 5.29518 
-4.54301 3.55233 5.2394 
-4.64766 3.56975 5.15061 
-4.77956 3.60227 4.9568 
-4.88781 3.63028 4.78749 
-5.12797 3.68512 4.46855 
-5.24851 3.67953 4.56534 
-5.36925 3.7371 4.17229 
-5.51271 3.78783 3.84231 
-5.64073 3.86753 3.28074 
-5.77082 3.87699 3.26503 
-5.88246 3.91246 3.03932 
-6.01781 3.93761 2.90427 
-6.12468 3.95691 2.80191 
-6.25978 3.97838 2.69529 
-6.36256 3.98638 2.67882 
-6.49015 3.99029 2.70507 
-6.59612 4.00195 2.66159 
-6.71176 3.98781 2.82267 
-6.81359 3.98782 2.86778 
-6.93745 3.98973 2.9079 
-7.02978 3.97389 3.07179 
-7.17073 4.00914 2.86081 
-7.25587 3.98075 3.11891 
-7.38694 3.99853 3.03909 
-7.51903 4.06331 2.59512 
6.07501 4.5809 -7.12082 
5.90052 4.48627 -6.31185 
5.81039 4.54808 -6.75043 
5.67862 4.56807 -6.84702 
5.56642 4.5717 -6.82573 
5.28686 4.4973 -6.12706 
5.00123 4.41818 -5.38915 
4.875 4.4568 -5.63237 
4.77974 4.49758 -5.90591 
4.60031 4.39092 -5.00172 
4.5143 4.45312 -5.44509 
4.22247 4.30397 -4.1626 
4.09871 4.36966 -4.61637 
3.97561 4.29848 -4.01144 
3.73069 4.29388 -3.86798 
3.20691 4.12991 -2.36859 
3.07564 4.15454 -2.5013 
2.95547 4.10602 -2.07293 
2.81371 4.08212 -1.82551 
2.69613 4.02575 -1.33755 
2.55376 3.98779 -0.981144 
2.43885 3.94265 -0.58117 
2.1969 3.94243 -0.47283 
2.06837 3.94708 -0.452154 
1.95568 3.9158 -0.160438 
1.81691 3.82038 0.63906 
1.71949 3.8356 0.564237 
1.58532 3.82607 0.697211 
1.48161 3.8353 0.67154 
1.23433 3.71157 1.73796 
1.11839 3.78887 1.19101 
1.01435 3.81853 1.00739 
0.880205 3.75268 1.57614 
0.782635 3.82912 1.02769 
0.649646 3.76781 1.56082 
0.537938 3.71146 2.04616 
0.40889 3.70944 2.11873 
0.306155 3.67869 2.40204 
0.176403 3.66316 2.57948 
0.0725664 3.62627 2.91078 
-0.0544111 3.59941 3.17464 
-0.155471 3.60183 3.20059 
-0.282104 3.60371 3.24194 
-0.381091 3.59066 3.38663 
-0.51371 3.57426 3.57212 
-0.612603 3.56187 3.71168 
-0.741114 3.58022 3.62643 
-0.834926 3.52341 4.10755 
-0.964822 3.55759 3.90043 
-1.0608 3.51981 4.23517 
-1.18372 3.51845 4.3 
-1.28241 3.50548 4.444 
-1.40831 3.51956 4.39065 
-1.50523 3.46625 4.846 
-1.62746 3.48751 4.73551 
-1.72658 3.47183 4.90068 
-1.85087 3.46824 4.9834 
-1.95022 3.46257 5.07118 
-2.07469 3.46776 5.08606 
-2.16991 3.43304 5.39683 
-2.2972 3.45352 5.29462 
-2.39339 3.44704 5.38734 
-2.52132 3.46971 5.26849 
-2.61443 3.43508 5.57763 
-2.74083 3.44635 5.54635 
-2.83751 3.45638 5.5115 
-2.95991 3.44894 5.62322 
-3.0603 3.46342 5.55555 
-3.18177 3.45652 5.66268 
-3.27653 3.43589 5.86429 
-3.40346 3.45243 5.79239 
-3.49819 3.4253 6.04428 
-3.63417 3.50069 5.52106 
-3.72948 3.4854 5.68153 
-3.85238 3.48815 5.71462 
-3.95444 3.50501 5.62933 
-4.30691 3.53739 5.53475 
-4.41273 3.55809 5.42142 
-4.54169 3.58858 5.24255 
-4.64544 3.60972 5.12479 
-4.77378 3.62628 5.05347 
-4.88083 3.64902 4.92491 
-5.2432 3.70608 4.64378 
-5.51135 3.82886 3.81222 
-5.76663 3.90736 3.31773 
-5.89028 3.96476 2.92826 
-6.12646 3.99777 2.77736 
-6.25863 4.01719 2.68561 
-6.3594 4.02018 2.70715 
-6.48687 4.02529 2.72404 
-6.58723 4.02687 2.75626 
-6.71424 4.02972 2.79049 
-6.81284 4.03025 2.83006 
-7.0283 4.00969 3.0847 
-7.16944 4.04662 2.86142 
-7.26088 4.02879 3.03999 
-7.5238 4.11157 2.51575 
6.05978 4.57779 -6.78121 
5.91622 4.56393 -6.61117 
5.79377 4.53466 -6.33139 
5.52152 4.49597 -5.91312 
5.28572 4.54106 -6.15743 
5.13938 4.53363 -6.03579 
5.01752 4.49109 -5.65385 
4.87591 4.49474 -5.61983 
4.74818 4.4454 -5.18284 
4.62187 4.48351 -5.42144 
4.51823 4.50405 -5.53439 
4.24601 4.4142 -4.7212 
4.09094 4.37141 -4.32274 
3.99618 4.41833 -4.64322 
3.83147 4.29036 -3.58309 
3.59508 4.32685 -3.76072 
2.94486 4.09649 -1.69671 
2.81499 4.12085 -1.82755 
2.56473 4.06435 -1.28134 
2.4549 4.03866 -1.0347 
2.31828 4.03272 -0.928724 
2.19811 3.94546 -0.202298 
1.95751 3.92095 0.0927612 
1.82321 3.89198 0.375512 
1.59177 3.87137 0.636515 
1.48244 3.85053 0.84556 
1.35522 3.85722 0.849978 
1.25004 3.84337 1.00318 
1.12153 3.84631 1.03714 
1.0192 3.87487 0.861774 
0.888081 3.84833 1.12436 
0.783262 3.86955 1.00677 
0.650115 3.82149 1.4364 
0.540719 3.76519 1.91924 
0.411724 3.75022 2.09164 
0.306042 3.70831 2.46172 
0.179115 3.69362 2.63105 
0.0763598 3.68567 2.73773 
-0.051627 3.65295 3.04672 
-0.154618 3.61736 3.36687 
-0.282327 3.62823 3.33929 
-0.379955 3.62611 3.39868 
-0.511442 3.59172 3.72213 
-0.610703 3.61578 3.58024 
-0.738144 3.59921 3.76429 
-0.834479 3.57621 3.9844 
-0.961182 3.57126 4.07847 
-1.06097 3.57446 4.09781 
-1.17813 3.52558 4.52683 
-1.28095 3.52792 4.55415 
-1.4061 3.54706 4.46164 
-1.50556 3.52603 4.66781 
-1.62526 3.5229 4.74487 
-1.72443 3.49501 5.00388 
-1.85113 3.52494 4.82878 
-1.94689 3.49268 5.12012 
-2.07226 3.49388 5.16619 
-2.17258 3.50153 5.15143 
-2.29548 3.48555 5.32904 
-2.39085 3.47335 5.46532 
-2.51662 3.48468 5.43345 
-2.61182 3.46756 5.60767 
-2.73994 3.49428 5.45794 
-2.83364 3.47869 5.61966 
-2.95956 3.49179 5.57419 
-3.05757 3.49703 5.57697 
-3.17877 3.48754 5.70382 
-3.27593 3.47211 5.86582 
-3.40251 3.49504 5.74478 
-3.50027 3.48945 5.83109 
-3.63281 3.53772 5.51702 
-3.72746 3.52111 5.68708 
-3.85311 3.5363 5.62532 
-3.95457 3.55567 5.52061 
-4.30756 3.58429 5.45573 
-4.41151 3.60223 5.36315 
-4.53665 3.61542 5.31661 
-4.64166 3.63628 5.20202 
-4.76644 3.64442 5.19429 
-4.88903 3.71813 4.67948 
-5.24955 3.76256 4.49581 
-5.37201 3.82676 4.05435 
-5.50501 3.85404 3.90252 
-5.63183 3.92374 3.42043 
-5.76961 3.9579 3.21768 
-5.87087 3.96378 3.21705 
-6.00014 3.97937 3.15384 
-6.12027 4.02742 2.83601 
-6.26076 4.06716 2.59137 
-6.35944 4.05751 2.70952 
-6.48569 4.06277 2.72475 
-6.59124 4.07518 2.67563 
-6.71336 4.06935 2.77468 
-6.81846 4.08205 2.72309 
-6.93758 4.07183 2.85475 
-7.03248 4.06279 2.96649 
-7.1677 4.08929 2.82172 
-7.26754 4.08244 2.91883 
-7.50721 4.11479 2.77514 
6.28687 4.54667 -6.33397 
6.057 4.60182 -6.65765 
5.92887 4.62889 -6.80982 
5.77956 4.54603 -6.10636 
5.67312 4.62951 -6.70233 
5.54877 4.59417 -6.37563 
5.28785 4.57999 -6.15198 
5.01785 4.53251 -5.66786 
4.8643 4.50384 -5.37974 
4.74526 4.46958 -5.06365 
4.62561 4.52306 -5.42289 
4.49301 4.45534 -4.84328 
4.22822 4.37873 -4.13715 
3.97651 4.36719 -3.93779 
3.85762 4.43157 -4.38121 
3.73942 4.41798 -4.22469 
3.18824 4.12555 -1.73105 
3.07241 4.20323 -2.27826 
2.95121 4.15936 -1.88719 
2.82162 4.17647 -1.96199 
2.69942 4.09983 -1.31824 
2.55002 4.02188 -0.652384 
2.31413 4.04434 -0.721604 
2.20476 4.02674 -0.537974 
1.95611 3.92449 0.358602 
1.82478 3.90356 0.57749 
1.72681 3.90158 0.635872 
1.58425 3.84236 1.15457 
1.48179 3.87564 0.943314 
1.25108 3.87856 1.02234 
1.11047 3.77254 1.90053 
1.01929 3.88844 1.04828 
0.88639 3.87489 1.21106 
0.790809 3.92729 0.849602 
0.653318 3.85598 1.45926 
0.539367 3.78753 2.03646 
0.413498 3.79108 2.06448 
0.307018 3.73888 2.51333 
0.179996 3.70811 2.80622 
0.0777912 3.68117 3.05859 
-0.0521567 3.71312 2.86982 
-0.15263 3.68055 3.16482 
-0.280121 3.66442 3.34522 
-0.379257 3.66494 3.38484 
-0.510919 3.65225 3.5406 
-0.605453 3.63628 3.70518 
-0.737587 3.63271 3.79085 
-0.83554 3.62068 3.92664 
-0.960063 3.6145 4.02912 
-1.06115 3.61994 4.03176 
-1.1803 3.59141 4.30392 
-1.27745 3.55707 4.61123 
-1.40348 3.58261 4.47005 
-1.50402 3.54986 4.76659 
-1.62184 3.55017 4.81609 
-1.72422 3.55242 4.84393 
-1.8491 3.55121 4.90827 
-1.94373 3.52152 5.17862 
-2.06904 3.52648 5.19569 
-2.16856 3.51836 5.30207 
-2.29322 3.52123 5.33497 
-2.39024 3.5166 5.41339 
-2.5172 3.52924 5.372 
-2.61148 3.51374 5.53299 
-2.7355 3.51487 5.57897 
-2.83059 3.50414 5.70357 
-2.95651 3.51966 5.63957 
-3.05462 3.52442 5.64616 
-3.17868 3.53121 5.64863 
-3.27745 3.5297 5.70383 
-3.39972 3.52182 5.81844 
-3.49979 3.52759 5.81818 
-3.63508 3.59359 5.36959 
-3.72616 3.55537 5.70407 
-3.85333 3.57844 5.58254 
-3.95452 3.58994 5.53865 
-4.17951 3.60863 5.49394 
-4.3043 3.61422 5.506 
-4.40936 3.63836 5.36646 
-4.53428 3.6504 5.32892 
-4.64196 3.67875 5.15808 
-4.76885 3.69565 5.08393 
-4.87238 3.70922 5.02515 
-5.11019 3.76132 4.72889 
-5.50797 3.90055 3.83216 
-5.6364 3.98344 3.25051 
-5.77325 4.00652 3.13321 
-5.86994 4.00374 3.19731 
-6.01245 4.049 2.91162 
-6.12147 4.07366 2.76986 
-6.25786 4.10065 2.62224 
-6.35478 4.08882 2.75619 
-6.4793 4.09029 2.79986 
-6.58714 4.11132 2.68548 
-6.70903 4.10352 2.79945 
-6.81741 4.11847 2.73217 
-6.93717 4.11334 2.8246 
-7.03309 4.10154 2.95788 
-7.1653 4.12395 2.84371 
-7.26296 4.11771 2.93492 
-7.38685 4.11817 2.98617 
-7.48535 4.1134 3.06643 
5.90502 4.60609 -6.31751 
5.78517 4.5976 -6.19978 
5.65299 4.6218 -6.3277 
5.53758 4.60544 -6.1515 
5.291 4.61743 -6.13543 
5.15119 4.62468 -6.12986 
5.02188 4.57587 -5.6983 
4.88301 4.57733 -5.64863 
4.77025 4.57078 -5.54888 
4.62522 4.55441 -5.35954 
4.50021 4.5181 -5.02586 
4.25477 4.50738 -4.83593 
3.98867 4.44123 -4.21114 
3.85423 4.45375 -4.24835 
3.72997 4.39076 -3.71003 
3.48601 4.37081 -3.44981 
2.95855 4.20438 -1.94008 
2.79999 4.10505 -1.10758 
2.71444 4.19072 -1.72805 
2.5632 4.12509 -1.15759 
2.46044 4.14685 -1.2796 
2.32292 4.11415 -0.968105 
2.21434 4.11168 -0.901411 
2.07571 4.06703 -0.497624 
1.96191 4.02327 -0.11155 
1.7271 3.9584 0.48984 
1.58668 3.89694 1.02357 
1.48751 3.92336 0.864199 
1.36099 3.94844 0.72712 
1.25794 3.93229 0.896434 
1.12701 3.95059 0.813406 
1.01126 3.84298 1.69084 
0.883982 3.88682 1.41002 
0.785389 3.89076 1.4231 
0.654579 3.8438 1.84127 
0.54473 3.84433 1.88545 
0.414679 3.81721 2.15098 
0.310048 3.78766 2.42391 
0.183688 3.76064 2.68703 
0.0808983 3.74247 2.87183 
-0.0479524 3.74755 2.88945 
-0.151374 3.70823 3.23695 
-0.276567 3.69935 3.36023 
-0.373777 3.68329 3.52632 
-0.505949 3.67998 3.60986 
-0.604993 3.65806 3.82183 
-0.73159 3.63788 4.03255 
-0.833205 3.66725 3.85165 
-0.958108 3.64979 4.0407 
-1.05747 3.64337 4.13375 
-1.18111 3.6625 4.0412 
-1.27443 3.59364 4.61121 
-1.40223 3.6146 4.50642 
-1.50097 3.60484 4.62482 
-1.61822 3.58514 4.82778 
-1.72105 3.5749 4.95173 
-1.84515 3.58206 4.95132 
-1.94601 3.58938 4.93955 
-2.06705 3.55205 5.27955 
-2.16789 3.56213 5.24657 
-2.29164 3.5602 5.31583 
-2.38951 3.55814 5.37474 
-2.51353 3.55066 5.48682 
-2.60902 3.54695 5.55743 
-2.73528 3.55421 5.55724 
-2.83234 3.56127 5.54573 
-2.9556 3.56199 5.59448 
-3.05318 3.55991 5.65343 
-3.17806 3.57158 5.61878 
-3.27522 3.56444 5.71646 
-3.39759 3.55346 5.85476 
-3.50088 3.57878 5.70572 
-3.62279 3.5847 5.7139 
-3.72135 3.57929 5.79893 
-3.85097 3.612 5.60472 
-3.95218 3.62186 5.57362 
-4.17692 3.64414 5.50143 
-4.30172 3.64857 5.52246 
-4.4091 3.67756 5.34701 
-4.53475 3.69432 5.27363 
-4.63803 3.70872 5.2086 
-4.76751 3.73191 5.08747 
-4.87386 3.75686 4.94266 
-5.116 3.81854 4.57551 
-5.23799 3.81868 4.62825 
-5.50902 3.94554 3.77305 
-5.63213 4.01027 3.33001 
-5.77627 4.06037 3.00865 
-6.00009 4.05959 3.11338 
-6.12559 4.11791 2.72063 
-6.25948 4.14419 2.57779 
-6.35762 4.13301 2.70694 
-6.47568 4.12832 2.7951 
-6.58689 4.14934 2.68263 
-6.70814 4.14044 2.80448 
-6.80736 4.1385 2.86318 
-6.93777 4.15302 2.80918 
-7.03748 4.15169 2.86338 
-7.16975 4.17116 2.77215 
-7.24712 4.12702 3.14546 
-7.38423 4.15607 2.98278 
-7.5018 4.18617 2.8034 
6.05963 4.68184 -6.66073 
5.93961 4.72803 -6.96214 
5.80637 4.68442 -6.56969 
5.67693 4.72069 -6.79089 
5.5402 4.65583 -6.23407 
5.28625 4.63718 -5.98002 
5.15309 4.66441 -6.1304 
5.02764 4.61859 -5.72441 
4.89548 4.64074 -5.83623 
4.76793 4.59596 -5.43728 
4.63529 4.62386 -5.59301 
4.50951 4.5787 -5.19188 
4.25771 4.55308 -4.88534 
4.12046 4.55637 -4.85045 
3.98842 4.47416 -4.16275 
3.84696 4.45756 -3.97364 
3.72447 4.39076 -3.40817 
3.60287 4.45206 -3.82456 
3.45731 4.28656 -2.49275 
3.33116 4.32779 -2.75339 
3.21286 4.28382 -2.36463 
3.0706 4.26195 -2.13472 
2.95163 4.20902 -1.67705 
2.81486 4.19817 -1.53402 
2.69127 4.11319 -0.82872 
2.56341 4.15165 -1.06732 
2.4604 4.18696 -1.29277 
2.32506 4.15058 -0.954666 
2.0737 4.06501 -0.188785 
1.96157 3.99356 0.407863 
1.82782 3.95745 0.743155 
1.72674 3.96738 0.711389 
1.59163 3.94051 0.976538 
1.36309 3.97544 0.809108 
1.25564 3.94316 1.10365 
1.13068 3.97568 0.909285 
1.01887 3.94554 1.18924 
0.887654 3.92461 1.4072 
0.656131 3.91784 1.56071 
0.417007 3.84651 2.21222 
0.311315 3.81646 2.48884 
0.184288 3.81345 2.56767 
0.081621 3.77997 2.8693 
-0.0470999 3.80191 2.7577 
-0.148486 3.75329 3.17479 
-0.274563 3.8018 2.85846 
-0.374593 3.72721 3.47394 
-0.504323 3.73568 3.46605 
-0.605873 3.69702 3.80689 
-0.729809 3.69273 3.8942 
-0.828671 3.67852 4.04652 
-0.955816 3.68716 4.03615 
-1.05096 3.63919 4.44559 
-1.1776 3.66791 4.28114 
-1.27885 3.66463 4.35071 
-1.4 3.65977 4.44121 
-1.50125 3.63467 4.67802 
-1.61762 3.61956 4.84497 
-1.71754 3.6021 5.02273 
-1.84542 3.63198 4.84997 
-1.94328 3.60769 5.07914 
-2.0649 3.59415 5.23635 
-2.16597 3.61218 5.1426 
-2.28864 3.58942 5.37093 
-2.3868 3.5888 5.41887 
-2.51433 3.59844 5.40108 
-2.60611 3.57992 5.58337 
-2.73548 3.60076 5.48053 
-2.83094 3.59747 5.54774 
-2.95426 3.59629 5.611 
-3.05145 3.59337 5.67612 
-3.17869 3.61922 5.53403 
-3.27404 3.60534 5.6823 
-3.39412 3.58788 5.86893 
-3.4987 3.61786 5.68523 
-3.61866 3.60891 5.80661 
-3.72002 3.61606 5.79641 
-3.85037 3.65134 5.58332 
-3.95061 3.65586 5.59283 
-4.17644 3.68127 5.49745 
-4.29929 3.68131 5.55118 
-4.40514 3.70642 5.40536 
-4.5298 3.71942 5.36057 
-4.63815 3.74962 5.17686 
-4.76506 3.76773 5.0939 
-4.8711 3.79248 4.95089 
-5.5102 3.98446 3.76086 
-5.76445 4.06889 3.22568 
-5.87068 4.08763 3.12886 
-6.00567 4.11742 2.95995 
-6.11732 4.14437 2.80255 
-6.25428 4.17062 2.66167 
-6.35812 4.17864 2.64594 
-6.47897 4.17617 2.71809 
-6.58676 4.18995 2.66001 
-6.70811 4.18396 2.75937 
-6.79569 4.15547 3.01635 
-6.93653 4.1937 2.78538 
-7.04108 4.20226 2.7658 
-7.16855 4.20754 2.78148 
-7.2514 4.17391 3.0758 
-7.38902 4.20311 2.9126 
6.06604 4.73775 -6.78606 
5.90858 4.67413 -6.23091 
5.80791 4.7244 -6.57115 
5.66239 4.71407 -6.42861 
5.53434 4.67747 -6.09285 
5.3034 4.71643 -6.28966 
5.16501 4.71987 -6.25552 
5.02286 4.64217 -5.59944 
4.89316 4.67482 -5.79229 
4.74067 4.54551 -4.73728 
4.6246 4.62731 -5.31179 
4.50169 4.5892 -4.96671 
4.24238 4.53387 -4.43043 
4.11603 4.5674 -4.63147 
4.00454 4.56948 -4.59858 
3.84559 4.48844 -3.90967 
3.5005 4.49208 -3.78654 
3.23503 4.39641 -2.93916 
2.96357 4.29861 -2.07289 
2.80756 4.18182 -1.11189 
2.69705 4.17258 -0.992845 
2.56748 4.19677 -1.12108 
2.47613 4.26565 -1.60762 
2.32361 4.17562 -0.852648 
1.96457 4.0918 -0.0547486 
1.72459 4.00063 0.747205 
1.59533 4.02478 0.619184 
1.49366 4.04176 0.533909 
1.36458 4.0159 0.788148 
1.25712 3.99085 1.02674 
1.12433 3.98018 1.16646 
1.01862 3.97068 1.28536 
0.887544 3.9088 1.81582 
0.7894 3.9675 1.41008 
0.654119 3.92321 1.80798 
0.550935 3.91183 1.94018 
0.423335 3.89936 2.09141 
0.314161 3.88243 2.26867 
0.184046 3.84407 2.61897 
0.0795639 3.81576 2.88116 
-0.0434158 3.82726 2.8472 
-0.146597 3.80227 3.08346 
-0.273967 3.78555 3.26709 
-0.373117 3.75668 3.53133 
-0.504116 3.74094 3.70911 
-0.605248 3.76326 3.58278 
-0.730067 3.75955 3.66588 
-0.827027 3.72794 3.95008 
-0.95317 3.71799 4.08146 
-1.05256 3.70963 4.18902 
-1.17487 3.69705 4.33885 
-1.2761 3.68141 4.50282 
-1.39284 3.66485 4.68063 
-1.49736 3.67253 4.66781 
-1.61699 3.64983 4.89382 
-1.71906 3.66065 4.85595 
-1.84104 3.63858 5.07822 
-1.94066 3.64128 5.10126 
-2.06352 3.63129 5.23158 
-2.16191 3.62692 5.3082 
-2.28727 3.63614 5.29271 
-2.38435 3.61878 5.46809 
-2.50846 3.61994 5.51374 
-2.60359 3.61087 5.62484 
-2.73112 3.62351 5.58421 
-2.82673 3.62055 5.64879 
-2.95157 3.63142 5.62051 
-3.04976 3.63028 5.67236 
-3.17573 3.64881 5.586 
-3.27226 3.64361 5.6682 
-3.38809 3.58681 6.15337 
-3.49305 3.64504 5.75423 
-3.62006 3.65741 5.71551 
-3.72171 3.67033 5.66136 
-3.84263 3.6651 5.75453 
-3.94822 3.68997 5.61076 
-4.1728 3.71904 5.48717 
-4.29804 3.72083 5.52855 
-4.40158 3.73428 5.47119 
-4.52926 3.7584 5.34293 
-4.63874 3.79348 5.12287 
-4.76435 3.80648 5.07862 
-4.87091 3.83547 4.90381 
-5.10398 3.86711 4.76443 
-5.36217 3.96746 4.11061 
-5.50915 4.02176 3.7601 
-5.63215 4.0949 3.25495 
-5.78478 4.15897 2.83214 
-5.87686 4.14389 2.98799 
-6.00251 4.14524 3.03293 
-6.11355 4.17998 2.81615 
-6.25268 4.21457 2.6128 
-6.35559 4.21936 2.62146 
-6.47865 4.21201 2.73183 
-6.5834 4.21938 2.72153 
-6.70292 4.21661 2.79531 
-6.80014 4.20521 2.92523 
-6.93516 4.22993 2.79563 
-7.03656 4.23291 2.81746 
-7.17048 4.25523 2.70571 
-7.26591 4.2435 2.83738 
-7.39184 4.24997 2.84338 
-7.48929 4.24914 2.8926 
6.06413 4.76476 -6.68669 
5.90776 4.71429 -6.23363 
5.77921 4.69239 -6.01049 
5.66909 4.76374 -6.50647 
5.53607 4.71699 -6.09192 
5.29737 4.73427 -6.11945 
5.16968 4.77614 -6.38303 
5.05606 4.76929 -6.28117 
4.90564 4.73641 -5.96479 
4.7803 4.70581 -5.67677 
4.63386 4.6909 -5.49915 
4.52836 4.69874 -5.51288 
4.25069 4.58854 -4.55131 
4.10529 4.55853 -4.25897 
4.00708 4.61944 -4.68058 
3.85103 4.52446 -3.88821 
3.59704 4.46842 -3.34993 
3.47583 4.4025 -2.79435 
3.33712 4.41931 -2.86191 
3.07672 4.34212 -2.15956 
2.96693 4.3289 -2.01079 
2.82639 4.3085 -1.79384 
2.68144 4.13539 -0.410499 
2.57446 4.26126 -1.32352 
2.45779 4.21727 -0.937067 
2.20721 4.14171 -0.25134 
2.08107 4.1838 -0.517185 
1.96556 4.07407 0.370027 
1.83378 4.07741 0.402195 
1.72968 4.04298 0.710262 
1.59575 4.08069 0.481319 
1.49384 4.04043 0.832853 
1.25514 4.00846 1.18109 
1.1275 4.03675 1.02114 
1.02035 3.99385 1.39521 
0.898611 4.03781 1.11318 
0.796421 4.07826 0.84943 
0.65787 3.99526 1.54304 
0.552738 3.94934 1.93921 
0.423824 3.96841 1.85021 
0.314113 3.87838 2.58483 
0.186199 3.88357 2.60117 
0.0831061 3.85272 2.88159 
-0.0449367 3.8189 3.1956 
-0.145408 3.80367 3.35573 
-0.273222 3.82614 3.24035 
-0.372691 3.81585 3.36232 
-0.502831 3.80745 3.48337 
-0.601364 3.76626 3.84066 
-0.73162 3.78383 3.76372 
-0.826157 3.77179 3.89699 
-0.951085 3.74815 4.132 
-1.04872 3.72569 4.34608 
-1.17404 3.7414 4.28114 
-1.27171 3.71402 4.53277 
-1.39502 3.70916 4.62383 
-1.49558 3.70411 4.70645 
-1.61749 3.69815 4.80531 
-1.71505 3.67531 5.02226 
-1.84243 3.70132 4.87967 
-1.93909 3.66969 5.16332 
-2.06469 3.68935 5.0684 
-2.16235 3.67665 5.20812 
-2.28576 3.66521 5.34942 
-2.38339 3.66379 5.4031 
-2.50688 3.66501 5.44797 
-2.60338 3.65581 5.56042 
-2.72879 3.65937 5.58825 
-2.82578 3.66431 5.59315 
-2.94876 3.66247 5.66109 
-3.04944 3.67498 5.60982 
-3.17338 3.68769 5.56729 
-3.272 3.67611 5.69888 
-3.38577 3.61743 6.19635 
-3.49277 3.68322 5.74146 
-3.61657 3.68403 5.7896 
-3.71924 3.70399 5.68245 
-3.84222 3.70869 5.70052 
-3.94302 3.72234 5.64064 
-4.17011 3.74795 5.545 
-4.29516 3.75161 5.57198 
-4.40367 3.78561 5.36028 
-4.5241 3.78453 5.42137 
-4.63493 3.82414 5.16788 
-4.75805 3.82909 5.18415 
-4.86602 3.85775 5.01297 
-5.5094 4.06692 3.7 
-5.63322 4.13934 3.20196 
-5.74679 4.10705 3.49811 
-5.87302 4.17719 3.01856 
-5.99263 4.16282 3.18068 
-6.11644 4.23198 2.70756 
-6.25103 4.24772 2.64654 
-6.35169 4.24758 2.69188 
-6.48073 4.2578 2.67055 
-6.57826 4.24721 2.79425 
-6.70089 4.25019 2.82538 
-6.79938 4.24828 2.88323 
-6.92975 4.2629 2.82896 
-7.03922 4.27743 2.76621 
-7.16559 4.28869 2.73584 
-7.26651 4.28734 2.7905 
-7.38846 4.28172 2.88695 
6.33718 4.84976 -7.14882 
6.06808 4.80294 -6.67529 
5.80703 4.79211 -6.47914 
5.56817 4.82713 -6.6414 
5.28881 4.75989 -6.00814 
5.14949 4.7531 -5.8958 
5.00837 4.67469 -5.23779 
4.86944 4.68346 -5.24393 
4.78671 4.75555 -5.75624 
4.62423 4.69441 -5.22034 
4.52503 4.72494 -5.40931 
4.25964 4.66261 -4.81945 
4.12027 4.65703 -4.71628 
3.99961 4.62393 -4.41189 
3.59258 4.48647 -3.18874 
3.49274 4.52588 -3.44496 
2.96751 4.35481 -1.9145 
2.71037 4.31293 -1.48371 
2.57787 4.29732 -1.30711 
2.33747 4.29912 -1.21594 
2.21347 4.20301 -0.430707 
1.73073 4.12285 0.389891 
1.59153 4.03018 1.15564 
1.37181 4.10418 0.688701 
1.26253 4.07741 0.940078 
1.12627 4.03352 1.33346 
1.02393 4.04227 1.3116 
0.900813 4.09354 0.975383 
0.790028 4.04171 1.41805 
0.662103 4.03644 1.51406 
0.550483 3.96366 2.11649 
0.422329 3.96277 2.17924 
0.317076 3.89974 2.70476 
0.18688 3.89319 2.81153 
0.0846129 3.91848 2.66384 
-0.0412066 3.88292 2.98941 
-0.144361 3.84876 3.29439 
-0.270552 3.85623 3.29272 
-0.371489 3.8331 3.51284 
-0.499412 3.83253 3.57307 
-0.597532 3.80676 3.81204 
-0.724661 3.78366 4.04341 
-0.825554 3.80858 3.89795 
-0.950687 3.80028 4.01582 
-1.04971 3.79027 4.13532 
-1.17118 3.7719 4.32824 
-1.27022 3.75357 4.511 
-1.39277 3.74967 4.59428 
-1.49258 3.739 4.71919 
-1.6162 3.7367 4.79072 
-1.71346 3.72026 4.95836 
-1.83992 3.73187 4.92543 
-1.93956 3.7153 5.09509 
-2.06218 3.71651 5.13957 
-2.1593 3.69992 5.3083 
-2.28234 3.69629 5.38982 
-2.37944 3.68417 5.52451 
-2.50446 3.69619 5.48785 
-2.60233 3.69804 5.51658 
-2.72693 3.69366 5.60452 
-2.82236 3.68921 5.68012 
-2.947 3.69849 5.6641 
-3.04643 3.70741 5.63976 
-3.17197 3.72491 5.56161 
-3.26677 3.70512 5.75372 
-3.38675 3.67504 6.03516 
-3.48965 3.70994 5.81473 
-3.61275 3.71483 5.83141 
-3.71911 3.74618 5.63946 
-3.84716 3.77198 5.49928 
-3.94899 3.79067 5.40171 
-4.16687 3.78184 5.56434 
-4.29479 3.7944 5.52484 
-4.39673 3.80232 5.50927 
-4.52744 3.83833 5.29261 
-4.632 3.85816 5.18753 
-4.75797 3.87208 5.13683 
-4.86645 3.89778 4.98885 
-5.10125 3.94283 4.74895 
-5.76206 4.19136 3.14755 
-5.86919 4.20929 3.05814 
-6.00318 4.23064 2.95443 
-6.11708 4.26638 2.73242 
-6.24649 4.28033 2.68301 
-6.34891 4.28276 2.70947 
-6.47325 4.28263 2.76498 
-6.57641 4.28634 2.782 
-6.70275 4.29469 2.77394 
-6.80586 4.29957 2.78204 
-6.92652 4.29672 2.85663 
-7.03103 4.30306 2.85428 
-7.16781 4.33345 2.68301 
-7.26391 4.32172 2.81447 
-7.39317 4.33165 2.79563 
6.16867 4.82212 -6.56192 
6.07402 4.85241 -6.75055 
5.95513 4.89963 -7.0571 
5.82621 4.86855 -6.76516 
5.67841 4.86454 -6.6704 
5.54082 4.7837 -5.99703 
5.29892 4.8162 -6.13835 
5.152 4.79561 -5.9181 
5.02018 4.74858 -5.50389 
4.91632 4.83259 -6.09617 
4.76902 4.74766 -5.38753 
4.51981 4.7411 -5.22923 
3.98744 4.59954 -3.92322 
3.85389 4.58807 -3.77798 
3.72832 4.53517 -3.32191 
3.59915 4.55073 -3.38374 
3.47115 4.47541 -2.75637 
3.32975 4.44581 -2.4702 
3.2392 4.51333 -2.94307 
3.06206 4.35641 -1.67514 
2.81037 4.32032 -1.29156 
2.69671 4.27568 -0.90331 
2.57417 4.32988 -1.26115 
2.47992 4.36723 -1.50354 
2.32822 4.28998 -0.851161 
2.21921 4.27229 -0.669447 
2.08023 4.2357 -0.331183 
1.97282 4.20854 -0.0782563 
1.84343 4.16236 0.328678 
1.73164 4.09048 0.922909 
1.59952 4.09924 0.914072 
1.49277 4.08622 1.05939 
1.36742 4.09731 1.02993 
1.25861 4.08301 1.18589 
1.12901 4.08843 1.20132 
1.02581 4.07492 1.34881 
0.897737 4.09783 1.23086 
0.793129 4.08667 1.36118 
0.66569 4.10815 1.2538 
0.555129 4.02209 1.9552 
0.424648 4.01137 2.09345 
0.318807 3.9588 2.53863 
0.188481 3.94867 2.67238 
0.0859736 3.94981 2.70846 
-0.0398469 3.92474 2.9537 
-0.142692 3.88501 3.30016 
-0.269689 3.89452 3.28339 
-0.370008 3.86725 3.53422 
-0.496511 3.88987 3.41774 
-0.593884 3.86594 3.64192 
-0.72401 3.8447 3.85991 
-0.824825 3.8533 3.8387 
-0.94971 3.845 3.95623 
-1.04948 3.8249 4.15236 
-1.17014 3.80854 4.32926 
-1.27053 3.80347 4.41158 
-1.39141 3.78975 4.56857 
-1.49335 3.79095 4.60398 
-1.61661 3.78887 4.67362 
-1.7142 3.75762 4.95352 
-1.83871 3.78249 4.81914 
-1.93564 3.73956 5.18734 
-2.06223 3.76123 5.07824 
-2.15621 3.7247 5.39661 
-2.28152 3.73179 5.39752 
-2.3779 3.72094 5.52201 
-2.50153 3.72406 5.55239 
-2.60007 3.73075 5.54471 
-2.72412 3.73228 5.58736 
-2.8225 3.73182 5.63388 
-2.94452 3.73151 5.68956 
-3.04197 3.73158 5.73166 
-3.16881 3.75675 5.59614 
-3.26213 3.71861 5.92646 
-3.38538 3.71743 5.98933 
-3.48841 3.74635 5.81486 
-3.61153 3.7574 5.78485 
-3.71597 3.77583 5.69068 
-3.83812 3.77477 5.75213 
-3.93884 3.78975 5.68253 
-4.28866 3.81251 5.66286 
-4.39806 3.85593 5.38115 
-4.52499 3.87185 5.31587 
-4.63161 3.89711 5.1708 
-4.75505 3.90517 5.16362 
-4.86096 3.93123 5.01217 
-5.76027 4.22883 3.14685 
-5.86092 4.22808 3.19664 
-5.99608 4.25358 3.06221 
-6.11848 4.31211 2.67155 
-6.24893 4.32811 2.60718 
-6.34183 4.30579 2.81734 
-6.47683 4.33521 2.65311 
-6.57302 4.32252 2.79158 
-6.70101 4.33279 2.76974 
-6.80085 4.33185 2.8206 
-6.92332 4.3298 2.88984 
-7.03646 4.35653 2.73652 
-7.17162 4.38667 2.56687 
-7.26385 4.36271 2.78922 
-7.39613 4.37996 2.71627 
6.08085 4.9038 -6.84028 
5.94663 4.91605 -6.87469 
5.81609 4.88108 -6.55324 
5.68472 4.90832 -6.70232 
5.5323 4.79112 -5.74879 
5.28768 4.82781 -5.92019 
5.14191 4.81023 -5.72373 
5.03086 4.8069 -5.65031 
4.89918 4.82083 -5.69851 
4.78782 4.83102 -5.72723 
4.65268 4.83372 -5.6889 
4.51031 4.74351 -4.94407 
4.25882 4.73703 -4.78568 
4.11739 4.71703 -4.57276 
4.00764 4.71372 -4.50001 
3.85846 4.65202 -3.96803 
3.75802 4.69782 -4.27103 
2.95793 4.38098 -1.52442 
2.83588 4.44109 -1.92632 
2.71883 4.407 -1.61732 
2.56889 4.33498 -1.00681 
2.47332 4.37209 -1.24616 
2.33099 4.32668 -0.840477 
2.21806 4.28994 -0.513162 
2.08221 4.28011 -0.379578 
1.9753 4.21716 0.143511 
1.73927 4.19026 0.449931 
1.59971 4.1113 1.10854 
1.50036 4.19704 0.502694 
1.37447 4.18901 0.61826 
1.26263 4.13529 1.07371 
1.13002 4.12505 1.20901 
1.02749 4.08604 1.54902 
0.900592 4.13335 1.24613 
0.663989 4.13142 1.36381 
0.553725 4.03592 2.13492 
0.427639 4.05592 2.03849 
0.32046 3.9847 2.62441 
0.194419 4.03078 2.33043 
0.0868871 3.95749 2.93225 
-0.0385612 3.99514 2.70183 
-0.140781 3.93286 3.21799 
-0.268508 3.96208 3.05242 
-0.369085 3.91192 3.47605 
-0.49349 3.92125 3.45969 
-0.594379 3.88331 3.79091 
-0.726798 3.91443 3.61303 
-0.822438 3.89181 3.82601 
-0.946841 3.86473 4.08535 
-1.04562 3.85147 4.22884 
-1.16822 3.85384 4.26438 
-1.26522 3.8215 4.5516 
-1.38672 3.83285 4.51869 
-1.48795 3.79373 4.85901 
-1.61205 3.80793 4.80565 
-1.71039 3.78852 4.99556 
-1.83592 3.80918 4.89396 
-1.93294 3.77308 5.20964 
