ply
format ascii 1.0
element vertex 1709
property float x
property float y
property float z
end_header
-0.532377 -0.871239 -0.788449 
-0.638814 -0.868399 -0.760793 
-0.984891 -0.945502 0.309961 
-1.08859 -0.973533 0.686789 
-1.21329 -0.98361 0.871498 
-1.31932 -0.976909 0.855081 
-1.44491 -0.98914 1.06477 
-1.54293 -1.03213 1.60843 
-1.66711 -1.07345 2.14774 
-1.76841 -1.05672 2.01472 
-1.89425 -1.09744 2.54829 
-1.99448 -1.07209 2.31676 
-2.12416 -1.09407 2.63959 
-2.2197 -1.09006 2.64783 
-2.35189 -1.08821 2.70128 
-2.447 -1.09258 2.8046 
-2.57459 -1.10712 3.04172 
-2.67441 -1.09963 3.01286 
-2.79713 -1.11637 3.27224 
-2.89617 -1.10741 3.22628 
-3.02479 -1.10131 3.2295 
-3.1227 -1.09669 3.2322 
-3.24854 -1.09279 3.25886 
-3.35497 -1.08538 3.23459 
-3.47447 -1.07849 3.22378 
-3.58918 -1.05538 3.02588 
-3.70701 -1.06726 3.22734 
-3.81237 -1.05302 3.12494 
-3.93962 -1.04238 3.0758 
-4.03418 -1.05133 3.23089 
-4.17341 -1.02252 2.98208 
-4.27453 -1.01123 2.91078 
-4.40563 -1.00489 2.91271 
-4.51129 -0.982276 2.71541 
-4.64149 -0.977325 2.73262 
-4.73711 -0.983266 2.85408 
-4.88853 -0.926887 2.29892 
-4.98663 -0.929383 2.38264 
-5.14347 -0.853569 1.60971 
-5.23547 -0.87435 1.89777 
-5.36505 -0.860622 1.81492 
-5.47561 -0.841985 1.66555 
-5.60967 -0.82334 1.52936 
-5.70864 -0.825483 1.60959 
-5.84972 -0.79169 1.30524 
-5.95206 -0.792792 1.37554 
-6.08686 -0.773534 1.23282 
-6.20222 -0.750207 1.03289 
-6.44132 -0.725515 0.887315 
-6.57759 -0.710039 0.788417 
-6.66843 -0.724502 1.00405 
-6.80042 -0.710551 0.920078 
-6.92014 -0.685815 0.706602 
-7.03825 -0.698715 0.919902 
-7.14506 -0.686244 0.838521 
-7.26375 -0.695583 1.0117 
-7.37515 -0.677041 0.863932 
-7.49292 -0.689434 1.0713 
-7.60541 -0.668989 0.902521 
-7.72225 -0.683883 1.13779 
-7.83304 -0.666121 0.998555 
-7.94763 -0.683461 1.26036 
6.03448 -0.624473 -6.83127 
5.74826 -0.672465 -6.12796 
5.59996 -0.68052 -5.9538 
5.50154 -0.664017 -6.08548 
5.35927 -0.66294 -6.01805 
5.23733 -0.678972 -5.76834 
5.11289 -0.655126 -5.96856 
5.02823 -0.607948 -6.4551 
4.87838 -0.62427 -6.18648 
4.75056 -0.650409 -5.81909 
4.57691 -0.722948 -4.90088 
4.49419 -0.667972 -5.47675 
4.33156 -0.720879 -4.78689 
4.25123 -0.648442 -5.56172 
4.086 -0.722061 -4.63597 
3.98889 -0.689242 -4.95302 
3.83552 -0.72824 -4.42573 
3.73074 -0.718149 -4.48124 
3.58804 -0.73654 -4.19315 
3.47214 -0.763382 -3.8244 
3.32741 -0.789481 -3.44792 
3.20542 -0.822921 -3.00107 
3.07104 -0.82024 -2.9561 
2.97107 -0.801794 -3.10885 
2.82137 -0.839904 -2.59359 
2.70895 -0.858707 -2.31777 
2.57676 -0.851182 -2.32883 
2.47414 -0.833353 -2.47309 
2.33322 -0.850472 -2.20032 
2.22535 -0.850528 -2.1392 
2.08927 -0.852989 -2.03504 
1.98607 -0.845391 -2.06316 
1.84738 -0.87058 -1.70028 
1.74884 -0.834534 -2.053 
1.61272 -0.849417 -1.80821 
1.50773 -0.846458 -1.78281 
1.36821 -0.87598 -1.37038 
1.26313 -0.863285 -1.45512 
1.02415 -0.848569 -1.48761 
0.89162 -0.879017 -1.0686 
0.783179 -0.865055 -1.16579 
0.650261 -0.880863 -0.912256 
0.547704 -0.870124 -0.976262 
0.415855 -0.883025 -0.75623 
0.314613 -0.8694 -0.853626 
0.18061 -0.851681 -0.97897 
0.0758775 -0.838224 -1.0725 
-0.0564226 -0.879416 -0.531963 
-0.160311 -0.826212 -1.07588 
-0.291613 -0.877166 -0.425373 
-0.396283 -0.866842 -0.483465 
-0.525678 -0.813543 -1.01414 
-0.637026 -0.820952 -0.867737 
-0.981097 -0.93172 0.579396 
-1.08809 -0.938884 0.720604 
-1.20568 -0.966262 1.09659 
-1.31931 -0.92636 0.708728 
-1.4404 -0.988539 1.48065 
-1.54292 -0.972694 1.35889 
-1.66708 -1.0317 2.0966 
-1.76803 -1.01656 1.98199 
-1.8928 -1.03324 2.2409 
-1.99306 -1.03502 2.31745 
-2.11936 -1.06192 2.69295 
-2.22313 -1.04711 2.58368 
-2.3444 -1.06441 2.84767 
-2.44876 -1.04935 2.73584 
-2.57068 -1.07786 3.12714 
-2.67327 -1.05792 2.95918 
-2.79299 -1.09049 3.39518 
-2.89262 -1.07306 3.25387 
-3.0238 -1.06125 3.19397 
-3.12261 -1.06207 3.25884 
-3.24668 -1.05702 3.27147 
-3.35173 -1.0491 3.24085 
-3.46608 -1.05981 3.42649 
-3.58252 -1.03553 3.21711 
-3.70587 -1.02451 3.1617 
-3.80743 -1.02503 3.22472 
-3.93017 -1.02787 3.32594 
-4.03554 -1.00769 3.15678 
-4.17599 -0.97444 2.85939 
-4.26902 -0.983148 3.01034 
-4.39925 -0.97336 2.97282 
-4.50693 -0.949466 2.76289 
-4.64529 -0.930374 2.62462 
-4.74012 -0.934351 2.72303 
-4.88788 -0.885668 2.25502 
-4.9852 -0.890434 2.36376 
-5.13355 -0.832428 1.79053 
-5.23654 -0.835693 1.88548 
-5.36847 -0.813954 1.71363 
-5.46625 -0.820364 1.84126 
-5.60906 -0.787901 1.55413 
-5.7149 -0.775336 1.47146 
-5.851 -0.752687 1.29166 
-5.9662 -0.726303 1.0578 
-6.09928 -0.711413 0.964161 
-6.20851 -0.697125 0.863909 
-6.32966 -0.7027 0.995275 
-6.43573 -0.695072 0.968655 
-6.58272 -0.65998 0.654112 
-6.67265 -0.677891 0.907585 
-6.80968 -0.656237 0.739592 
-6.91799 -0.646256 0.687609 
-7.03368 -0.661981 0.930858 
-7.1338 -0.663107 1.00002 
-7.25913 -0.66264 1.06537 
-7.36707 -0.646668 0.945337 
-7.49729 -0.643989 0.988404 
-7.59844 -0.640881 1.01022 
-7.72975 -0.632223 0.98619 
-7.83127 -0.630927 1.02875 
-7.93737 -0.655902 1.37137 
6.03653 -0.585371 -6.82666 
5.78928 -0.574109 -6.81563 
5.60302 -0.642745 -5.93761 
5.53363 -0.56974 -6.72217 
5.37031 -0.608457 -6.19435 
5.26739 -0.591286 -6.33052 
5.00203 -0.621279 -5.84408 
4.87868 -0.588694 -6.14266 
4.73814 -0.643646 -5.44444 
4.60227 -0.639032 -5.42057 
4.50076 -0.61961 -5.5829 
4.33863 -0.676609 -4.8495 
4.24135 -0.636594 -5.24643 
4.10238 -0.63755 -5.158 
3.98116 -0.673272 -4.68739 
3.8401 -0.683662 -4.49138 
3.72346 -0.694286 -4.30638 
3.58457 -0.725706 -3.8744 
3.47422 -0.720574 -3.87058 
3.32469 -0.770668 -3.22204 
3.23537 -0.708033 -3.8785 
3.08887 -0.738724 -3.45046 
2.97185 -0.762618 -3.11555 
2.83771 -0.764132 -3.02347 
2.72148 -0.795467 -2.60507 
2.57838 -0.811085 -2.34889 
2.46951 -0.800379 -2.40874 
2.33643 -0.812186 -2.20114 
2.23159 -0.792412 -2.36552 
2.09036 -0.821088 -1.9631 
1.97674 -0.860544 -1.45451 
1.84395 -0.845193 -1.55335 
1.7485 -0.802737 -1.9788 
1.61195 -0.816683 -1.7451 
1.51179 -0.794909 -1.93464 
1.37239 -0.835385 -1.4001 
1.26026 -0.836336 -1.32662 
1.1284 -0.84462 -1.15938 
1.02104 -0.851339 -1.0235 
0.892397 -0.823198 -1.26889 
0.785029 -0.818626 -1.26035 
0.652656 -0.839227 -0.95389 
0.551472 -0.822076 -1.09068 
0.414878 -0.848473 -0.71646 
0.316089 -0.813222 -1.05875 
0.18281 -0.807697 -1.04643 
0.0806674 -0.802483 -1.04805 
-0.057485 -0.805126 -0.940858 
-0.162528 -0.814148 -0.780262 
-0.285436 -0.87236 -0.0548052 
-0.386871 -0.868924 -0.0367403 
-0.633251 -0.771149 -1.00159 
-0.748744 -0.881575 0.308703 
-0.854193 -0.895131 0.520705 
-0.976783 -0.907889 0.73332 
-1.08685 -0.90138 0.721579 
-1.20482 -0.939526 1.21798 
-1.31506 -0.908742 0.932528 
-1.44406 -0.931101 1.25706 
-1.5411 -0.935582 1.36201 
-1.66624 -0.986306 2.00435 
-1.76609 -0.98851 2.08519 
-1.88815 -1.02584 2.57479 
-1.98638 -1.0114 2.46692 
-2.11986 -1.02382 2.68193 
-2.22596 -0.997519 2.44471 
-2.344 -1.0301 2.87849 
-2.44499 -1.02185 2.84202 
-2.57235 -1.02894 2.99342 
-2.66718 -1.03206 3.08188 
-2.79226 -1.04156 3.25922 
-2.89087 -1.04283 3.32882 
-3.02007 -1.03358 3.29697 
-3.12192 -1.01994 3.20026 
-3.24461 -1.02077 3.27849 
-3.3527 -1.00233 3.13112 
-3.57922 -0.997855 3.20776 
-3.69931 -1.00271 3.32993 
-3.80841 -0.980062 3.13568 
-3.92886 -0.990306 3.31886 
-4.03294 -0.974119 3.19467 
-4.17251 -0.941428 2.90421 
-4.26786 -0.945431 3.00292 
-4.50151 -0.920776 2.85596 
-4.64152 -0.896938 2.66563 
-4.73618 -0.903652 2.79454 
-4.87688 -0.869803 2.49167 
-4.98443 -0.851355 2.34395 
-5.13111 -0.795876 1.8004 
-5.23089 -0.806098 1.97177 
-5.37461 -0.764094 1.5786 
-5.4735 -0.766303 1.65907 
-5.60717 -0.748174 1.52962 
-5.71589 -0.731988 1.40808 
-5.85268 -0.710654 1.24423 
-5.95741 -0.70245 1.21051 
-6.08533 -0.69764 1.22811 
-6.19709 -0.676 1.04676 
-6.31974 -0.679473 1.15487 
-6.42535 -0.672269 1.13294 
-6.56422 -0.649963 0.959304 
-6.67148 -0.639084 0.89684 
-6.80512 -0.625029 0.813372 
-6.91055 -0.613486 0.74239 
-7.03189 -0.623246 0.920727 
-7.13774 -0.614804 0.884979 
-7.26089 -0.619203 1.00385 
-7.36039 -0.618089 1.04722 
-7.48649 -0.620988 1.15084 
-7.5903 -0.611582 1.10308 
-7.72362 -0.59951 1.04184 
-7.83459 -0.584586 0.935842 
-7.94152 -0.608344 1.26406 
6.04614 -0.536704 -6.93375 
5.75351 -0.594623 -6.1199 
5.61505 -0.588037 -6.11679 
5.49044 -0.601042 -5.90123 
5.39311 -0.538389 -6.55109 
5.25258 -0.586343 -5.93391 
4.99999 -0.588219 -5.7721 
4.8605 -0.589632 -5.67849 
4.74731 -0.584516 -5.67291 
4.60202 -0.604848 -5.36345 
4.49962 -0.589699 -5.47663 
4.3522 -0.61384 -5.12316 
4.25337 -0.583371 -5.4105 
4.0034 -0.584537 -5.25804 
3.85052 -0.621509 -4.75732 
3.73373 -0.634789 -4.54296 
3.56999 -0.728833 -3.39476 
3.45557 -0.740814 -3.1963 
3.34834 -0.688766 -3.72145 
3.23767 -0.681125 -3.74559 
2.97199 -0.732259 -3.02273 
2.833 -0.749987 -2.74596 
2.73311 -0.719852 -3.02891 
2.57879 -0.772763 -2.34817 
2.47314 -0.759288 -2.44066 
2.34114 -0.763459 -2.32012 
2.23141 -0.767617 -2.21216 
2.09425 -0.781511 -1.97946 
1.9953 -0.772401 -2.02662 
1.84942 -0.805813 -1.56968 
1.74204 -0.813518 -1.42314 
1.61689 -0.76464 -1.90262 
1.50133 -0.802209 -1.41587 
1.37017 -0.803092 -1.33271 
1.26289 -0.802166 -1.28322 
1.13208 -0.80305 -1.20025 
1.02891 -0.785358 -1.34148 
0.890838 -0.808795 -1.00096 
0.78813 -0.785916 -1.20074 
0.653631 -0.811971 -0.832781 
0.550956 -0.78539 -1.07419 
0.418983 -0.784923 -1.00571 
0.319382 -0.771281 -1.1034 
0.183338 -0.776827 -0.965073 
0.0807954 -0.763517 -1.05739 
-0.0564897 -0.77205 -0.884767 
-0.158839 -0.782099 -0.714631 
-0.282661 -0.829263 -0.115317 
-0.389331 -0.831287 -0.032947 
-0.5153 -0.846335 0.206597 
-0.748096 -0.841652 0.284083 
-0.857191 -0.817349 0.0718971 
-0.976333 -0.88551 0.904655 
-1.08447 -0.869893 0.789572 
-1.20161 -0.936213 1.60053 
-1.31294 -0.881023 1.04242 
-1.43502 -0.927102 1.62865 
-1.5387 -0.930044 1.7197 
-1.66126 -0.960415 2.12964 
-1.76345 -0.937258 1.9265 
-1.88993 -0.976987 2.44383 
-1.98759 -0.973245 2.45641 
-2.11458 -0.989168 2.70644 
-2.21327 -0.991569 2.78866 
-2.33647 -1.01373 3.10668 
-2.43928 -0.995551 2.95988 
-2.66536 -1.00175 3.15607 
-2.79079 -1.00969 3.31558 
-2.89362 -0.989339 3.14434 
-3.01936 -0.991499 3.23901 
-3.11719 -0.99606 3.34504 
-3.24058 -0.992806 3.37754 
-3.34853 -0.977299 3.26365 
-3.57462 -0.962357 3.22227 
-3.7018 -0.957367 3.23739 
-3.80623 -0.944658 3.153 
-3.93328 -0.934833 3.1137 
-4.0277 -0.943888 3.26837 
-4.16262 -0.917966 3.05253 
-4.26377 -0.906721 2.98277 
-4.50152 -0.886143 2.8846 
-4.62831 -0.881883 2.90774 
-4.73725 -0.860221 2.72525 
-4.88244 -0.813767 2.28433 
-4.97457 -0.830698 2.5263 
-5.13353 -0.75099 1.71926 
-5.22437 -0.777468 2.06783 
-5.36374 -0.74087 1.73448 
-5.46886 -0.735713 1.73541 
-5.60392 -0.711623 1.54027 
-5.70977 -0.704384 1.5182 
-5.85578 -0.664606 1.15283 
-5.95364 -0.670787 1.27717 
-6.09952 -0.632062 0.923558 
-6.20345 -0.623254 0.882792 
-6.43514 -0.615454 0.924984 
-6.56593 -0.606007 0.892104 
-6.67149 -0.598218 0.863708 
-6.81528 -0.570699 0.634941 
-6.91425 -0.570086 0.683537 
-7.03592 -0.577709 0.837479 
-7.13377 -0.582111 0.941857 
-7.25603 -0.587638 1.07256 
-7.35274 -0.590345 1.15725 
-7.4906 -0.571559 1.02335 
-7.60137 -0.555233 0.901936 
-7.71856 -0.566804 1.09777 
-7.82749 -0.5536 1.01043 
6.02468 -0.536976 -6.47479 
5.77751 -0.518395 -6.54554 
5.65774 -0.488063 -6.81865 
5.49206 -0.561747 -5.90144 
5.36398 -0.551855 -5.94104 
5.27489 -0.511492 -6.34352 
5.10281 -0.56809 -5.61407 
5.02709 -0.505636 -6.27137 
4.85841 -0.560847 -5.55932 
4.78902 -0.476612 -6.46406 
4.61607 -0.541815 -5.63772 
4.51079 -0.525161 -5.76569 
4.35262 -0.573627 -5.135 
4.25561 -0.540897 -5.44758 
4.09436 -0.602458 -4.6685 
4.00509 -0.548975 -5.2178 
3.84736 -0.609803 -4.44888 
3.59317 -0.62724 -4.1122 
3.46931 -0.672767 -3.53345 
3.32209 -0.714134 -2.98827 
3.24697 -0.625381 -3.94042 
3.07241 -0.716716 -2.82042 
2.99339 -0.639666 -3.63934 
2.82929 -0.715612 -2.69749 
2.73402 -0.685406 -2.98274 
2.58289 -0.720944 -2.50063 
2.48021 -0.707985 -2.5886 
2.33441 -0.761765 -1.90514 
2.23267 -0.729117 -2.21413 
2.09514 -0.745912 -1.94947 
1.99136 -0.756138 -1.77715 
1.85845 -0.745693 -1.82013 
1.7409 -0.776892 -1.40525 
1.6187 -0.739043 -1.76109 
1.50456 -0.754766 -1.52143 
1.37277 -0.765552 -1.32722 
1.26964 -0.729057 -1.67852 
1.02739 -0.760753 -1.18857 
0.894278 -0.78555 -0.836684 
0.787842 -0.746588 -1.21376 
0.658604 -0.752623 -1.07415 
0.553155 -0.756894 -0.967559 
0.422383 -0.748124 -0.992908 
0.320552 -0.768176 -0.711571 
0.0809133 -0.736908 -0.92822 
-0.0536851 -0.736697 -0.855557 
-0.153714 -0.734124 -0.828617 
-0.515779 -0.802467 0.138731 
-0.860206 -0.757698 -0.17065 
-0.972346 -0.857062 1.00485 
-1.08312 -0.807408 0.510472 
-1.20894 -0.79478 0.439207 
-1.31048 -0.845304 1.06177 
-1.43763 -0.858587 1.2815 
-1.53841 -0.882303 1.60337 
-1.65832 -0.936501 2.27736 
-1.76286 -0.907754 2.01369 
-1.88684 -0.939826 2.44213 
-1.98576 -0.949577 2.60657 
-2.11185 -0.960937 2.80419 
-2.21649 -0.937228 2.59703 
-2.33753 -0.974539 3.08253 
-2.43662 -0.958163 2.95442 
-2.66164 -0.971514 3.2296 
-2.78736 -0.982332 3.42099 
-2.89146 -0.953606 3.15733 
-3.01468 -0.967126 3.37759 
-3.11134 -0.970704 3.47166 
-3.24248 -0.939832 3.19907 
-3.34549 -0.936441 3.21861 
-3.57503 -0.923912 3.20648 
-3.69545 -0.925771 3.29458 
-3.80004 -0.922 3.31076 
-3.92876 -0.904494 3.18657 
-4.02433 -0.913174 3.33721 
-4.16797 -0.869298 2.92595 
-4.26062 -0.874552 3.03658 
-4.40089 -0.850187 2.84201 
-4.49976 -0.848368 2.87689 
-4.63608 -0.8261 2.70361 
-4.73115 -0.831339 2.81544 
-4.86408 -0.814831 2.70481 
-4.97816 -0.779109 2.36838 
-5.12584 -0.728725 1.88649 
-5.2266 -0.733657 1.99806 
-5.36089 -0.702774 1.72715 
-5.46508 -0.698305 1.73534 
-5.59187 -0.694978 1.76895 
-5.70905 -0.65873 1.42837 
-5.83944 -0.651786 1.42348 
-5.9504 -0.631309 1.25612 
-6.09007 -0.609171 1.0862 
-6.20838 -0.573726 0.755265 
-6.3219 -0.597271 1.08254 
-6.43593 -0.573923 0.884736 
-6.56223 -0.569744 0.908557 
-6.65865 -0.577258 1.04667 
-6.80219 -0.547252 0.790788 
-6.90676 -0.544106 0.814052 
-7.03536 -0.539162 0.830603 
-7.13324 -0.542128 0.918594 
-7.25366 -0.548144 1.05338 
-7.35336 -0.549408 1.12333 
-7.47969 -0.547389 1.1714 
-7.59005 -0.531681 1.05718 
-7.72017 -0.52411 1.04517 
-7.81833 -0.529131 1.15637 
-7.94181 -0.532019 1.25784 
5.79781 -0.446817 -6.91425 
5.61902 -0.508716 -6.12439 
5.53422 -0.458076 -6.64248 
5.37809 -0.495393 -6.13949 
5.27631 -0.47674 -6.29121 
5.0137 -0.488922 -6.00965 
4.86689 -0.509273 -5.70113 
4.7556 -0.503139 -5.70786 
4.59372 -0.551414 -5.07935 
4.51962 -0.473682 -5.9057 
4.34464 -0.560762 -4.83686 
4.25187 -0.514034 -5.30686 
4.09962 -0.567816 -4.62221 
4.00453 -0.518719 -5.11735 
3.82784 -0.634577 -3.72637 
3.72325 -0.6118 -3.92252 
3.59471 -0.589085 -4.10468 
3.47144 -0.634626 -3.52803 
3.34571 -0.620367 -3.61738 
3.24255 -0.61154 -3.65862 
3.07471 -0.674586 -2.86185 
2.99298 -0.599278 -3.65692 
2.83929 -0.661272 -2.87974 
2.72405 -0.671754 -2.69877 
2.58484 -0.682923 -2.49682 
2.47942 -0.689718 -2.36244 
2.34115 -0.700739 -2.16265 
2.23853 -0.684276 -2.2894 
2.09779 -0.705172 -1.97802 
2.00658 -0.653124 -2.50823 
1.85746 -0.70554 -1.8404 
1.74411 -0.728783 -1.51803 
1.61194 -0.74253 -1.29116 
1.50638 -0.718948 -1.49571 
1.37275 -0.731464 -1.28176 
1.27033 -0.708211 -1.48437 
1.13883 -0.703344 -1.4656 
1.02605 -0.725402 -1.15674 
0.899105 -0.72852 -1.05138 
0.790182 -0.71491 -1.14273 
0.657956 -0.742197 -0.764683 
0.557632 -0.711125 -1.05571 
0.424614 -0.720829 -0.873447 
0.31944 -0.722066 -0.801165 
0.083463 -0.696196 -0.958681 
-0.0526979 -0.715958 -0.662396 
-0.152108 -0.69624 -0.827188 
-0.855684 -0.753558 0.203934 
-0.969612 -0.807745 0.872148 
-1.07987 -0.772161 0.536323 
-1.20031 -0.799702 0.910752 
-1.30819 -0.836341 1.37974 
-1.43596 -0.82136 1.28365 
-1.6547 -0.913958 2.439 
-1.75872 -0.889314 2.22182 
-1.88162 -0.926321 2.70334 
-1.9803 -0.911801 2.59621 
-2.10779 -0.938249 2.96241 
-2.21074 -0.917506 2.78821 
-2.33721 -0.933354 3.03554 
-2.4338 -0.927289 3.02164 
-2.56052 -0.94349 3.27307 
-2.6658 -0.919417 3.06299 
-2.78969 -0.934891 3.30473 
-2.88569 -0.932738 3.33418 
-3.01604 -0.917145 3.23274 
-3.10933 -0.937286 3.50955 
-3.23861 -0.912301 3.30269 
-3.34234 -0.914497 3.385 
-3.56931 -0.905177 3.40744 
-3.68819 -0.898375 3.39777 
-3.79977 -0.880928 3.26519 
-3.92776 -0.864913 3.15775 
-4.02722 -0.862931 3.19107 
-4.16334 -0.836563 2.97259 
-4.24994 -0.858334 3.26391 
-4.49106 -0.821039 2.982 
-4.62634 -0.803286 2.85924 
-4.72923 -0.793188 2.80388 
-4.87765 -0.746256 2.36271 
-4.97104 -0.753905 2.50018 
-5.12296 -0.688731 1.85731 
-5.21903 -0.70593 2.1029 
-5.36065 -0.667009 1.74738 
-5.46294 -0.657649 1.69993 
-5.59439 -0.648653 1.67282 
-5.70235 -0.632481 1.55249 
-5.84801 -0.595199 1.21753 
-5.95366 -0.583881 1.15012 
-6.08601 -0.569819 1.06696 
-6.19775 -0.552215 0.932764 
-6.33003 -0.54012 0.871535 
-6.43618 -0.531109 0.830167 
-6.55852 -0.540063 0.998405 
-6.66605 -0.52411 0.880303 
-6.79488 -0.517546 0.87891 
-6.90662 -0.501771 0.765158 
-7.03324 -0.500804 0.825025 
-7.13413 -0.500333 0.876085 
-7.25126 -0.511428 1.06535 
-7.34691 -0.518094 1.19317 
-7.48674 -0.497673 1.04324 
-7.59318 -0.485567 0.9675 
-7.71406 -0.491911 1.10582 
-7.81711 -0.488707 1.12759 
-7.93255 -0.500889 1.32808 
6.04901 -0.42245 -6.88308 
5.7788 -0.433392 -6.61198 
5.60989 -0.485972 -5.93386 
5.5267 -0.444089 -6.35359 
5.37202 -0.47116 -5.96699 
5.2819 -0.435506 -6.31364 
4.83767 -0.532447 -4.98984 
4.78928 -0.409928 -6.32554 
4.60892 -0.475932 -5.49173 
4.4928 -0.499145 -5.16934 
4.36082 -0.481713 -5.29014 
4.2604 -0.460629 -5.46904 
4.084 -0.572373 -4.12873 
4.00545 -0.478981 -5.12384 
3.83424 -0.576049 -3.94959 
3.59195 -0.571735 -3.86342 
3.47639 -0.588692 -3.61085 
3.34728 -0.581708 -3.61704 
3.23349 -0.594751 -3.40896 
3.07655 -0.63965 -2.82272 
2.98052 -0.610594 -3.09266 
2.81674 -0.693338 -2.08173 
2.73863 -0.608537 -2.98156 
2.58137 -0.661296 -2.30769 
2.48721 -0.62249 -2.6871 
2.35207 -0.630115 -2.52742 
2.24243 -0.640671 -2.34927 
2.09641 -0.669556 -1.94712 
1.99761 -0.659261 -2.00685 
1.85751 -0.67235 -1.78365 
1.75389 -0.669328 -1.75982 
1.61414 -0.699458 -1.34727 
1.51025 -0.667669 -1.64323 
1.37785 -0.674699 -1.49164 
1.27401 -0.679694 -1.37852 
1.13718 -0.669859 -1.41203 
1.03239 -0.670697 -1.34461 
0.899582 -0.688917 -1.06833 
0.792927 -0.679579 -1.11304 
0.666832 -0.652459 -1.34474 
0.560603 -0.666087 -1.13425 
0.427727 -0.675117 -0.960115 
0.319588 -0.671609 -0.939151 
0.189964 -0.655408 -1.04743 
0.0810945 -0.675212 -0.766771 
-0.0464978 -0.66966 -0.757738 
-0.151986 -0.674911 -0.640799 
-0.276486 -0.750586 0.269972 
-0.509437 -0.70809 -0.073413 
-0.625116 -0.637943 -0.789434 
-0.738272 -0.745396 0.468527 
-0.8541 -0.707434 0.11058 
-0.968434 -0.736032 0.492135 
-1.07761 -0.775277 0.98927 
-1.20101 -0.777526 1.0828 
-1.30667 -0.776755 1.13288 
-1.43038 -0.808519 1.55489 
-1.53245 -0.816458 1.69988 
-1.75775 -0.841596 2.10462 
-1.88084 -0.892755 2.74205 
-1.97498 -0.905568 2.93687 
-2.11111 -0.877821 2.70385 
-2.20876 -0.883811 2.82473 
-2.33273 -0.903178 3.10904 
-2.42862 -0.903428 3.1651 
-2.55543 -0.911873 3.32951 
-2.65675 -0.905325 3.31298 
-2.782 -0.90936 3.42747 
-2.88335 -0.896714 3.34313 
-3.01202 -0.888389 3.32204 
-3.11465 -0.881598 3.30354 
-3.23469 -0.883063 3.38657 
-3.33875 -0.885097 3.46705 
-3.57146 -0.858932 3.30536 
-3.68778 -0.859297 3.3741 
-3.79184 -0.860773 3.44839 
-3.91791 -0.842974 3.32049 
-4.02091 -0.839796 3.34242 
-4.15729 -0.811774 3.10653 
-4.25609 -0.804042 3.07546 
-4.48651 -0.792382 3.07393 
-4.62616 -0.765607 2.85374 
-4.72808 -0.754917 2.79152 
-4.86662 -0.729394 2.58465 
-4.96746 -0.72144 2.55227 
-5.12229 -0.654305 1.89154 
-5.22664 -0.650336 1.90544 
-5.35242 -0.641909 1.88168 
-5.45871 -0.62626 1.76673 
-5.6007 -0.598592 1.53794 
-5.69842 -0.601506 1.62474 
-5.8509 -0.553196 1.17213 
-5.94937 -0.549813 1.1893 
-6.09426 -0.513178 0.862377 
-6.1944 -0.517227 0.963157 
-6.31899 -0.515485 1.01313 
-6.42963 -0.501977 0.924443 
-6.55611 -0.499786 0.970474 
-6.66419 -0.486216 0.879678 
-6.7991 -0.47406 0.819543 
-6.89582 -0.477424 0.910828 
-7.03256 -0.461806 0.813211 
-7.12555 -0.471588 0.97383 
-7.24872 -0.475065 1.0811 
-7.35852 -0.460389 0.978972 
-7.46828 -0.484744 1.31109 
-7.59174 -0.447797 0.968768 
-7.71618 -0.4488 1.04925 
-7.81939 -0.445112 1.06572 
-7.92925 -0.466544 1.36538 
6.06756 -0.35272 -7.22675 
5.80703 -0.360539 -6.99638 
5.66233 -0.370844 -6.80234 
5.54264 -0.385282 -6.5763 
5.3937 -0.396942 -6.3649 
5.26627 -0.423213 -6.00345 
5.13026 -0.419749 -5.96676 
5.0364 -0.382189 -6.33119 
4.88173 -0.406608 -5.97522 
4.78301 -0.385443 -6.15526 
4.60746 -0.447255 -5.37336 
4.49684 -0.459412 -5.17757 
4.35998 -0.452593 -5.17757 
4.24556 -0.464565 -4.98172 
4.10567 -0.472373 -4.81794 
3.85245 -0.474102 -4.65893 
3.74096 -0.485076 -4.47574 
3.58669 -0.559762 -3.56284 
3.488 -0.525661 -3.88624 
3.33578 -0.568489 -3.32751 
3.24101 -0.53087 -3.69206 
3.08792 -0.580467 -3.05782 
2.98366 -0.573424 -3.07826 
2.85352 -0.55541 -3.20598 
2.72265 -0.616571 -2.45584 
2.60068 -0.581018 -2.78245 
2.47954 -0.620884 -2.27367 
2.35494 -0.601642 -2.41805 
2.2418 -0.602473 -2.34629 
2.1022 -0.621391 -2.05946 
1.99955 -0.60715 -2.16053 
1.85492 -0.652976 -1.57268 
1.75013 -0.654912 -1.49327 
1.62082 -0.637954 -1.60971 
1.51493 -0.639021 -1.53932 
1.37667 -0.634536 -1.51256 
1.28235 -0.620967 -1.61078 
1.13875 -0.635154 -1.37411 
1.03668 -0.628571 -1.39061 
0.89721 -0.671294 -0.839942 
0.792043 -0.65832 -0.925556 
0.661477 -0.650479 -0.940217 
0.563002 -0.632181 -1.08853 
0.429671 -0.627638 -1.06511 
0.321907 -0.618557 -1.10611 
0.085836 -0.614812 -1.01697 
-0.047363 -0.639041 -0.674703 
-0.149615 -0.633183 -0.683026 
-0.277769 -0.701649 0.146781 
-0.619931 -0.650856 -0.226756 
-0.84714 -0.679622 0.217899 
-0.967238 -0.755228 1.12244 
-1.0773 -0.68365 0.390013 
-1.20235 -0.733963 1.01696 
-1.30454 -0.739776 1.13801 
-1.42523 -0.795438 1.82184 
-1.53006 -0.794753 1.87233 
-1.65101 -0.823433 2.25725 
-1.75442 -0.819936 2.27579 
-1.87306 -0.880727 3.01538 
-1.9806 -0.835912 2.57822 
-2.10099 -0.88386 3.17645 
-2.20194 -0.847229 2.82635 
-2.32984 -0.865063 3.09493 
-2.42805 -0.871268 3.21816 
-2.55507 -0.873162 3.30957 
-2.65411 -0.870351 3.33332 
-2.77877 -0.874019 3.4431 
-2.88121 -0.864834 3.39809 
-3.01098 -0.849234 3.29712 
-3.11056 -0.847512 3.33326 
-3.23404 -0.842842 3.34996 
-3.34204 -0.831991 3.28958 
-3.45996 -0.835839 3.39764 
-3.56798 -0.83022 3.39527 
-3.68839 -0.816806 3.31337 
-3.7924 -0.81836 3.38829 
-3.91981 -0.803626 3.29564 
-4.02131 -0.796666 3.27479 
-4.16045 -0.764796 2.9987 
-4.25478 -0.770389 3.11303 
-4.4901 -0.747051 2.9849 
-4.6256 -0.726417 2.83135 
-4.7188 -0.73713 3.00183 
-4.87033 -0.680712 2.46049 
-4.97531 -0.668092 2.37884 
-5.11251 -0.63411 2.07826 
-5.21643 -0.632369 2.11665 
-5.4581 -0.589487 1.77541 
-5.59169 -0.57581 1.69795 
-5.69287 -0.571889 1.71065 
-5.8417 -0.529356 1.32174 
-5.94371 -0.520155 1.27638 
-6.08691 -0.484684 0.962637 
-6.20147 -0.463871 0.795516 
-6.3214 -0.473449 0.968297 
-6.42395 -0.469426 0.980647 
-6.55702 -0.457327 0.920418 
-6.66198 -0.448656 0.882587 
-6.80254 -0.427605 0.727269 
-6.90234 -0.428614 0.793898 
-7.02051 -0.436959 0.952072 
-7.12172 -0.436393 1.00202 
-7.23115 -0.462538 1.35269 
-7.35177 -0.431493 1.07552 
-7.4856 -0.418014 1.00044 
-7.58409 -0.419227 1.06862 
-7.71101 -0.418515 1.13125 
-7.81231 -0.417411 1.17533 
-7.92633 -0.431115 1.39064 
6.04762 -0.348184 -6.82692 
5.7708 -0.387909 -6.23586 
5.61548 -0.409905 -5.90745 
5.54621 -0.345346 -6.58226 
5.4032 -0.342944 -6.53005 
5.30004 -0.32754 -6.64336 
5.02402 -0.36674 -6.05848 
4.87042 -0.388182 -5.73709 
4.75242 -0.40304 -5.50803 
4.60932 -0.408338 -5.37069 
4.50779 -0.401688 -5.38821 
4.34029 -0.470348 -4.53769 
4.25259 -0.409065 -5.16616 
4.00861 -0.400719 -5.12392 
3.84532 -0.476316 -4.19907 
3.7468 -0.440985 -4.53497 
3.59977 -0.483686 -3.98236 
3.48983 -0.489968 -3.8524 
3.33865 -0.52601 -3.37102 
3.2414 -0.49549 -3.65448 
3.07303 -0.584527 -2.57834 
2.99056 -0.51528 -3.29764 
2.84658 -0.540528 -2.93942 
2.74593 -0.516735 -3.1467 
2.59142 -0.579667 -2.36646 
2.48723 -0.572821 -2.38462 
2.35418 -0.560501 -2.44731 
2.23771 -0.590357 -2.05333 
2.0973 -0.615904 -1.69374 
1.99555 -0.594257 -1.87669 
1.85967 -0.59914 -1.7478 
1.75219 -0.610832 -1.55938 
1.62391 -0.581548 -1.81203 
1.51202 -0.59753 -1.57378 
1.3776 -0.604043 -1.42767 
1.27672 -0.598318 -1.43524 
1.14059 -0.603373 -1.30428 
1.03759 -0.590046 -1.39463 
0.903049 -0.626893 -0.913398 
0.796111 -0.601534 -1.13447 
0.662906 -0.622877 -0.825198 
0.563959 -0.602576 -0.994806 
0.427946 -0.603702 -0.90727 
0.325995 -0.595302 -0.94376 
0.189844 -0.57929 -1.04545 
0.087031 -0.559964 -1.20214 
-0.0474632 -0.619205 -0.473531 
-0.273956 -0.657619 0.0758557 
-0.375296 -0.660185 0.160176 
-0.507669 -0.639029 -0.000384475 
-0.614457 -0.607569 -0.288886 
-0.742694 -0.618032 -0.102474 
-0.843699 -0.643257 0.231957 
-0.969611 -0.669596 0.592465 
-1.07354 -0.6653 0.602433 
-1.19789 -0.710394 1.16925 
-1.30299 -0.70243 1.13937 
-1.42361 -0.753848 1.774 
-1.52836 -0.729886 1.56722 
-1.64942 -0.78253 2.21565 
-1.75194 -0.786786 2.31934 
-1.87379 -0.829853 2.86244 
-1.97796 -0.799661 2.58653 
-2.09903 -0.833553 3.02786 
-2.19619 -0.849359 3.25619 
-2.32709 -0.843785 3.26701 
-2.4194 -0.84111 3.28852 
-2.55625 -0.828956 3.22994 
-2.65222 -0.836562 3.36705 
-2.77453 -0.854547 3.63338 
-2.88182 -0.820415 3.3157 
-3.00303 -0.833694 3.52944 
-3.10298 -0.828364 3.52587 
-3.22932 -0.815517 3.45384 
-3.33684 -0.802649 3.37119 
-3.56741 -0.78382 3.29078 
-3.68769 -0.779557 3.31025 
-3.78748 -0.78931 3.47322 
-3.92002 -0.761426 3.23855 
-4.02153 -0.751634 3.18656 
-4.1545 -0.736524 3.09323 
-4.25304 -0.73526 3.13383 
-4.48588 -0.711534 3.00062 
-4.61891 -0.698058 2.9254 
-4.72168 -0.689885 2.89201 
-4.86623 -0.64966 2.52766 
-4.9628 -0.653834 2.62724 
-5.11593 -0.582367 1.9225 
-5.21797 -0.583685 1.99356 
-5.34908 -0.567138 1.88337 
-5.45495 -0.558016 1.84122 
-5.58734 -0.540394 1.71986 
-5.69159 -0.533686 1.7035 
-5.84306 -0.483061 1.22809 
-5.94597 -0.475479 1.20133 
-6.0861 -0.449149 0.988065 
-6.1933 -0.436843 0.911495 
-6.32184 -0.434769 0.959792 
-6.4191 -0.438163 1.05118 
-6.55301 -0.425944 0.990389 
-6.65891 -0.414104 0.918259 
-6.78466 -0.414675 0.994258 
-6.89567 -0.397657 0.867758 
-7.01498 -0.406099 1.02715 
-7.12304 -0.392243 0.933961 
-7.24681 -0.39835 1.07004 
-7.34737 -0.398676 1.12939 
-7.47722 -0.390541 1.11149 
-7.59283 -0.370308 0.952033 
-7.7235 -0.360553 0.916692 
-7.81603 -0.371549 1.08951 
-7.92811 -0.386006 1.31139 
6.05577 -0.295799 -6.9718 
5.7698 -0.351038 -6.20684 
5.66473 -0.293685 -6.78032 
5.55123 -0.299583 -6.65306 
5.39843 -0.317765 -6.36903 
5.29221 -0.30326 -6.47032 
5.02727 -0.322533 -6.11267 
4.8605 -0.374802 -5.4458 
4.79176 -0.289147 -6.35069 
4.6286 -0.331553 -5.79435 
4.52889 -0.318957 -5.87818 
4.3729 -0.354117 -5.40551 
4.25187 -0.380332 -5.05047 
4.00524 -0.37608 -4.96171 
3.73967 -0.423812 -4.29039 
3.49621 -0.430892 -4.07861 
3.35578 -0.436382 -3.94096 
3.24324 -0.459763 -3.62175 
3.09899 -0.478744 -3.33351 
2.99851 -0.458763 -3.49817 
2.83087 -0.557561 -2.31858 
2.73796 -0.50621 -2.83264 
2.59509 -0.532889 -2.46041 
2.50347 -0.481692 -2.97349 
2.34206 -0.561942 -2.00143 
2.242 -0.544012 -2.14371 
2.10972 -0.540463 -2.10998 
2.00578 -0.52282 -2.24697 
1.87013 -0.518708 -2.21757 
1.75758 -0.564092 -1.65611 
1.62034 -0.558982 -1.63681 
1.51422 -0.559931 -1.56795 
1.37965 -0.584487 -1.22358 
1.2817 -0.546291 -1.59007 
1.14015 -0.574196 -1.205 
1.03635 -0.569992 -1.19411 
0.901933 -0.603286 -0.753632 
0.803852 -0.547268 -1.31619 
0.671953 -0.544295 -1.27628 
0.563547 -0.569122 -0.943307 
0.431986 -0.551114 -1.06906 
0.32539 -0.557489 -0.940174 
0.190528 -0.560732 -0.830181 
0.0891589 -0.560107 -0.781216 
-0.0484724 -0.570042 -0.596033 
-0.144766 -0.525486 -1.03342 
-0.274223 -0.600821 -0.132851 
-0.375884 -0.601063 -0.0741612 
-0.50379 -0.648902 0.52291 
-0.611803 -0.588578 -0.0815703 
-0.733355 -0.631787 0.461044 
-0.845325 -0.610544 0.288936 
-1.07136 -0.66233 0.983587 
-1.18862 -0.677636 1.21672 
-1.30146 -0.687592 1.38854 
-1.42036 -0.738908 2.01899 
-1.52585 -0.714234 1.80554 
-1.64306 -0.761001 2.38501 
-1.74957 -0.768449 2.52574 
-1.87412 -0.783448 2.75955 
-1.97274 -0.780775 2.78454 
-2.10039 -0.804018 3.11082 
-2.19843 -0.79815 3.10031 
-2.32427 -0.808197 3.28035 
-2.42181 -0.804141 3.28953 
-2.65531 -0.782773 3.18314 
-2.77964 -0.800577 3.44777 
-2.8732 -0.803231 3.52862 
-3.00275 -0.793011 3.48761 
-3.10398 -0.781199 3.41346 
-3.22575 -0.784412 3.51606 
-3.32984 -0.774788 3.46757 
-3.56118 -0.757866 3.409 
-3.68303 -0.751479 3.40596 
-3.7902 -0.741714 3.35764 
-3.92033 -0.721683 3.20898 
-4.01776 -0.721668 3.26261 
-4.15051 -0.707127 3.17584 
-4.25256 -0.695422 3.10334 
-4.38121 -0.689506 3.10927 
-4.48173 -0.684096 3.10524 
-4.6211 -0.649521 2.80156 
-4.72068 -0.651104 2.874 
-4.85458 -0.631097 2.7277 
-4.95914 -0.618355 2.64519 
-5.10748 -0.562941 2.11706 
-5.21324 -0.550212 2.03535 
-5.34519 -0.5278 1.86151 
-5.44959 -0.533146 1.97806 
-5.59165 -0.490435 1.58631 
-5.69347 -0.483962 1.57132 
-5.8441 -0.439396 1.16389 
-5.94474 -0.438382 1.20835 
-6.10269 -0.379259 0.644693 
-6.18865 -0.403938 0.963933 
-6.3189 -0.399732 0.989617 
-6.41979 -0.396717 1.0122 
-6.5477 -0.392843 1.04025 
-6.65439 -0.382789 0.988536 
-6.78937 -0.367182 0.891334 
-6.89496 -0.357471 0.842792 
-7.01926 -0.358774 0.925882 
-7.1208 -0.356668 0.958841 
-7.24609 -0.357592 1.03831 
-7.34961 -0.353891 1.05481 
-7.47073 -0.360865 1.19858 
-7.58156 -0.343801 1.072 
-7.71184 -0.336905 1.06814 
-7.81261 -0.333831 1.09003 
-7.93535 -0.338776 1.21239 
6.05087 -0.270237 -6.81433 
5.79458 -0.277958 -6.58923 
5.64925 -0.283091 -6.4533 
5.53332 -0.289562 -6.31881 
5.39084 -0.295889 -6.17133 
5.30758 -0.238608 -6.75392 
5.12744 -0.307752 -5.89686 
5.02777 -0.283429 -6.10899 
4.88627 -0.285058 -6.01357 
4.75368 -0.329119 -5.45764 
4.64486 -0.268125 -6.06694 
4.51664 -0.308709 -5.55153 
4.35172 -0.371314 -4.77448 
4.25885 -0.327874 -5.19998 
4.10186 -0.380502 -4.53668 
4.00776 -0.340293 -4.92608 
3.84478 -0.407542 -4.09911 
3.74823 -0.372642 -4.42893 
3.60399 -0.400601 -4.04317 
3.50331 -0.370749 -4.31535 
3.3516 -0.425281 -3.63401 
3.2453 -0.428063 -3.54517 
3.09289 -0.463115 -3.07709 
2.97874 -0.48099 -2.81839 
2.84473 -0.478835 -2.76849 
2.74192 -0.464461 -2.86972 
2.59807 -0.495733 -2.44777 
2.49145 -0.487114 -2.48378 
2.34287 -0.523126 -2.00722 
2.2476 -0.474717 -2.4859 
2.12039 -0.469297 -2.47551 
2.00951 -0.491348 -2.17276 
1.86812 -0.503683 -1.95982 
1.75966 -0.537818 -1.52585 
1.622 -0.520953 -1.63524 
1.51718 -0.531626 -1.46061 
1.3891 -0.507012 -1.66024 
1.28277 -0.50296 -1.64628 
1.13887 -0.555719 -0.988529 
1.04384 -0.503401 -1.5102 
0.910829 -0.523527 -1.21636 
0.804298 -0.510644 -1.29914 
0.664112 -0.55166 -0.772214 
0.56508 -0.531169 -0.942559 
0.432355 -0.518453 -1.00911 
0.324218 -0.526584 -0.86049 
0.190835 -0.533122 -0.715459 
0.0902935 -0.50962 -0.917998 
-0.0406451 -0.568066 -0.20491 
-0.141607 -0.539046 -0.467745 
-0.271218 -0.557602 -0.192941 
-0.377987 -0.545163 -0.270681 
-0.510218 -0.539696 -0.257951 
-0.609859 -0.527248 -0.339718 
-0.731562 -0.598769 0.511778 
-0.842037 -0.576393 0.327077 
-0.96362 -0.648449 1.18438 
-1.07088 -0.652841 1.29156 
-1.1904 -0.664206 1.48198 
-1.29958 -0.641276 1.2905 
-1.42152 -0.677506 1.75503 
-1.52465 -0.672872 1.76094 
-1.64146 -0.745039 2.6169 
-1.74752 -0.722167 2.42436 
-1.8686 -0.775764 3.07896 
-1.9695 -0.762228 2.986 
-2.0967 -0.765 3.08643 
-2.19633 -0.758136 3.06597 
-2.32268 -0.773361 3.30256 
-2.4198 -0.775952 3.38444 
-2.54887 -0.763937 3.3237 
-2.645 -0.767315 3.41369 
-2.77312 -0.768023 3.49199 
-2.8751 -0.753705 3.39107 
-2.99591 -0.77269 3.66589 
-3.09589 -0.765202 3.6388 
-3.22668 -0.739331 3.427 
-3.32971 -0.737014 3.45833 
-3.45082 -0.735259 3.50579 
-3.56179 -0.717754 3.37486 
-3.68335 -0.711289 3.3709 
-3.78429 -0.715541 3.47316 
-3.917 -0.687604 3.23976 
-4.01388 -0.690879 3.32908 
-4.15144 -0.663542 3.10495 
-4.24986 -0.660738 3.12842 
-4.38391 -0.646169 3.04244 
-4.48594 -0.632054 2.94381 
-4.61498 -0.624618 2.93334 
-4.72021 -0.612641 2.85993 
-4.86255 -0.57544 2.53023 
-4.95668 -0.580683 2.63963 
-5.10567 -0.525851 2.12016 
-5.20637 -0.527123 2.18962 
-5.34302 -0.493793 1.89926 
-5.44845 -0.48964 1.91181 
-5.58979 -0.45324 1.59036 
-5.6934 -0.446574 1.57435 
-5.85159 -0.384016 0.975172 
-5.93728 -0.407619 1.2814 
-6.09167 -0.358125 0.823478 
-6.18581 -0.37139 1.02094 
-6.3143 -0.363026 1.00003 
-6.42032 -0.355384 0.974652 
-6.54794 -0.350697 0.99361 
-6.65107 -0.348893 1.03071 
-6.79148 -0.326108 0.858155 
-6.8908 -0.320928 0.8561 
-7.01599 -0.324377 0.963014 
-7.11334 -0.329501 1.07295 
-7.23986 -0.325444 1.09824 
-7.342 -0.323791 1.13647 
-7.46754 -0.323121 1.19839 
-7.58402 -0.300537 1.01486 
-7.71371 -0.295495 1.03111 
-7.80436 -0.304751 1.18271 
-7.92687 -0.31157 1.32515 
6.03567 -0.254294 -6.54715 
5.81137 -0.213363 -6.87191 
5.64619 -0.250608 -6.37453 
5.54801 -0.223748 -6.61441 
5.37906 -0.273389 -5.97948 
5.27653 -0.260541 -6.06384 
5.14843 -0.238134 -6.23869 
5.05125 -0.204128 -6.55723 
4.87148 -0.275602 -5.67771 
4.78699 -0.229898 -6.13105 
4.61279 -0.305034 -5.21453 
4.54655 -0.217799 -6.13178 
4.38324 -0.26566 -5.51931 
4.28128 -0.241065 -5.73237 
4.10447 -0.334963 -4.60931 
4.01692 -0.279367 -5.16908 
3.86245 -0.324137 -4.59521 
3.74904 -0.337581 -4.3862 
3.60013 -0.387822 -3.75555 
3.49139 -0.379291 -3.78929 
3.35973 -0.359544 -3.93306 
3.26373 -0.322864 -4.28144 
2.99074 -0.411665 -3.16135 
2.84346 -0.44961 -2.66596 
2.73082 -0.451177 -2.58714 
2.60126 -0.442571 -2.61027 
2.49807 -0.432995 -2.65842 
2.34914 -0.474645 -2.12159 
2.24113 -0.472395 -2.08703 
2.00832 -0.455609 -2.14299 
1.86861 -0.491903 -1.66972 
1.76571 -0.461923 -1.94105 
1.63232 -0.477514 -1.69754 
1.51697 -0.495598 -1.43665 
1.3846 -0.497725 -1.34088 
1.27478 -0.489662 -1.36882 
1.14576 -0.500092 -1.1841 
1.04647 -0.461178 -1.55506 
0.909292 -0.496896 -1.08942 
0.801625 -0.496296 -1.03696 
0.67276 -0.466526 -1.29175 
0.566702 -0.484475 -1.03739 
0.44033 -0.512249 -0.664497 
0.325953 -0.508463 -0.643165 
0.195779 -0.507492 -0.582403 
0.0929129 -0.459393 -1.05179 
-0.0326348 -0.542784 -0.0713323 
-0.138071 -0.531946 -0.131978 
-0.272672 -0.505086 -0.351776 
-0.378408 -0.494482 -0.409697 
-0.506551 -0.486567 -0.425938 
-0.608707 -0.502318 -0.197702 
-0.731404 -0.541856 0.301846 
-0.838279 -0.524559 0.171399 
-0.961565 -0.617066 1.25035 
-1.06638 -0.588399 0.994477 
-1.19251 -0.621654 1.42725 
-1.29659 -0.626066 1.53262 
-1.4149 -0.653636 1.89896 
-1.52334 -0.643222 1.84465 
-1.64693 -0.692287 2.4489 
-1.74557 -0.686999 2.44524 
-1.86925 -0.724857 2.92705 
-1.96933 -0.712564 2.8476 
-2.09688 -0.715919 2.95433 
-2.19424 -0.723904 3.0951 
-2.31634 -0.748971 3.43622 
-2.41863 -0.735838 3.34882 
-2.64642 -0.720065 3.3015 
-2.77187 -0.735162 3.53547 
-2.8702 -0.731137 3.5455 
-2.99779 -0.723069 3.52738 
-3.10389 -0.697562 3.30681 
-3.22122 -0.714503 3.5565 
-3.32549 -0.701705 3.47387 
-3.55634 -0.687851 3.44927 
-3.67574 -0.689633 3.53439 
-3.78737 -0.666075 3.33817 
-3.90971 -0.661484 3.35522 
-4.01135 -0.656918 3.36117 
-4.14142 -0.643659 3.2877 
-4.24412 -0.626784 3.15966 
-4.37777 -0.615396 3.10862 
-4.47404 -0.617689 3.18663 
-4.62248 -0.571356 2.76164 
-4.71521 -0.579316 2.89966 
-4.85746 -0.545383 2.60687 
-4.95526 -0.542402 2.62805 
-5.10073 -0.496758 2.20898 
-5.20247 -0.488704 2.17686 
-5.3397 -0.464629 1.9891 
-5.44321 -0.457078 1.96348 
-5.57947 -0.430411 1.74684 
-5.68714 -0.416293 1.65169 
-5.83949 -0.364816 1.17262 
-5.93974 -0.365149 1.23143 
-6.08611 -0.326939 0.894132 
-6.19266 -0.31759 0.850532 
-6.31049 -0.329038 1.04055 
-6.41916 -0.317528 0.974483 
-6.5506 -0.306712 0.928537 
-6.64494 -0.317207 1.09522 
-6.78468 -0.291657 0.892744 
-6.88789 -0.288585 0.915958 
-7.01406 -0.287504 0.973584 
-7.11595 -0.285422 1.00691 
-7.23991 -0.286855 1.09082 
-7.34477 -0.279797 1.07136 
-7.46618 -0.285285 1.19823 
-7.56629 -0.284998 1.2502 
-7.70703 -0.263713 1.09494 
-7.81068 -0.255182 1.05873 
-7.9288 -0.267513 1.25862 
6.05653 -0.186196 -6.86951 
5.80455 -0.188263 -6.70956 
5.65249 -0.204127 -6.45383 
5.52357 -0.226879 -6.13568 
5.39491 -0.209181 -6.25827 
5.31359 -0.162415 -6.7233 
5.14816 -0.204408 -6.17563 
5.06225 -0.151002 -6.7105 
4.87732 -0.231045 -5.73771 
4.77729 -0.213675 -5.87233 
4.6376 -0.221284 -5.71322 
4.51449 -0.254009 -5.28957 
4.38434 -0.225833 -5.52545 
4.27633 -0.210212 -5.63665 
4.12496 -0.243142 -5.19532 
4.01612 -0.245308 -5.11231 
3.86235 -0.300426 -4.42796 
3.74423 -0.319587 -4.15475 
3.61228 -0.307 -4.21982 
3.49206 -0.356445 -3.61556 
3.36564 -0.315424 -3.99336 
3.26323 -0.298516 -4.12162 
3.00722 -0.338201 -3.54949 
2.84056 -0.41209 -2.65355 
2.74285 -0.393007 -2.80804 
2.58363 -0.477531 -1.8003 
2.49783 -0.408799 -2.50214 
2.35622 -0.425408 -2.24384 
2.24718 -0.424652 -2.19249 
2.0051 -0.427687 -2.02713 
1.87396 -0.425968 -1.97417 
1.7612 -0.452636 -1.62203 
1.62914 -0.459174 -1.47861 
1.52541 -0.422675 -1.81951 
1.3843 -0.452194 -1.42078 
1.28151 -0.451459 -1.37258 
1.14946 -0.446743 -1.35175 
1.0399 -0.468567 -1.05409 
0.90625 -0.468458 -0.98219 
0.80026 -0.463017 -0.983499 
0.67109 -0.462238 -0.921331 
0.567309 -0.463442 -0.851445 
0.441216 -0.440495 -1.03246 
0.329827 -0.431752 -1.06677 
0.0936948 -0.440923 -0.837668 
-0.0338645 -0.489361 -0.240164 
-0.138617 -0.478251 -0.303888 
-0.269192 -0.452766 -0.510074 
-0.37759 -0.4496 -0.485242 
-0.501982 -0.499193 0.123137 
-0.604677 -0.453068 -0.323172 
-0.838818 -0.478238 0.0792152 
-0.958191 -0.574815 1.19676 
-1.06502 -0.536061 0.833042 
-1.1887 -0.571205 1.28366 
-1.296 -0.562715 1.24991 
-1.41384 -0.612094 1.85244 
-1.52054 -0.635392 2.16471 
-1.64122 -0.668744 2.59419 
-1.74287 -0.661387 2.56972 
-1.86494 -0.702961 3.08956 
-1.96562 -0.690895 3.01326 
-2.09219 -0.696452 3.14315 
-2.19083 -0.68606 3.08397 
-2.31411 -0.715068 3.46759 
-2.41304 -0.710958 3.47703 
-2.54346 -0.697551 3.40242 
-2.6439 -0.694502 3.42426 
-2.77375 -0.693712 3.48681 
-2.87532 -0.677248 3.3631 
-2.9972 -0.685469 3.51949 
-3.09475 -0.685049 3.56839 
-3.22001 -0.6761 3.53956 
-3.3254 -0.663339 3.4583 
-3.44576 -0.658052 3.46669 
-3.55874 -0.642029 3.35404 
-3.6793 -0.640935 3.40824 
-3.78195 -0.638727 3.44047 
-3.90228 -0.639345 3.51319 
-4.00897 -0.620611 3.36757 
-4.14284 -0.605215 3.27324 
-4.24634 -0.586595 3.12712 
-4.47767 -0.573093 3.10689 
-4.61397 -0.549583 2.92549 
-4.70546 -0.560163 3.09098 
-4.85731 -0.504302 2.56558 
-4.94943 -0.518891 2.7751 
-5.09708 -0.464528 2.26374 
-5.20271 -0.452997 2.19604 
-5.4442 -0.415627 1.92135 
-5.57741 -0.396326 1.78413 
-5.68757 -0.377842 1.64316 
-5.83575 -0.333629 1.2427 
-5.93526 -0.335516 1.31788 
-6.0989 -0.26173 0.603647 
-6.18369 -0.294245 1.00451 
-6.31096 -0.286556 0.990589 
-6.41494 -0.286553 1.04765 
-6.54899 -0.268936 0.929263 
-6.6498 -0.266974 0.963238 
-6.78152 -0.255017 0.905259 
-6.89034 -0.245167 0.857676 
-7.00818 -0.25562 1.03631 
-7.11148 -0.250551 1.0378 
-7.23364 -0.257369 1.1792 
-7.34386 -0.239 1.03956 
-7.45944 -0.254623 1.27331 
-7.57525 -0.229808 1.06649 
-7.70323 -0.22752 1.11187 
-7.8067 -0.219494 1.08124 
-7.92287 -0.2367 1.33259 
6.04763 -0.164584 -6.66885 
5.80037 -0.160422 -6.57949 
5.6651 -0.153922 -6.57643 
5.57688 -0.0972235 -7.1439 
5.40211 -0.165448 -6.30818 
5.2715 -0.196049 -5.9049 
5.02645 -0.173859 -6.01238 
4.89151 -0.174083 -5.93649 
4.763 -0.209547 -5.48154 
4.64635 -0.166851 -5.88153 
4.53274 -0.172332 -5.76016 
4.379 -0.197028 -5.40835 
4.27195 -0.189895 -5.42749 
4.01326 -0.218636 -4.97458 
3.87098 -0.242412 -4.63898 
3.75039 -0.267185 -4.30435 
3.5164 -0.221281 -4.67521 
3.36038 -0.312878 -3.59582 
3.26264 -0.283243 -3.86429 
2.99742 -0.327824 -3.23578 
2.85608 -0.337813 -3.05029 
2.73065 -0.403171 -2.27239 
2.59769 -0.390668 -2.33564 
2.36225 -0.377021 -2.35544 
2.25367 -0.369649 -2.37627 
2.01313 -0.363967 -2.30679 
1.86964 -0.399991 -1.83745 
1.76704 -0.398228 -1.80063 
1.6295 -0.419292 -1.49692 
1.52594 -0.393627 -1.71908 
1.39311 -0.398473 -1.59401 
1.29281 -0.38104 -1.72856 
1.14759 -0.43044 -1.11301 
1.04349 -0.424398 -1.12181 
0.910658 -0.420402 -1.09271 
0.803458 -0.427938 -0.9524 
0.67445 -0.451864 -0.622232 
0.569713 -0.409337 -1.02679 
0.441738 -0.411812 -0.930065 
0.333337 -0.397122 -1.0304 
0.206709 -0.386204 -1.07981 
0.0965261 -0.399932 -0.870613 
-0.036263 -0.44942 -0.260818 
-0.135808 -0.439343 -0.315883 
-0.270417 -0.417714 -0.477219 
-0.373512 -0.41047 -0.499569 
-0.499719 -0.4456 -0.0492245 
-0.605282 -0.437936 -0.0747969 
-0.726379 -0.47542 0.39833 
-1.18468 -0.550665 1.46568 
-1.29175 -0.563264 1.66098 
-1.41287 -0.586431 1.97872 
-1.52036 -0.572244 1.88341 
-1.63988 -0.637167 2.65367 
-1.74367 -0.604156 2.35195 
-1.86098 -0.667938 3.10865 
-1.96999 -0.624192 2.69322 
-2.08931 -0.663924 3.18987 
-2.1898 -0.64896 3.08233 
-2.31208 -0.682245 3.51061 
-2.40847 -0.680119 3.54023 
-2.64159 -0.655759 3.40319 
-2.76619 -0.671772 3.64521 
-2.86797 -0.653732 3.50498 
-2.99468 -0.645672 3.48676 
-3.09977 -0.629527 3.36893 
-3.22025 -0.633386 3.47673 
-3.3278 -0.621901 3.41085 
-3.55524 -0.605978 3.36237 
-3.6753 -0.613624 3.51108 
-3.78246 -0.595518 3.3731 
-3.90965 -0.584829 3.32662 
-4.00717 -0.583974 3.3707 
-4.14832 -0.550758 3.08724 
-4.24056 -0.558078 3.21721 
-4.48044 -0.524023 2.97868 
-4.6062 -0.523624 3.04318 
-4.712 -0.508191 2.93351 
-4.84422 -0.493709 2.84861 
-4.94798 -0.481116 2.76866 
-5.09239 -0.433614 2.33186 
-5.19692 -0.429208 2.34124 
-5.32862 -0.405185 2.15246 
-5.44889 -0.365409 1.78635 
-5.58407 -0.34536 1.64264 
-5.68722 -0.334479 1.58095 
-5.842 -0.279587 1.06958 
-5.93544 -0.295956 1.29852 
-6.09495 -0.226679 0.633518 
-6.18929 -0.241995 0.851523 
-6.30576 -0.253992 1.04561 
-6.41452 -0.245084 1.00845 
-6.54492 -0.237029 0.992398 
-6.64804 -0.229236 0.964251 
-6.78572 -0.211421 0.846203 
-6.88618 -0.210132 0.887243 
-7.00151 -0.227269 1.13655 
-7.11158 -0.210675 1.01665 
-7.22938 -0.221094 1.19435 
-7.34342 -0.200018 1.02796 
-7.46739 -0.204078 1.14 
-7.57245 -0.195232 1.1015 
-7.71124 -0.177254 0.982318 
-7.79025 -0.203199 1.30741 
-7.92639 -0.188371 1.22101 
6.0792 -0.083164 -7.13853 
5.79579 -0.127968 -6.49995 
5.65441 -0.132294 -6.37639 
5.55797 -0.100308 -6.67006 
5.41721 -0.110473 -6.48365 
5.29087 -0.127098 -6.23518 
5.03009 -0.136626 -5.99046 
4.90046 -0.118341 -6.11786 
4.78383 -0.132912 -5.89688 
4.62827 -0.170826 -5.40218 
4.51377 -0.179446 -5.24672 
4.37664 -0.166174 -5.31579 
4.29366 -0.108815 -5.89127 
4.11828 -0.203148 -4.77539 
4.01759 -0.165408 -5.12898 
3.87405 -0.186625 -4.82142 
3.75747 -0.210669 -4.49793 
3.61085 -0.233717 -4.16888 
3.51548 -0.205032 -4.42738 
3.37267 -0.217372 -4.21624 
3.24415 -0.299231 -3.26071 
3.00555 -0.2815 -3.32281 
2.8633 -0.284432 -3.21374 
2.75022 -0.300141 -2.98228 
2.60727 -0.323582 -2.65091 
2.49929 -0.329579 -2.5273 
2.35253 -0.373172 -1.97581 
2.24677 -0.367071 -1.98428 
2.12254 -0.323178 -2.39161 
2.00923 -0.347617 -2.06553 
1.86999 -0.360835 -1.84675 
1.761 -0.367513 -1.7152 
1.62945 -0.383515 -1.47047 
1.52965 -0.358227 -1.68977 
1.39063 -0.385168 -1.3226 
1.28552 -0.370991 -1.41878 
1.15735 -0.358436 -1.48487 
1.04459 -0.382072 -1.16774 
0.91491 -0.359571 -1.34061 
0.806383 -0.395479 -0.892992 
0.676132 -0.386339 -0.920961 
0.572743 -0.362191 -1.12596 
0.445986 -0.388094 -0.776653 
0.338086 -0.359832 -1.02369 
0.20442 -0.377041 -0.764695 
0.09775 -0.379475 -0.680254 
-0.0371805 -0.399927 -0.385462 
-0.13157 -0.400751 -0.325127 
-0.268063 -0.377561 -0.501696 
-0.372698 -0.364569 -0.585278 
-0.49542 -0.413644 0.0126135 
-0.602171 -0.408294 0.0128887 
-0.725894 -0.431417 0.330515 
-0.830711 -0.466058 0.762493 
-0.955623 -0.460804 0.77371 
-1.06385 -0.468723 0.9184 
-1.18303 -0.517376 1.50983 
-1.28894 -0.517646 1.57049 
-1.41003 -0.560698 2.10238 
-1.51776 -0.535788 1.89156 
-1.63742 -0.586751 2.5083 
-1.74055 -0.591844 2.61965 
-1.86242 -0.605781 2.83693 
-1.96285 -0.603184 2.8636 
-2.08767 -0.624269 3.15986 
-2.18366 -0.621145 3.1784 
-2.31052 -0.648059 3.53886 
-2.41137 -0.641154 3.51916 
-2.63905 -0.616969 3.38165 
-2.76595 -0.625944 3.54802 
-2.86356 -0.62222 3.56098 
-2.9889 -0.62319 3.63988 
-3.09534 -0.603903 3.48924 
-3.21745 -0.600593 3.52006 
-3.3226 -0.598183 3.55137 
-3.54881 -0.585503 3.53762 
-3.67149 -0.578822 3.53229 
-3.78331 -0.5522 3.30522 
-3.9039 -0.553902 3.38948 
-4.01181 -0.531093 3.20154 
-4.14038 -0.521072 3.16329 
-4.23923 -0.523136 3.23961 
-4.37085 -0.511859 3.18943 
-4.47553 -0.493914 3.05238 
-4.60345 -0.487076 3.04824 
-4.7064 -0.479496 3.02242 
-4.84175 -0.458105 2.86484 
-4.93598 -0.465922 3.00092 
-5.09479 -0.38702 2.2337 
-5.19221 -0.396549 2.39006 
-5.33294 -0.353673 2.00289 
-5.44534 -0.329792 1.80583 
-5.57795 -0.313138 1.69803 
-5.68884 -0.28944 1.50212 
-5.83618 -0.250411 1.16021 
-5.94273 -0.239205 1.09714 
-6.08744 -0.202023 0.773783 
-6.17567 -0.226026 1.08178 
-6.30698 -0.213226 1.01501 
-6.41601 -0.197682 0.906354 
-6.53793 -0.210467 1.11137 
-6.64384 -0.196711 1.02038 
-6.77899 -0.182745 0.943079 
-6.87837 -0.181799 0.987172 
-7.00553 -0.180995 1.04799 
-7.10788 -0.174078 1.02907 
-7.22755 -0.186429 1.2282 
-7.33327 -0.176963 1.18355 
-7.45797 -0.176047 1.24182 
-7.5745 -0.152515 1.05083 
-7.70133 -0.148239 1.07391 
-7.80771 -0.137964 1.02087 
-7.91769 -0.160357 1.32341 
6.07171 -0.0616397 -6.9381 
5.80985 -0.0714514 -6.69046 
5.65556 -0.0930105 -6.37442 
5.53975 -0.0983522 -6.25408 
5.43322 -0.0457467 -6.76356 
5.31913 -0.0443742 -6.71653 
5.15452 -0.0783448 -6.26106 
5.06549 -0.0394613 -6.63206 
4.88077 -0.118924 -5.67517 
4.78591 -0.0947999 -5.88387 
4.62464 -0.138219 -5.32831 
4.52626 -0.114103 -5.535 
4.37005 -0.148491 -5.07954 
4.2683 -0.135335 -5.16623 
4.01566 -0.137196 -5.00918 
3.87252 -0.154556 -4.74439 
3.75415 -0.189962 -4.29843 
3.6082 -0.224954 -3.84197 
3.36493 -0.227075 -3.68715 
3.23802 -0.279976 -3.04789 
3.00859 -0.244191 -3.30929 
2.75012 -0.272451 -2.86432 
2.60802 -0.291149 -2.58559 
2.48566 -0.35483 -1.83252 
2.36152 -0.31107 -2.23701 
2.25585 -0.297697 -2.32385 
2.11845 -0.318666 -2.02316 
2.01459 -0.299583 -2.17256 
1.87206 -0.339518 -1.66455 
1.7666 -0.324945 -1.76443 
1.63169 -0.347245 -1.45072 
1.52816 -0.334952 -1.52706 
1.39431 -0.342166 -1.37658 
1.28858 -0.337459 -1.36992 
1.15339 -0.349219 -1.16969 
1.04965 -0.324513 -1.37976 
0.907465 -0.383045 -0.671345 
0.807764 -0.357428 -0.893422 
0.677186 -0.366224 -0.72763 
0.571509 -0.348144 -0.865186 
0.44758 -0.316203 -1.1423 
0.339512 -0.326884 -0.968401 
0.20365 -0.344529 -0.704292 
0.100672 -0.337423 -0.724963 
-0.0339571 -0.364642 -0.358265 
-0.129674 -0.371968 -0.227239 
-0.265552 -0.3177 -0.738605 
-0.371541 -0.329534 -0.553381 
-0.500131 -0.364022 -0.111556 
-0.600684 -0.378779 0.102255 
-0.723432 -0.404145 0.442545 
-0.83641 -0.347021 -0.112069 
-0.952103 -0.458313 1.15106 
-1.06241 -0.442881 1.04461 
-1.18184 -0.490644 1.62468 
-1.28789 -0.517758 1.97478 
-1.40884 -0.529402 2.16614 
-1.51451 -0.538805 2.32503 
-1.63398 -0.561604 2.63592 
-1.74008 -0.537922 2.43824 
-1.85992 -0.581478 2.97319 
-1.95864 -0.575783 2.96549 
-2.08667 -0.587733 3.16405 
-2.17927 -0.594791 3.29056 
-2.30806 -0.607465 3.49734 
-2.40363 -0.607781 3.55278 
-2.63595 -0.593107 3.52098 
-2.76818 -0.583329 3.48751 
-2.86292 -0.581861 3.52326 
-2.98741 -0.586516 3.64125 
-3.08843 -0.580034 3.62634 
-3.21519 -0.564639 3.52932 
-3.31541 -0.573633 3.68091 
-3.55166 -0.538129 3.42663 
-3.66592 -0.544193 3.55427 
-3.77516 -0.529409 3.45432 
-3.89673 -0.526115 3.48502 
-4.00222 -0.515048 3.42311 
-4.14047 -0.483756 3.16092 
-4.24048 -0.481608 3.19223 
-4.46989 -0.465159 3.13981 
-4.60396 -0.447082 3.01789 
-4.7039 -0.443095 3.02934 
-4.84173 -0.413702 2.78741 
-4.93131 -0.433522 3.05001 
-5.09135 -0.353313 2.27207 
-5.19603 -0.346403 2.25459 
-5.44137 -0.299268 1.8799 
-5.57993 -0.268317 1.62157 
-5.67619 -0.271591 1.70937 
-5.83407 -0.216539 1.20161 
-5.93815 -0.203209 1.11457 
-6.08101 -0.172351 0.859589 
-6.18264 -0.171797 0.909032 
-6.30155 -0.183136 1.09618 
-6.4139 -0.159214 0.899394 
-6.54312 -0.16167 0.996358 
