ply
format ascii 1.0
element vertex 1749
property float x
property float y
property float z
end_header
-6.07516 -2.6122 0.573878 
-6.18828 -2.62677 0.848444 
-6.29999 -2.61381 0.741683 
-6.43587 -2.59814 0.613002 
-6.54336 -2.59279 0.608637 
-6.67216 -2.58462 0.579077 
-6.78005 -2.57299 0.488266 
-6.90336 -2.57972 0.661085 
-7.01394 -2.56568 0.538645 
-7.14509 -2.55793 0.51642 
-7.24147 -2.55859 0.587942 
-7.37489 -2.54755 0.521765 
-7.48261 -2.54163 0.509679 
-7.61012 -2.53677 0.525117 
-7.72078 -2.52028 0.368881 
-7.83098 -2.53843 0.691169 
-7.94866 -2.52196 0.539757 
-8.15861 -2.53301 0.82837 
5.62567 -2.66065 -5.76233 
5.48386 -2.6591 -5.69284 
5.34589 -2.7011 -5.02676 
5.2191 -2.67599 -5.29072 
5.07974 -2.7363 -4.37206 
4.85124 -2.69889 -4.73992 
4.71184 -2.70423 -4.57718 
4.59833 -2.71354 -4.37627 
4.45698 -2.71813 -4.22245 
4.33027 -2.75231 -3.6712 
4.20896 -2.73033 -3.89561 
4.08682 -2.75461 -3.48341 
3.93953 -2.7659 -3.23362 
3.8302 -2.77082 -3.09574 
3.70809 -2.74135 -3.42271 
3.57457 -2.78318 -2.76179 
3.45266 -2.75844 -3.02379 
3.32545 -2.8019 -2.34437 
3.1978 -2.78199 -2.53623 
3.08436 -2.79433 -2.29374 
2.95055 -2.79259 -2.23178 
2.85541 -2.76717 -2.52025 
2.7196 -2.77767 -2.28869 
2.60146 -2.79414 -1.98623 
2.45188 -2.83613 -1.31269 
2.35611 -2.80673 -1.65564 
2.22306 -2.80202 -1.63496 
2.11184 -2.82162 -1.29391 
1.8777 -2.796 -1.49583 
1.74134 -2.81029 -1.21171 
1.63615 -2.80738 -1.18425 
1.49734 -2.83373 -0.732576 
1.3942 -2.80993 -0.993665 
1.26639 -2.79172 -1.16202 
1.15971 -2.79205 -1.08892 
0.922164 -2.7936 -0.914928 
0.792042 -2.78402 -0.963136 
0.686922 -2.77298 -1.0474 
0.563082 -2.7823 -0.839628 
0.456137 -2.76323 -1.03319 
0.324566 -2.77218 -0.825396 
0.217847 -2.76485 -0.857736 
0.0865277 -2.73831 -1.13836 
-0.0154269 -2.73357 -1.13799 
-0.14757 -2.73017 -1.09977 
-0.254505 -2.73827 -0.91962 
-0.38592 -2.72605 -1.00316 
-0.492476 -2.7213 -1.00001 
-0.621123 -2.73127 -0.780068 
-0.726808 -2.71487 -0.937697 
-0.855216 -2.72016 -0.782338 
-0.960756 -2.70207 -0.963258 
-1.09348 -2.69598 -0.961615 
-1.19696 -2.70783 -0.732139 
-1.32713 -2.68515 -0.960386 
-1.43251 -2.69619 -0.740668 
-1.5609 -2.69525 -0.671011 
-1.65659 -2.71673 -0.313946 
-1.90634 -2.67433 -0.736506 
-2.03556 -2.6621 -0.821526 
-2.14224 -2.63188 -1.16851 
-2.27864 -2.60496 -1.45109 
-2.38534 -2.60414 -1.39371 
-2.5123 -2.61292 -1.19113 
-2.61645 -2.60615 -1.21729 
-2.85999 -2.58878 -1.29934 
-2.98728 -2.60502 -0.993986 
-3.09476 -2.57893 -1.28379 
-3.2231 -2.58885 -1.06464 
-3.3247 -2.58871 -1.00107 
-3.4609 -2.5699 -1.17211 
-3.56898 -2.55257 -1.34089 
-3.69005 -2.57103 -1.00897 
-4.56197 -2.66037 0.781936 
-4.65041 -2.68923 1.23599 
-4.78209 -2.67483 1.12276 
-4.90387 -2.63601 0.667148 
-5.01683 -2.6567 1.02462 
-5.12292 -2.64921 0.989889 
-5.2523 -2.64377 0.998509 
-5.49642 -2.61182 0.716428 
-5.58574 -2.62891 1.00911 
-5.7333 -2.59608 0.652567 
-5.8453 -2.57984 0.501305 
-5.96858 -2.58051 0.590162 
-6.07749 -2.56762 0.483063 
-6.20645 -2.55979 0.458507 
-6.29467 -2.57976 0.790177 
-6.53651 -2.5593 0.664659 
-6.68168 -2.5333 0.400534 
-6.76582 -2.55335 0.730772 
-6.90675 -2.5338 0.552683 
-6.99472 -2.5505 0.839265 
-7.13092 -2.53519 0.716468 
-7.24428 -2.51387 0.49634 
-7.37102 -2.5152 0.596469 
-7.46498 -2.52151 0.743828 
-7.60798 -2.49965 0.5354 
-7.71294 -2.49117 0.486543 
-7.83446 -2.49611 0.632936 
-7.94328 -2.48687 0.575961 
-8.0679 -2.48481 0.628116 
-8.15447 -2.49763 0.860504 
5.87624 -2.62332 -5.89714 
5.73882 -2.62693 -5.75989 
5.64124 -2.60244 -6.03285 
5.46051 -2.66034 -5.12456 
5.36966 -2.62608 -5.53561 
5.20036 -2.67517 -4.75522 
5.11663 -2.63575 -5.24148 
4.84397 -2.67617 -4.51373 
4.72653 -2.64032 -4.92951 
4.61887 -2.63804 -4.8919 
4.45266 -2.69811 -3.96306 
4.34809 -2.68223 -4.11362 
4.20193 -2.71359 -3.59075 
4.08849 -2.71621 -3.48228 
3.83303 -2.73248 -3.09611 
3.7219 -2.68145 -3.72377 
3.59521 -2.71224 -3.22107 
3.45676 -2.71611 -3.07957 
3.32606 -2.76308 -2.35268 
3.20688 -2.72941 -2.73753 
3.0922 -2.74266 -2.48259 
2.84429 -2.75494 -2.15585 
2.71501 -2.75466 -2.07683 
2.58774 -2.7935 -1.46352 
2.45993 -2.77909 -1.57901 
2.35927 -2.7639 -1.72259 
2.22424 -2.77168 -1.52965 
2.12166 -2.75843 -1.64538 
1.8721 -2.77517 -1.2564 
1.74533 -2.7683 -1.2693 
1.63936 -2.76334 -1.26927 
1.50695 -2.75707 -1.27032 
1.39531 -2.78593 -0.80364 
1.2665 -2.76091 -1.06379 
1.16068 -2.7574 -1.0441 
0.92247 -2.74414 -1.07297 
0.796262 -2.74463 -0.985412 
0.689137 -2.73656 -1.02736 
0.565799 -2.74507 -0.831743 
0.45511 -2.72593 -1.02293 
0.322328 -2.72668 -0.927621 
0.216349 -2.71585 -1.00794 
0.088498 -2.72399 -0.814545 
-0.0149972 -2.66884 -1.50353 
-0.147706 -2.69343 -1.08175 
-0.249565 -2.69859 -0.945727 
-0.382419 -2.70676 -0.748715 
-0.487986 -2.67958 -1.05324 
-0.623924 -2.68639 -0.872785 
-0.72535 -2.68393 -0.841517 
-0.854802 -2.68004 -0.811779 
-0.960125 -2.66668 -0.927131 
-1.08889 -2.65381 -1.02086 
-1.19369 -2.66209 -0.840267 
-1.32642 -2.6542 -0.863161 
-1.42389 -2.66793 -0.61256 
-1.55766 -2.6553 -0.699793 
-1.65932 -2.66348 -0.52258 
-1.79462 -2.64536 -0.683893 
-1.90833 -2.62528 -0.88596 
-2.03526 -2.61328 -0.968998 
-2.14941 -2.55312 -1.71968 
-2.27684 -2.57168 -1.38368 
-2.38365 -2.5661 -1.39164 
-2.51042 -2.57023 -1.25362 
-2.61574 -2.56748 -1.22373 
-2.988 -2.55193 -1.19783 
-3.0916 -2.54981 -1.16038 
-3.22537 -2.53494 -1.27815 
-3.3247 -2.54993 -1.00902 
-3.45589 -2.53706 -1.10112 
-4.31907 -2.64998 1.0001 
-4.55191 -2.64214 1.04234 
-4.65882 -2.63532 1.01768 
-4.7851 -2.62757 0.992585 
-4.89311 -2.62213 0.987473 
-5.0215 -2.60827 0.880202 
-5.11678 -2.62056 1.10968 
-5.25238 -2.60443 0.975947 
-5.3587 -2.58846 0.825446 
-5.4865 -2.59128 0.946247 
-5.58588 -2.59028 0.996502 
-5.72875 -2.5627 0.710564 
-5.83717 -2.54851 0.585775 
-5.95491 -2.56087 0.830817 
-6.06435 -2.54539 0.689118 
-6.19586 -2.53797 0.672041 
-6.29767 -2.53725 0.727759 
-6.42932 -2.53105 0.727468 
-6.53782 -2.51647 0.597467 
-6.65929 -2.5227 0.761011 
-6.77296 -2.50386 0.576001 
-6.902 -2.49989 0.604576 
-7.00254 -2.4996 0.665287 
-7.12281 -2.5016 0.770032 
-7.21644 -2.50903 0.93211 
-7.36391 -2.48312 0.672092 
-7.46365 -2.48368 0.743845 
-7.60786 -2.45777 0.481702 
-7.70117 -2.46714 0.670171 
-7.83736 -2.4534 0.569483 
-7.9424 -2.44696 0.548923 
-8.0691 -2.44514 0.605554 
-8.1604 -2.45252 0.765419 
5.74594 -2.57732 -5.90666 
5.64299 -2.56605 -5.99484 
5.45405 -2.63262 -4.96674 
5.35695 -2.61222 -5.18308 
5.21825 -2.61237 -5.09256 
5.10882 -2.61064 -5.04652 
4.84308 -2.64166 -4.45415 
4.70091 -2.66112 -4.0982 
4.60894 -2.62418 -4.54328 
4.44734 -2.67432 -3.75651 
4.33913 -2.67464 -3.68322 
4.21663 -2.65178 -3.91682 
3.84646 -2.67608 -3.34936 
3.69993 -2.68272 -3.16535 
3.60304 -2.66444 -3.35292 
3.45051 -2.69316 -2.86394 
3.33703 -2.70613 -2.61464 
3.20107 -2.71119 -2.45894 
3.08776 -2.71233 -2.37109 
2.83885 -2.7323 -1.94002 
2.71952 -2.70591 -2.22363 
2.5973 -2.73717 -1.71949 
2.46952 -2.7229 -1.83244 
2.35667 -2.74209 -1.49875 
2.21234 -2.76971 -1.02996 
2.1255 -2.70663 -1.83475 
1.88193 -2.7184 -1.51876 
1.74661 -2.73113 -1.25874 
1.63876 -2.73033 -1.20076 
1.4987 -2.74576 -0.900988 
1.39789 -2.73007 -1.05057 
1.26653 -2.72213 -1.07488 
1.16682 -2.70029 -1.30901 
0.925477 -2.72847 -0.770709 
0.797935 -2.723 -0.763748 
0.692752 -2.68083 -1.27163 
0.565102 -2.69718 -0.967121 
0.458613 -2.67587 -1.18974 
0.323987 -2.68954 -0.917311 
0.222925 -2.67088 -1.10712 
0.0886618 -2.67598 -0.951787 
-0.0138852 -2.65738 -1.13995 
-0.149883 -2.68137 -0.725927 
-0.255531 -2.64629 -1.13679 
-0.380689 -2.65472 -0.941892 
-0.487311 -2.63863 -1.09308 
-0.618718 -2.62656 -1.1737 
-0.725527 -2.63542 -0.984598 
-0.855324 -2.61912 -1.12397 
-0.959624 -2.61567 -1.10424 
-1.0866 -2.62845 -0.848861 
-1.19089 -2.625 -0.829232 
-1.31967 -2.61793 -0.843306 
-1.41922 -2.65406 -0.286915 
-1.90287 -2.59859 -0.734033 
-2.03504 -2.57823 -0.927186 
-2.28151 -2.51293 -1.66008 
-2.37802 -2.53444 -1.30497 
-2.51438 -2.52409 -1.35895 
-2.61027 -2.54308 -1.03864 
-2.85491 -2.52686 -1.10331 
-2.98533 -2.5198 -1.11611 
-3.0862 -2.52091 -1.03636 
-3.22357 -2.49785 -1.26298 
-3.45491 -2.49871 -1.1032 
-4.09154 -2.61265 0.858569 
-4.18345 -2.63425 1.21209 
-4.55398 -2.59493 0.913091 
-4.64807 -2.61231 1.21036 
-4.78611 -2.58598 0.939708 
-4.8906 -2.58859 1.04222 
-5.00847 -2.58948 1.12991 
-5.11398 -2.58736 1.16867 
-5.23804 -2.5885 1.26362 
-5.35511 -2.5569 0.907592 
-5.48886 -2.54703 0.858732 
-5.58542 -2.54958 0.955331 
-5.71998 -2.53561 0.851021 
-5.82975 -2.52124 0.725431 
-5.96428 -2.50885 0.642688 
-6.05202 -2.52485 0.917204 
-6.18491 -2.51631 0.885869 
-6.28618 -2.51226 0.895516 
-6.42782 -2.49169 0.705801 
-6.53238 -2.48538 0.686647 
-6.66908 -2.46611 0.511448 
-6.75402 -2.48913 0.880045 
-6.89358 -2.46881 0.692256 
-7.00734 -2.45045 0.51486 
-7.12453 -2.46117 0.736238 
-7.2236 -2.46244 0.817114 
-7.3581 -2.45113 0.749047 
-7.47513 -2.42947 0.528729 
-7.59843 -2.43313 0.657652 
-7.71227 -2.41441 0.475362 
-7.8282 -2.42451 0.687572 
-7.91087 -2.44262 0.987689 
-8.05834 -2.4164 0.724657 
-8.15638 -2.41863 0.817985 
6.12638 -2.55959 -5.85646 
5.86551 -2.5733 -5.50478 
5.65287 -2.51772 -6.12431 
5.46556 -2.58101 -5.14608 
5.35298 -2.58656 -4.99916 
5.21519 -2.58482 -4.93524 
5.13519 -2.53971 -5.49683 
4.85242 -2.58602 -4.68849 
4.72824 -2.5678 -4.85691 
4.59798 -2.60975 -4.20461 
4.46745 -2.59279 -4.35185 
4.3407 -2.63611 -3.68311 
4.20619 -2.63646 -3.59282 
4.08307 -2.65103 -3.31674 
3.84565 -2.63433 -3.39253 
3.68159 -2.68905 -2.54527 
3.59032 -2.64839 -3.03935 
3.44794 -2.66543 -2.71745 
3.33557 -2.67635 -2.49765 
3.20307 -2.66731 -2.53619 
3.09193 -2.67609 -2.34618 
2.84946 -2.67577 -2.19633 
2.71655 -2.67679 -2.09792 
2.59548 -2.71056 -1.56232 
2.47731 -2.67704 -1.94227 
2.36725 -2.68663 -1.74208 
2.22 -2.71426 -1.27324 
2.1206 -2.68754 -1.57274 
1.8813 -2.68827 -1.41052 
1.7465 -2.70236 -1.13341 
1.64165 -2.69404 -1.17959 
1.51107 -2.67523 -1.35192 
1.41063 -2.668 -1.38619 
1.26733 -2.69844 -0.881533 
1.16317 -2.68473 -1.00137 
0.935342 -2.6683 -1.0794 
0.800337 -2.6654 -1.03291 
0.687214 -2.67313 -0.855866 
0.564626 -2.64998 -1.09208 
0.459809 -2.63426 -1.23886 
0.331371 -2.6494 -0.951481 
0.222455 -2.64728 -0.910814 
0.0898285 -2.6357 -0.983621 
-0.00687489 -2.63198 -0.972513 
-0.145734 -2.60953 -1.18885 
-0.252974 -2.63103 -0.828611 
-0.380073 -2.62338 -0.851518 
-0.484218 -2.63077 -0.684762 
-0.617902 -2.60507 -0.948558 
-0.721471 -2.59999 -0.951549 
-0.853571 -2.58237 -1.1067 
-0.957268 -2.58581 -0.993845 
-1.08806 -2.5777 -1.02069 
-1.1929 -2.58043 -0.916773 
-1.32043 -2.57956 -0.84723 
-1.5526 -2.59331 -0.512455 
-2.03225 -2.53908 -0.943102 
-2.37643 -2.49663 -1.30011 
-2.5104 -2.49508 -1.23566 
-2.60922 -2.50995 -0.970753 
-2.85334 -2.47782 -1.25131 
-2.98014 -2.48387 -1.08827 
-3.08536 -2.46984 -1.21172 
-3.85147 -2.59694 1.00353 
-4.07549 -2.6104 1.32937 
-4.17354 -2.61546 1.46078 
-4.55143 -2.55777 0.918425 
-4.65173 -2.56222 1.04296 
-4.77789 -2.55923 1.0829 
-4.88749 -2.55408 1.08302 
-5.01698 -2.5362 0.922831 
-5.11248 -2.54876 1.15448 
-5.24727 -2.52494 0.917114 
-5.34442 -2.53807 1.15752 
-5.47266 -2.53089 1.14188 
-5.58066 -2.51912 1.05105 
-5.71401 -2.50328 0.921103 
-5.82076 -2.4917 0.831944 
-5.94431 -2.49767 0.992011 
-6.05278 -2.48238 0.853647 
-6.18468 -2.47703 0.865279 
-6.29055 -2.46665 0.791993 
-6.42008 -2.46192 0.810506 
-6.52465 -2.45656 0.804668 
-6.65494 -2.44793 0.770725 
-6.75239 -2.44995 0.860449 
-6.89557 -2.42763 0.648741 
-6.9985 -2.4225 0.64493 
-7.13128 -2.41274 0.597257 
-7.219 -2.42997 0.887348 
-7.35493 -2.41751 0.805018 
-7.47342 -2.39421 0.564309 
-7.5998 -2.3903 0.592027 
-7.68937 -2.40292 0.820731 
-7.82707 -2.38661 0.687352 
-7.92274 -2.38919 0.783531 
-8.05448 -2.38247 0.776611 
-8.15407 -2.38046 0.812987 
5.85984 -2.54566 -5.34633 
5.62063 -2.52127 -5.52453 
5.49817 -2.4942 -5.81301 
5.3586 -2.54644 -5.01828 
5.24715 -2.50048 -5.5691 
5.09793 -2.56993 -4.53561 
4.85839 -2.53422 -4.86671 
4.72001 -2.55054 -4.55835 
4.62102 -2.52966 -4.77796 
4.46797 -2.56443 -4.21084 
4.35644 -2.56955 -4.07096 
4.2005 -2.6058 -3.48211 
4.10948 -2.57579 -3.83014 
3.95333 -2.60431 -3.3456 
3.8466 -2.5959 -3.39153 
3.69661 -2.62804 -2.86192 
3.58635 -2.62622 -2.81661 
3.4543 -2.61927 -2.8269 
3.34484 -2.61966 -2.75217 
3.20658 -2.62717 -2.56301 
3.09007 -2.64849 -2.20082 
2.95587 -2.65072 -2.08558 
2.849 -2.64501 -2.09497 
2.72613 -2.61477 -2.42597 
2.60338 -2.64925 -1.88196 
2.4771 -2.6438 -1.87543 
2.36318 -2.65055 -1.71194 
2.23838 -2.63267 -1.87453 
2.11859 -2.65309 -1.52242 
1.88129 -2.64903 -1.4267 
1.75055 -2.65158 -1.30926 
1.64949 -2.63294 -1.49717 
1.51518 -2.64288 -1.27759 
1.40559 -2.65802 -1.00329 
1.26614 -2.6557 -0.94614 
1.16574 -2.63659 -1.14073 
0.93056 -2.63564 -1.00438 
0.802469 -2.61897 -1.14843 
0.694425 -2.62787 -0.959438 
0.566317 -2.61449 -1.05904 
0.461244 -2.60053 -1.18106 
0.337022 -2.61399 -0.920254 
0.22485 -2.58925 -1.18349 
0.0927758 -2.58223 -1.1945 
-0.0084074 -2.59188 -0.9998 
-0.141087 -2.57273 -1.17446 
-0.248135 -2.59201 -0.845724 
-0.377031 -2.57429 -1.00354 
-0.485404 -2.56971 -0.996637 
-0.612543 -2.56745 -0.946317 
-0.718834 -2.5714 -0.825427 
-0.853466 -2.56273 -0.857054 
-0.953244 -2.56137 -0.812118 
-1.0856 -2.53983 -1.01932 
-1.18344 -2.55713 -0.723089 
-1.31425 -2.57402 -0.411655 
-2.37862 -2.45439 -1.35274 
-2.51044 -2.44749 -1.36223 
-2.61495 -2.44581 -1.31849 
-2.83698 -2.46783 -0.879395 
-2.97661 -2.44477 -1.10254 
-3.069 -2.47591 -0.622543 
-3.61386 -2.58034 1.13651 
-3.85468 -2.55013 0.88113 
-3.94662 -2.5692 1.19762 
-4.07417 -2.5656 1.23009 
-4.1642 -2.59121 1.63382 
-4.54948 -2.51729 0.879306 
-4.6409 -2.53927 1.23481 
-4.77614 -2.51822 1.03627 
-4.87747 -2.52163 1.14698 
-5.00572 -2.51512 1.14057 
-5.1073 -2.51587 1.21545 
-5.23342 -2.50809 1.19049 
-5.34361 -2.49509 1.08479 
-5.47783 -2.47747 0.931968 
-5.58284 -2.47429 0.955912 
-5.70975 -2.47001 0.978916 
-5.82535 -2.45114 0.797315 
-5.95048 -2.44802 0.834768 
-6.04696 -2.45532 0.995043 
-6.17406 -2.45029 1.00806 
-6.28342 -2.43694 0.89718 
-6.52128 -2.4205 0.826301 
-6.65667 -2.40693 0.729078 
-6.75372 -2.40841 0.810918 
-6.88049 -2.40641 0.864691 
-6.99925 -2.384 0.637289 
-7.12031 -2.38986 0.793775 
-7.22189 -2.38656 0.813844 
-7.4584 -2.3734 0.786722 
-7.59548 -2.35399 0.611597 
-7.69094 -2.36016 0.755936 
-7.82131 -2.35198 0.728426 
-7.92742 -2.34685 0.726745 
-8.05598 -2.33974 0.712456 
-8.14334 -2.35249 0.940734 
6.11203 -2.5073 -5.4962 
5.89586 -2.46089 -5.98456 
5.63678 -2.45637 -5.88189 
5.51015 -2.44278 -5.98488 
5.36276 -2.50425 -5.06426 
5.2228 -2.50702 -4.93866 
5.14537 -2.44539 -5.7195 
4.86946 -2.48286 -5.04072 
4.72917 -2.49848 -4.74181 
4.61284 -2.50709 -4.55242 
4.47405 -2.50879 -4.44182 
4.35532 -2.53948 -3.95372 
4.21339 -2.5465 -3.76952 
4.10722 -2.54409 -3.73478 
3.94685 -2.58049 -3.14343 
3.84764 -2.56662 -3.26744 
3.713 -2.55977 -3.27452 
3.60258 -2.55419 -3.2799 
3.44943 -2.59158 -2.6797 
3.34719 -2.57569 -2.82899 
3.21469 -2.57742 -2.72189 
3.09738 -2.59585 -2.39957 
2.84996 -2.61019 -2.05014 
2.71748 -2.60478 -2.03916 
2.62128 -2.57631 -2.36163 
2.46509 -2.62662 -1.58547 
2.37184 -2.60075 -1.87484 
2.23556 -2.60934 -1.67299 
2.1185 -2.62502 -1.38786 
1.88938 -2.59735 -1.61546 
1.74909 -2.61338 -1.31081 
1.65538 -2.57861 -1.71972 
1.51879 -2.60913 -1.22236 
1.41233 -2.59787 -1.30653 
1.27844 -2.59103 -1.31387 
1.17433 -2.58872 -1.27909 
0.808606 -2.56238 -1.40236 
0.69459 -2.58617 -1.00982 
0.570756 -2.57767 -1.04591 
0.462094 -2.56063 -1.20646 
0.337013 -2.56158 -1.11451 
0.226343 -2.55845 -1.08661 
0.0891153 -2.55839 -1.00051 
-0.00929711 -2.55741 -0.951381 
-0.141028 -2.53709 -1.14162 
-0.248286 -2.5611 -0.750426 
-0.37669 -2.53977 -0.956238 
-0.483296 -2.54997 -0.751347 
-0.608666 -2.5196 -1.0809 
-0.717235 -2.53529 -0.800872 
-0.843015 -2.53523 -0.721959 
-0.952897 -2.51797 -0.884809 
-1.08208 -2.51768 -0.806812 
-1.18305 -2.52045 -0.70559 
-1.3175 -2.50887 -0.776349 
-2.02907 -2.45347 -1.07135 
-2.13928 -2.40976 -1.59014 
-2.2745 -2.40022 -1.63288 
-2.37578 -2.42707 -1.20703 
-2.50809 -2.39689 -1.52956 
-2.60728 -2.44224 -0.855976 
-2.83866 -2.43333 -0.829313 
-2.97597 -2.41421 -0.99969 
-3.38885 -2.53204 0.849038 
-3.61472 -2.53885 1.08407 
-3.71399 -2.54049 1.16914 
-3.83968 -2.55143 1.39633 
-3.95097 -2.51691 1.002 
-4.07074 -2.53914 1.37746 
-4.16342 -2.55362 1.63118 
-4.30269 -2.52469 1.33002 
-4.40318 -2.53164 1.48741 
-4.53696 -2.50721 1.24329 
-4.64519 -2.49672 1.17069 
-4.774 -2.4862 1.11086 
-4.86832 -2.50372 1.40673 
-4.99942 -2.48521 1.24061 
-5.09977 -2.48841 1.34744 
-5.23943 -2.46416 1.10947 
-5.46028 -2.46642 1.28029 
-5.56605 -2.46393 1.31392 
-5.70737 -2.43534 1.0186 
-5.81259 -2.42518 0.948518 
-5.94379 -2.41744 0.927717 
-6.05476 -2.40293 0.802729 
-6.19072 -2.38552 0.654664 
-6.28169 -2.39943 0.89982 
-6.52212 -2.37968 0.786563 
-6.65549 -2.36786 0.712043 
-6.74849 -2.3769 0.89299 
-6.8738 -2.37415 0.935517 
-6.98588 -2.36131 0.833855 
-7.1222 -2.3442 0.689975 
-7.21076 -2.35813 0.933904 
-7.34726 -2.34437 0.835388 
-7.45223 -2.34104 0.857247 
-7.58957 -2.32099 0.67442 
-7.68924 -2.32031 0.72873 
-7.82546 -2.30729 0.639936 
-7.91534 -2.31979 0.865476 
-8.04278 -2.31526 0.885547 
-8.13236 -2.32393 1.05923 
5.89701 -2.42139 -5.98879 
5.63044 -2.43194 -5.67955 
5.48355 -2.44571 -5.40239 
5.3878 -2.42729 -5.58909 
5.23439 -2.44785 -5.21692 
5.12562 -2.44166 -5.23135 
4.98381 -2.45121 -5.01405 
4.8741 -2.44648 -5.00846 
4.73749 -2.44182 -4.98485 
4.59747 -2.50136 -4.09843 
4.46864 -2.48958 -4.17526 
4.35344 -2.50678 -3.87206 
4.2167 -2.5049 -3.8111 
4.10984 -2.50634 -3.7245 
3.95296 -2.53013 -3.30672 
3.85682 -2.5195 -3.38869 
3.72546 -2.50421 -3.51087 
3.60977 -2.51095 -3.34763 
3.46382 -2.53638 -2.91471 
3.35622 -2.52531 -2.9952 
3.21251 -2.55036 -2.56876 
3.09436 -2.56967 -2.2355 
2.86094 -2.54786 -2.38064 
2.72607 -2.54019 -2.39855 
2.61363 -2.56771 -1.95857 
2.47317 -2.57655 -1.75153 
2.37462 -2.55029 -2.04143 
2.24022 -2.55571 -1.88411 
2.11713 -2.6019 -1.18711 
1.89615 -2.53958 -1.88337 
1.75888 -2.56557 -1.44819 
1.65078 -2.57157 -1.29955 
1.51706 -2.56914 -1.24784 
1.41704 -2.56297 -1.26749 
1.28282 -2.54896 -1.3706 
1.1838 -2.52716 -1.60046 
0.938709 -2.54564 -1.19799 
0.805235 -2.54814 -1.08028 
0.704638 -2.52461 -1.33225 
0.571631 -2.54515 -0.972876 
0.464211 -2.52128 -1.22516 
0.332456 -2.52178 -1.1353 
0.225724 -2.52876 -0.974272 
-0.00526978 -2.521 -0.932481 
-0.139643 -2.50099 -1.11598 
-0.24829 -2.50856 -0.945829 
-0.374397 -2.50677 -0.890234 
-0.478776 -2.50163 -0.893277 
-0.606519 -2.50253 -0.800487 
-0.715392 -2.50638 -0.680082 
-0.949663 -2.47579 -0.94233 
-1.07864 -2.47993 -0.805304 
-1.18489 -2.47679 -0.780315 
-1.31709 -2.46026 -0.918513 
-2.13347 -2.39217 -1.31571 
-2.27015 -2.38035 -1.38781 
-2.37418 -2.37642 -1.37469 
-2.50495 -2.36658 -1.42411 
-2.60726 -2.38268 -1.14348 
-2.73422 -2.39639 -0.87929 
-2.83104 -2.41666 -0.546299 
-2.97175 -2.38007 -0.948001 
-3.36807 -2.5567 1.67145 
-3.60098 -2.5318 1.48478 
-3.69648 -2.53857 1.63607 
-3.85873 -2.46601 0.765586 
-3.93363 -2.51673 1.49324 
-4.07104 -2.49186 1.24661 
-4.17652 -2.4805 1.16097 
-4.29496 -2.50202 1.5245 
-4.53143 -2.47905 1.36615 
-4.63508 -2.47102 1.32405 
-4.75994 -2.47619 1.47244 
-4.87044 -2.45519 1.26069 
-4.98658 -2.46605 1.47997 
-5.10365 -2.44209 1.23274 
-5.2413 -2.41812 0.998333 
-5.33579 -2.43181 1.24179 
-5.46376 -2.42038 1.16951 
-5.57497 -2.40709 1.06175 
-5.70278 -2.40246 1.08059 
-5.80614 -2.39617 1.06168 
-5.93489 -2.39105 1.07449 
-6.04182 -2.37972 0.99029 
-6.17612 -2.36913 0.933299 
-6.28065 -2.36163 0.898908 
-6.40726 -2.35693 0.916168 
-6.51442 -2.34922 0.880564 
-6.64766 -2.33858 0.822297 
-6.7462 -2.3406 0.911849 
-6.87837 -2.32856 0.834092 
-6.98286 -2.32428 0.842906 
-7.11475 -2.31674 0.825394 
-7.21883 -2.3088 0.784866 
-7.34753 -2.30401 0.802092 
-7.45765 -2.2933 0.7283 
-7.5763 -2.29619 0.842268 
-7.69649 -2.27494 0.633448 
-7.80519 -2.29075 0.914437 
-7.91747 -2.27632 0.791944 
-8.0364 -2.28325 0.960431 
-8.14007 -2.27815 0.957671 
5.86238 -2.43417 -5.27234 
5.6564 -2.36168 -6.1109 
5.4919 -2.39948 -5.50306 
5.37755 -2.40471 -5.36147 
5.25198 -2.38324 -5.56929 
5.12654 -2.40209 -5.23888 
4.98573 -2.41282 -5.00711 
4.87873 -2.39798 -5.13816 
4.75106 -2.38071 -5.28855 
4.60062 -2.46208 -4.10773 
4.47987 -2.43041 -4.45473 
4.35422 -2.47319 -3.8046 
4.2268 -2.44422 -4.11134 
4.10474 -2.47663 -3.60204 
3.96452 -2.47497 -3.53603 
3.84615 -2.49614 -3.17906 
3.7131 -2.49479 -3.11356 
3.60153 -2.49217 -3.07837 
3.4533 -2.52271 -2.57743 
3.34693 -2.51648 -2.5938 
3.22572 -2.48663 -2.91622 
3.09495 -2.54115 -2.10614 
2.96757 -2.51439 -2.3833 
2.85769 -2.52467 -2.17694 
2.72441 -2.50632 -2.33825 
2.6277 -2.4967 -2.40585 
2.4794 -2.53815 -1.75924 
2.38252 -2.49214 -2.31255 
2.23248 -2.53525 -1.64261 
2.13916 -2.51359 -1.87313 
1.99998 -2.5289 -1.58124 
1.89179 -2.52093 -1.61966 
1.75835 -2.53151 -1.39441 
1.65302 -2.53316 -1.3062 
1.51222 -2.56237 -0.827507 
1.41872 -2.53834 -1.08963 
1.2823 -2.53053 -1.10802 
1.17611 -2.53236 -1.01684 
1.05268 -2.48856 -1.52396 
0.936285 -2.5302 -0.894791 
0.810086 -2.49842 -1.23969 
0.702561 -2.50227 -1.12068 
0.573216 -2.49675 -1.11294 
0.467101 -2.48714 -1.17448 
0.333267 -2.48863 -1.07036 
0.234452 -2.48545 -1.05066 
-0.000690806 -2.47618 -1.02647 
-0.139128 -2.46269 -1.11938 
-0.243526 -2.4587 -1.10694 
-0.37256 -2.47637 -0.789799 
-0.478931 -2.46442 -0.882317 
-0.610877 -2.46141 -0.839517 
-0.706318 -2.49224 -0.367721 
-0.948024 -2.45204 -0.752199 
-1.07543 -2.44971 -0.703077 
-1.17808 -2.44146 -0.748635 
-1.31161 -2.43985 -0.686002 
-2.13201 -2.35146 -1.34957 
-2.26647 -2.35139 -1.26568 
-2.37187 -2.34618 -1.2688 
-2.49411 -2.3603 -1.00321 
-2.6056 -2.34356 -1.15651 
-3.23885 -2.51583 1.54339 
-3.37031 -2.50289 1.4534 
-3.47104 -2.49236 1.37631 
-3.60454 -2.48084 1.30666 
-3.70266 -2.48902 1.47784 
-3.84037 -2.46924 1.3005 
-3.94114 -2.45903 1.22776 
-4.05504 -2.49147 1.73288 
-4.16204 -2.47349 1.5603 
-4.28735 -2.4803 1.7303 
-4.39881 -2.45478 1.45981 
-4.52842 -2.4433 1.38824 
-4.63127 -2.43992 1.40797 
-4.76638 -2.41972 1.2235 
-4.86405 -2.42725 1.38566 
-4.98726 -2.43084 1.51146 
-5.10888 -2.38663 0.997646 
-5.22475 -2.39758 1.21711 
-5.3355 -2.39132 1.20346 
-5.46731 -2.37601 1.0821 
-5.55931 -2.39082 1.33808 
-5.69962 -2.36841 1.12735 
-5.80887 -2.35633 1.03493 
-5.9414 -2.34183 0.925016 
-6.04025 -2.33877 0.946568 
-6.16931 -2.34201 1.07132 
-6.28456 -2.31452 0.776908 
-6.40829 -2.31613 0.876603 
-6.51166 -2.31213 0.888422 
-6.6457 -2.30279 0.848361 
-6.74444 -2.30181 0.897728 
-6.88301 -2.28312 0.735607 
-6.97942 -2.28743 0.854051 
-7.10852 -2.28508 0.904312 
-7.22262 -2.26423 0.697764 
-7.33276 -2.28358 1.02591 
-7.44367 -2.26924 0.904451 
-7.57652 -2.25703 0.825283 
-7.68037 -2.25309 0.838348 
-7.79877 -2.26029 1.0094 
-7.92428 -2.22891 0.669459 
-8.04328 -2.23548 0.832466 
5.88219 -2.36732 -5.65468 
5.6566 -2.32572 -6.06652 
5.50768 -2.34029 -5.77966 
5.40945 -2.31879 -6.00404 
5.23041 -2.38801 -4.9717 
5.14866 -2.33541 -5.61984 
4.86935 -2.37743 -4.88639 
4.73243 -2.38532 -4.6958 
4.62698 -2.37387 -4.78193 
4.48596 -2.37815 -4.63677 
4.36979 -2.40215 -4.245 
4.22055 -2.42829 -3.80394 
4.12351 -2.39454 -4.19183 
3.85289 -2.45177 -3.26143 
3.60499 -2.45523 -3.06024 
3.46259 -2.46292 -2.86866 
3.34291 -2.49059 -2.42586 
3.20893 -2.49212 -2.32158 
3.09989 -2.4912 -2.26543 
2.96606 -2.48632 -2.2464 
2.8761 -2.44787 -2.70134 
2.73029 -2.4602 -2.44606 
2.6143 -2.49402 -1.92362 
2.48219 -2.49704 -1.80067 
2.38181 -2.4769 -2.00553 
2.24225 -2.47884 -1.89216 
2.13715 -2.48456 -1.75029 
2.00135 -2.49234 -1.56174 
1.89557 -2.47887 -1.6744 
1.76206 -2.48974 -1.44627 
1.66203 -2.45873 -1.79587 
1.51583 -2.49864 -1.17346 
1.41995 -2.4861 -1.28001 
1.28629 -2.47931 -1.2865 
1.17783 -2.4777 -1.2399 
1.04823 -2.47434 -1.20324 
0.939191 -2.46825 -1.21589 
0.811235 -2.46643 -1.15979 
0.703313 -2.47635 -0.960191 
0.576982 -2.44687 -1.27288 
0.468505 -2.45082 -1.1523 
0.340196 -2.43963 -1.22052 
0.24002 -2.43809 -1.17819 
0.00224668 -2.45302 -0.830381 
-0.136658 -2.4391 -0.928385 
-0.242245 -2.4223 -1.08551 
-0.371317 -2.43679 -0.811702 
-0.478596 -2.42591 -0.889132 
-0.608028 -2.42317 -0.844287 
-0.710557 -2.43063 -0.680731 
-0.94409 -2.41489 -0.743379 
-1.07761 -2.39904 -0.870319 
-1.17727 -2.40559 -0.720621 
-1.31089 -2.39698 -0.751143 
-1.41288 -2.40023 -0.64389 
-2.12901 -2.3125 -1.3607 
-2.26572 -2.30023 -1.43805 
-2.36645 -2.32466 -1.04982 
-2.49358 -2.32071 -1.02247 
-2.60404 -2.30881 -1.11128 
-2.71706 -2.33935 -0.634067 
-3.13199 -2.48312 1.53872 
-3.24399 -2.45487 1.23344 
-3.36345 -2.47253 1.54349 
-3.60391 -2.44016 1.26423 
-3.70618 -2.43369 1.24251 
-3.83294 -2.43469 1.3355 
-3.93178 -2.44446 1.52762 
-4.06068 -2.43647 1.50244 
-4.15554 -2.44648 1.69521 
-4.29457 -2.42149 1.45036 
-4.52377 -2.4147 1.50424 
-4.62211 -2.41905 1.62399 
-4.76509 -2.38219 1.22366 
-4.86441 -2.38639 1.34205 
-4.99489 -2.37079 1.21672 
-5.08928 -2.38762 1.49995 
-5.21428 -2.38252 1.51078 
-5.33748 -2.3471 1.11715 
-5.56605 -2.33778 1.13709 
-5.7028 -2.32485 1.05116 
-5.79946 -2.32425 1.10408 
-5.92817 -2.32358 1.17627 
-6.04007 -2.30433 0.990643 
-6.17343 -2.29381 0.934635 
-6.27624 -2.28885 0.93341 
-6.49872 -2.28911 1.07706 
-6.64125 -2.26953 0.906356 
-6.74874 -2.25656 0.801509 
-6.87989 -2.24791 0.769093 
-6.97825 -2.24963 0.853893 
-7.11199 -2.23837 0.788424 
-7.19811 -2.25544 1.0697 
-7.33846 -2.23651 0.906422 
-7.43893 -2.23542 0.955154 
-7.58134 -2.21368 0.755779 
-7.67809 -2.216 0.847622 
-7.81376 -2.20188 0.745162 
-7.91657 -2.19847 0.764647 
-8.03137 -2.20871 0.973262 
-8.13715 -2.20301 0.96404 
6.12085 -2.3534 -5.46942 
5.8951 -2.30985 -5.90523 
5.64709 -2.30264 -5.84603 
5.4995 -2.31349 -5.61028 
5.38543 -2.31689 -5.49411 
5.22025 -2.37065 -4.67919 
5.11027 -2.3705 -4.61249 
4.87296 -2.33804 -4.89415 
4.75237 -2.30824 -5.21345 
4.64108 -2.31498 -5.05484 
4.48304 -2.35132 -4.47494 
4.36183 -2.38513 -3.9516 
4.22664 -2.38495 -3.8696 
4.11207 -2.38872 -3.74821 
3.86392 -2.39285 -3.53848 
3.7233 -2.4056 -3.2818 
3.61319 -2.40084 -3.27609 
3.46651 -2.41987 -2.93254 
3.35777 -2.4307 -2.72116 
3.22249 -2.42543 -2.70645 
3.11661 -2.41597 -2.76554 
2.86562 -2.43197 -2.39685 
2.73385 -2.42838 -2.36206 
2.61936 -2.44336 -2.09217 
2.48691 -2.44933 -1.93038 
2.37721 -2.45905 -1.7331 
2.2342 -2.47536 -1.4277 
2.14421 -2.42726 -2.00831 
2.01098 -2.43541 -1.81714 
1.8984 -2.44726 -1.58991 
1.7635 -2.45172 -1.44643 
1.65636 -2.44734 -1.43749 
1.52905 -2.42265 -1.68478 
1.41555 -2.45922 -1.12962 
1.28004 -2.45895 -1.04845 
1.17845 -2.4392 -1.24633 
0.93983 -2.44441 -1.02811 
0.815067 -2.42232 -1.24257 
0.70803 -2.42353 -1.15968 
0.57821 -2.41271 -1.22176 
0.470947 -2.41594 -1.11182 
0.338452 -2.41563 -1.03303 
0.234576 -2.4255 -0.837371 
-0.000724908 -2.40022 -1.02488 
-0.133152 -2.41206 -0.785167 
-0.237852 -2.40229 -0.849044 
-0.369769 -2.38603 -0.981791 
-0.475617 -2.38615 -0.913969 
-0.599911 -2.39547 -0.712671 
-0.711533 -2.38347 -0.801711 
-0.839672 -2.37722 -0.804308 
-0.943387 -2.3702 -0.83236 
-1.07238 -2.37114 -0.739161 
-1.17958 -2.36415 -0.764559 
-1.31162 -2.35203 -0.842426 
-1.41514 -2.3487 -0.821723 
-1.89057 -2.31143 -1.01751 
-2.02665 -2.27282 -1.44362 
-2.13232 -2.26405 -1.49353 
-2.25768 -2.27888 -1.2186 
-2.35718 -2.3172 -0.648797 
-2.49088 -2.29365 -0.876896 
-3.01858 -2.40197 0.888461 
-3.13025 -2.44744 1.56074 
-3.23405 -2.45215 1.68814 
-3.37042 -2.41311 1.25653 
-3.60001 -2.41 1.35933 
-3.70348 -2.40953 1.41797 
-3.83006 -2.40261 1.40577 
-3.93362 -2.39748 1.4027 
-4.06161 -2.39635 1.46806 
-4.15536 -2.40912 1.69599 
-4.29038 -2.39012 1.529 
-4.52075 -2.37807 1.51389 
-4.62559 -2.3686 1.45423 
-4.75222 -2.37007 1.55324 
-4.861 -2.35706 1.44908 
-4.99111 -2.33648 1.25811 
-5.09325 -2.34012 1.37047 
-5.22028 -2.33572 1.3919 
-5.32117 -2.33408 1.4335 
-5.46111 -2.30709 1.16387 
-5.56323 -2.30236 1.16526 
-5.71398 -2.26532 0.769292 
-5.80068 -2.28241 1.05009 
-5.93148 -2.27702 1.06083 
-6.03271 -2.27816 1.13945 
-6.17899 -2.24361 0.773592 
-6.27561 -2.24903 0.906066 
-6.40046 -2.25171 1.02004 
-6.5023 -2.24574 1.00492 
-6.63503 -2.23949 1.00541 
-6.74658 -2.2195 0.810708 
-6.87661 -2.21098 0.779488 
-6.97612 -2.21223 0.858507 
-7.10338 -2.20893 0.894732 
-7.2077 -2.2042 0.89764 
-7.33062 -2.2081 1.02656 
-7.44342 -2.19171 0.88034 
-7.57463 -2.18246 0.840205 
-7.68058 -2.17297 0.780995 
-7.80485 -2.1725 0.852904 
-7.90831 -2.16906 0.872367 
-8.03126 -2.16923 0.951874 
5.92013 -2.24361 -6.27696 
5.65187 -2.26301 -5.85434 
5.3857 -2.28198 -5.43861 
5.23818 -2.3066 -5.02218 
5.11123 -2.33117 -4.61927 
4.87225 -2.31026 -4.74617 
4.726 -2.33034 -4.39038 
4.6185 -2.33166 -4.30603 
4.49426 -2.29269 -4.74257 
4.36217 -2.35083 -3.89375 
4.24169 -2.30711 -4.39528 
4.10939 -2.36017 -3.61315 
3.86901 -2.34947 -3.60464 
3.7354 -2.35102 -3.50094 
3.6258 -2.3371 -3.61628 
3.46021 -2.4025 -2.65076 
3.36579 -2.37403 -2.9673 
3.22043 -2.39643 -2.58149 
3.11012 -2.39554 -2.52448 
2.86464 -2.4053 -2.24285 
2.73195 -2.40497 -2.16445 
2.61583 -2.42926 -1.77183 
2.48529 -2.42098 -1.7996 
2.37695 -2.4198 -1.74769 
2.23907 -2.42262 -1.62464 
2.12821 -2.4435 -1.28016 
1.90023 -2.40114 -1.69664 
1.76135 -2.42179 -1.3377 
1.65955 -2.41034 -1.42528 
1.52356 -2.41034 -1.34047 
1.41762 -2.42241 -1.11526 
1.28074 -2.42055 -1.05439 
1.18753 -2.38361 -1.48345 
1.05335 -2.40053 -1.17658 
0.947666 -2.3952 -1.18097 
0.820547 -2.36458 -1.50552 
0.708569 -2.38918 -1.11124 
0.578652 -2.37191 -1.25795 
0.47248 -2.37803 -1.11104 
0.344438 -2.3618 -1.24525 
0.238171 -2.37839 -0.960187 
0.107138 -2.37366 -0.940759 
0.00175611 -2.36135 -1.03738 
-0.131614 -2.35352 -1.0574 
-0.235498 -2.35988 -0.908736 
-0.36767 -2.36109 -0.810283 
-0.473261 -2.34088 -1.01091 
-0.602221 -2.33707 -0.980641 
-0.710111 -2.34983 -0.744973 
-0.837274 -2.33824 -0.818448 
-0.94507 -2.31015 -1.1217 
-1.07488 -2.33315 -0.737273 
-1.17678 -2.33453 -0.655457 
-1.31444 -2.31935 -0.769774 
-1.41411 -2.31065 -0.822215 
-1.54328 -2.31724 -0.654605 
-1.65218 -2.2904 -0.940615 
-1.89015 -2.25396 -1.27261 
-2.01937 -2.24468 -1.31436 
-2.12484 -2.23867 -1.32771 
-2.25995 -2.23579 -1.28132 
-2.35812 -2.26675 -0.811619 
-2.4901 -2.25751 -0.851009 
-3.0199 -2.36194 0.85736 
-3.23734 -2.3912 1.37929 
-3.35246 -2.42208 1.85857 
-3.6067 -2.35524 1.13588 
-3.68855 -2.39749 1.74434 
-3.82702 -2.3712 1.48412 
-3.92714 -2.37033 1.53521 
-4.05144 -2.37725 1.70432 
-4.1511 -2.3773 1.76731 
-4.27887 -2.37352 1.79729 
-4.38921 -2.35371 1.60501 
-4.51316 -2.3554 1.70487 
-4.62043 -2.3438 1.61892 
-4.74969 -2.33083 1.52868 
-4.85649 -2.3199 1.45134 
-4.97894 -2.32379 1.57931 
-5.0876 -2.31194 1.49096 
-5.2315 -2.28007 1.16065 
-5.32584 -2.28377 1.26843 
-5.44948 -2.28346 1.3418 
-5.56061 -2.27026 1.23713 
-5.70357 -2.23958 0.921922 
-5.80016 -2.24221 1.01712 
-5.92729 -2.24528 1.13721 
-6.03754 -2.22778 0.975269 
-6.16907 -2.21619 0.904727 
-6.26943 -2.2171 0.979569 
-6.39776 -2.21342 1.01135 
-6.50089 -2.21033 1.03518 
-6.62529 -2.21143 1.1276 
-6.74208 -2.18635 0.869876 
-6.86712 -2.18497 0.929957 
-6.97532 -2.17427 0.856552 
-7.09978 -2.17647 0.96354 
-7.2024 -2.17064 0.951012 
-7.33481 -2.16264 0.928383 
-7.43956 -2.15635 0.911042 
-7.56659 -2.15303 0.946739 
-7.67858 -2.13478 0.776186 
-7.79773 -2.13997 0.91925 
-7.90517 -2.13257 0.888936 
-8.03468 -2.1262 0.886145 
-8.12806 -2.13276 1.03112 
5.93047 -2.19284 -6.43327 
5.63097 -2.26302 -5.32598 
5.48381 -2.26328 -5.23139 
5.36051 -2.28467 -4.87403 
5.26295 -2.22412 -5.60853 
5.11076 -2.29449 -4.59009 
4.9873 -2.26968 -4.83928 
4.89805 -2.22888 -5.31966 
4.74751 -2.24204 -5.05341 
4.63207 -2.26539 -4.6751 
4.49225 -2.26289 -4.62115 
4.39222 -2.23614 -4.91043 
4.21967 -2.32058 -3.69439 
4.10145 -2.34024 -3.3629 
3.86822 -2.32291 -3.44564 
3.60947 -2.33992 -3.06159 
3.48031 -2.33526 -3.04256 
3.36065 -2.34794 -2.80171 
3.22211 -2.35691 -2.59794 
3.10532 -2.37275 -2.31738 
2.87366 -2.35352 -2.42598 
2.73692 -2.36264 -2.22119 
2.63487 -2.33645 -2.50182 
2.48718 -2.37946 -1.84515 
2.38108 -2.37126 -1.88698 
2.2497 -2.36658 -1.8668 
2.14278 -2.36647 -1.80175 
2.00706 -2.37683 -1.58134 
1.90983 -2.34521 -1.93616 
1.76924 -2.36587 -1.57749 
1.66459 -2.36733 -1.49319 
1.52972 -2.36387 -1.45489 
1.42662 -2.35263 -1.53841 
1.29134 -2.35949 -1.36417 
1.18707 -2.34434 -1.49826 
1.05064 -2.36993 -1.07738 
0.950939 -2.35506 -1.21062 
0.817512 -2.34419 -1.27044 
0.707877 -2.35879 -1.01048 
0.585123 -2.33816 -1.20511 
0.473393 -2.33974 -1.11489 
0.346 -2.34044 -1.02638 
0.237468 -2.34112 -0.949987 
0.108176 -2.33477 -0.952921 
0.00521213 -2.32863 -0.96949 
-0.129176 -2.32364 -0.951482 
-0.235386 -2.32473 -0.871044 
-0.365581 -2.31605 -0.904003 
-0.472318 -2.31132 -0.899718 
-0.600234 -2.3027 -0.933386 
-0.703539 -2.34123 -0.36299 
-0.832651 -2.31604 -0.613453 
-0.94071 -2.27377 -1.10139 
-1.07413 -2.28342 -0.891661 
-1.17427 -2.30148 -0.592034 
-1.30957 -2.27604 -0.841993 
-1.4093 -2.26879 -0.875152 
-1.54276 -2.26737 -0.810705 
-1.64975 -2.25335 -0.928264 
-1.88783 -2.20718 -1.38635 
-2.01899 -2.21034 -1.26323 
-2.12667 -2.20648 -1.2469 
-2.25266 -2.21857 -1.00953 
-2.35998 -2.21031 -1.05121 
-3.13039 -2.35142 1.28236 
-3.23664 -2.34975 1.32662 
-3.34967 -2.3895 1.9193 
-3.58641 -2.36263 1.71386 
-3.69281 -2.34726 1.57835 
-3.83021 -2.32706 1.39861 
-3.92551 -2.32973 1.49313 
-4.04881 -2.34317 1.74653 
-4.15146 -2.3365 1.72295 
-4.28106 -2.33145 1.73738 
-4.51152 -2.31917 1.71983 
-4.62263 -2.30391 1.5887 
-4.7542 -2.27896 1.34296 
-4.84937 -2.29416 1.60209 
-4.9833 -2.27732 1.46433 
-5.08577 -2.2772 1.52671 
-5.22057 -2.25869 1.36761 
-5.32153 -2.25659 1.40302 
-5.45766 -2.23231 1.16908 
-5.56366 -2.22359 1.12063 
-5.6862 -2.2272 1.24455 
-5.79762 -2.21004 1.08863 
-5.93816 -2.18883 0.897732 
-6.02928 -2.19799 1.07488 
-6.16899 -2.1788 0.910048 
-6.26768 -2.17596 0.934291 
-6.39956 -2.17094 0.950699 
-6.49656 -2.17544 1.0703 
-6.63676 -2.15275 0.859726 
-6.72915 -2.16354 1.05928 
-6.86677 -2.14447 0.894571 
-6.96026 -2.15252 1.05876 
-7.09557 -2.13986 0.977007 
-7.19898 -2.13572 0.987147 
-7.33194 -2.12762 0.963715 
-7.43484 -2.12039 0.933053 
-7.56604 -2.11232 0.908937 
-7.67023 -2.10377 0.861738 
-7.79639 -2.10311 0.931854 
-7.89954 -2.10117 0.97084 
-8.02615 -2.09595 0.981394 
5.89733 -2.19559 -5.86166 
5.6518 -2.19722 -5.68846 
5.50889 -2.19231 -5.66436 
5.38222 -2.21114 -5.33965 
5.23258 -2.23864 -4.88752 
5.13724 -2.20945 -5.21023 
4.87453 -2.23591 -4.70172 
4.74187 -2.21721 -4.86417 
4.60731 -2.28781 -3.85765 
4.48394 -2.25261 -4.24163 
4.38084 -2.22867 -4.49086 
4.24048 -2.24546 -4.18443 
4.12383 -2.2641 -3.86845 
3.97609 -2.28259 -3.53508 
3.86725 -2.28887 -3.38565 
3.74579 -2.25049 -3.81238 
3.6251 -2.27439 -3.42511 
3.48071 -2.29121 -3.11567 
3.3595 -2.31779 -2.69296 
3.23093 -2.30351 -2.80008 
3.11763 -2.3092 -2.65555 
2.97871 -2.32351 -2.38242 
2.87741 -2.31689 -2.40619 
2.73287 -2.3474 -1.91756 
2.63022 -2.30946 -2.3502 
2.49412 -2.32386 -2.07759 
2.38561 -2.334 -1.87768 
2.25311 -2.32186 -1.95442 
2.14219 -2.33587 -1.70249 
2.01403 -2.33635 -1.61677 
1.90693 -2.32594 -1.68653 
1.77032 -2.3307 -1.53961 
1.66036 -2.35032 -1.2148 
1.53333 -2.3201 -1.53132 
1.42246 -2.33767 -1.23278 
1.29011 -2.33383 -1.20104 
1.18602 -2.32248 -1.28493 
1.05552 -2.32229 -1.20644 
0.952485 -2.31107 -1.28928 
0.814419 -2.32225 -1.05746 
0.713571 -2.30547 -1.21441 
0.583089 -2.31786 -0.971504 
0.478437 -2.30399 -1.08801 
0.347708 -2.29455 -1.13041 
0.240161 -2.30729 -0.896963 
0.10857 -2.29488 -0.977701 
-0.00204543 -2.29663 -0.886204 
-0.126625 -2.29567 -0.821472 
-0.227931 -2.30198 -0.676142 
-0.36328 -2.27549 -0.938567 
-0.472283 -2.27382 -0.892819 
-0.593693 -2.27496 -0.802619 
-0.702448 -2.29078 -0.528176 
-0.826598 -2.29967 -0.334827 
-0.938365 -2.23626 -1.09487 
-1.07241 -2.24372 -0.914044 
-1.16898 -2.26028 -0.637536 
-1.30317 -2.24388 -0.768695 
-1.41034 -2.23321 -0.84179 
-1.54145 -2.22748 -0.835347 
-1.6495 -2.2029 -1.08985 
-1.78017 -2.2071 -0.953765 
-1.88828 -2.17481 -1.30903 
-2.01971 -2.17068 -1.28137 
-2.12427 -2.17433 -1.16875 
-2.25008 -2.18182 -0.992598 
-2.47622 -2.20561 -0.54095 
-3.01131 -2.30356 1.07279 
-3.1215 -2.33916 1.60698 
-3.22646 -2.34997 1.81368 
-3.34711 -2.34316 1.79953 
-3.57889 -2.34338 1.94659 
-3.68808 -2.31945 1.70134 
-3.8226 -2.30793 1.63432 
-3.92173 -2.29616 1.54191 
-4.05618 -2.29004 1.54548 
-4.141 -2.32024 1.99326 
-4.28611 -2.27807 1.53178 
-4.37903 -2.29527 1.81462 
-4.51093 -2.27638 1.64959 
-4.61351 -2.27902 1.74782 
-4.74495 -2.25973 1.57721 
-4.86693 -2.22487 1.1971 
-4.97395 -2.25129 1.60934 
-5.08605 -2.23398 1.45258 
-5.21606 -2.22349 1.39621 
-5.31313 -2.23249 1.57437 
-5.45057 -2.20532 1.30435 
-5.55245 -2.2019 1.32302 
-5.69449 -2.17314 1.03509 
-5.79 -2.17963 1.17949 
-5.92076 -2.17274 1.17062 
-6.02616 -2.16175 1.09245 
-6.16561 -2.14344 0.93967 
-6.25477 -2.15222 1.11005 
-6.49564 -2.13536 1.03947 
-6.62645 -2.12838 1.02953 
-6.73272 -2.11817 0.962143 
-6.86488 -2.10898 0.924129 
-6.96756 -2.10482 0.93364 
-7.10357 -2.0914 0.842698 
-7.19385 -2.10406 1.06465 
-7.33297 -2.08502 0.902172 
-7.43439 -2.08291 0.937695 
-7.56203 -2.07616 0.928813 
-7.66543 -2.06971 0.908879 
-7.79717 -2.0637 0.912293 
-7.89731 -2.06246 0.958434 
-8.02693 -2.05578 0.951829 
5.91753 -2.13409 -6.16423 
5.65232 -2.15711 -5.7009 
5.52182 -2.13615 -5.89337 
5.40624 -2.13574 -5.82745 
5.23601 -2.19131 -4.99865 
5.13486 -2.1817 -5.06144 
4.90389 -2.14237 -5.43126 
4.75205 -2.16914 -4.98887 
4.63757 -2.18169 -4.75475 
4.49024 -2.20461 -4.36531 
4.37835 -2.20908 -4.23808 
4.09906 -2.27659 -3.18642 
3.87661 -2.23451 -3.59712 
3.73532 -2.23931 -3.44736 
3.61627 -2.25373 -3.18613 
3.47907 -2.25839 -3.0406 
3.3683 -2.26342 -2.9068 
3.23075 -2.27064 -2.72779 
3.11534 -2.2848 -2.472 
2.87981 -2.26595 -2.57215 
2.74867 -2.26225 -2.53924 
2.64075 -2.25557 -2.55963 
2.49058 -2.28849 -2.03809 
2.38206 -2.30606 -1.74216 
2.25966 -2.26691 -2.17656 
2.15164 -2.28894 -1.8228 
2.01255 -2.29631 -1.64083 
1.90372 -2.2993 -1.53464 
1.76985 -2.29056 -1.56579 
1.66139 -2.29857 -1.39441 
1.53131 -2.29355 -1.37942 
1.42921 -2.2856 -1.41989 
1.29545 -2.29063 -1.27161 
1.18974 -2.28714 -1.25177 
1.05739 -2.27795 -1.28967 
0.956146 -2.27284 -1.29355 
0.81629 -2.28743 -1.01713 
0.716961 -2.26305 -1.27323 
0.583707 -2.26893 -1.11424 
0.477795 -2.27749 -0.937293 
0.349257 -2.25074 -1.20622 
0.240643 -2.27051 -0.881486 
0.110673 -2.26219 -0.909544 
0.00595929 -2.26167 -0.851441 
-0.128749 -2.24902 -0.933005 
-0.228738 -2.26157 -0.707618 
-0.360419 -2.24374 -0.85839 
-0.469479 -2.24189 -0.815028 
-0.595478 -2.23067 -0.883228 
-0.705166 -2.22826 -0.846815 
-0.828107 -2.26021 -0.354403 
-0.933339 -2.23795 -0.579371 
-1.06774 -2.21378 -0.811061 
-1.17124 -2.20141 -0.908173 
-1.30901 -2.1817 -1.07963 
-1.40141 -2.20766 -0.684193 
-1.54034 -2.18003 -0.958176 
-1.64604 -2.16842 -1.04402 
-1.77828 -2.16122 -1.05596 
-1.88764 -2.12904 -1.40749 
-2.01729 -2.12549 -1.37337 
-2.12139 -2.13375 -1.20138 
-2.2434 -2.16255 -0.750595 
-3.13113 -2.26928 1.18992 
-3.2312 -2.28775 1.49249 
-3.35194 -2.29087 1.60805 
-3.59111 -2.26682 1.44291 
-3.6872 -2.27571 1.61823 
-3.82208 -2.26612 1.57692 
-3.90869 -2.28356 1.85785 
-4.0519 -2.25985 1.63772 
-4.14752 -2.26545 1.77002 
-4.27385 -2.26207 1.80428 
-4.37676 -2.25721 1.80481 
-4.51541 -2.22844 1.51581 
-4.61375 -2.2303 1.60114 
-4.74171 -2.22516 1.61353 
-4.84816 -2.22022 1.61519 
-4.97601 -2.20972 1.55757 
-5.08053 -2.20351 1.54158 
-5.21348 -2.18632 1.40003 
-5.31703 -2.18438 1.43898 
-5.44686 -2.17275 1.36794 
-5.54799 -2.17154 1.41504 
-5.68947 -2.14385 1.14195 
-5.79251 -2.13261 1.05947 
-5.91506 -2.14171 1.2541 
-6.01501 -2.13959 1.2885 
-6.159 -2.11212 1.01983 
-6.26067 -2.11043 1.06094 
-6.39461 -2.09724 0.9722 
-6.49541 -2.09684 1.02961 
-6.62505 -2.09018 1.02321 
-6.71959 -2.09352 1.12545 
-6.86043 -2.07501 0.971697 
-6.96551 -2.06709 0.933793 
-7.08757 -2.07186 1.07165 
-7.20154 -2.05213 0.885292 
-7.32692 -2.04947 0.9285 
-7.42867 -2.04863 0.980791 
-7.56313 -2.0362 0.902314 
-7.65838 -2.04035 1.01557 
-7.7979 -2.02229 0.866822 
-7.89256 -2.02714 0.988894 
-8.02455 -2.02001 0.977886 
5.65138 -2.11618 -5.72291 
5.50038 -2.13479 -5.38866 
5.39152 -2.12521 -5.44589 
5.22433 -2.17917 -4.64311 
5.14161 -2.13249 -5.19775 
4.88423 -2.14536 -4.87245 
4.75977 -2.12049 -5.11859 
4.64978 -2.12076 -5.04738 
4.49755 -2.14683 -4.61557 
4.36884 -2.19962 -3.85153 
4.24544 -2.16742 -4.19325 
4.12702 -2.19089 -3.81601 
3.87692 -2.19836 -3.56515 
3.72791 -2.21499 -3.25771 
3.61338 -2.22415 -3.06829 
3.48279 -2.22264 -3.00755 
3.37208 -2.21954 -2.97951 
3.23205 -2.23531 -2.68874 
3.1236 -2.22991 -2.69201 
2.87832 -2.23395 -2.48852 
2.74957 -2.21933 -2.59896 
2.64067 -2.22251 -2.49063 
2.48258 -2.27879 -1.66314 
2.38936 -2.25715 -1.88636 
2.25234 -2.25096 -1.88227 
2.1449 -2.26134 -1.68146 
2.0164 -2.2466 -1.79348 
1.9063 -2.24915 -1.69262 
1.77118 -2.25091 -1.58652 
1.6626 -2.2604 -1.39641 
1.53377 -2.24549 -1.51043 
1.42574 -2.25736 -1.28995 
1.29577 -2.25709 -1.21322 
1.18931 -2.25816 -1.13372 
1.05734 -2.23867 -1.30528 
0.955211 -2.24067 -1.21635 
0.819435 -2.24098 -1.12866 
0.718412 -2.23535 -1.13944 
0.585666 -2.22714 -1.16405 
0.4819 -2.22842 -1.08345 
0.345261 -2.22718 -1.01533 
0.238261 -2.22859 -0.930986 
0.111804 -2.22182 -0.940811 
0.0105671 -2.22692 -0.812234 
-0.127116 -2.20392 -1.02574 
-0.228883 -2.218 -0.78029 
-0.359153 -2.20154 -0.913454 
-0.466445 -2.20503 -0.802002 
-0.595658 -2.2015 -0.768051 
-0.700903 -2.2056 -0.649972 
-0.82626 -2.21094 -0.503224 
-0.932778 -2.20255 -0.546376 
-1.06548 -2.18432 -0.701006 
-1.16995 -2.16004 -0.951572 
-1.30595 -2.16004 -0.867599 
-1.39988 -2.16485 -0.747282 
-1.54234 -2.13309 -1.07146 
-1.64334 -2.14381 -0.870034 
-1.77537 -2.12669 -1.01055 
-1.88487 -2.1012 -1.27376 
-2.01138 -2.10013 -1.2095 
-2.11738 -2.09275 -1.23976 
-2.24402 -2.12216 -0.779948 
-3.00899 -2.22333 1.00529 
-3.11815 -2.24558 1.36145 
-3.22473 -2.27004 1.74465 
-3.34981 -2.25877 1.6757 
-3.56783 -2.28588 2.16217 
-3.68564 -2.23716 1.60286 
-3.81148 -2.24647 1.80145 
-3.91023 -2.2433 1.8214 
-4.04009 -2.24418 1.91309 
-4.14563 -2.2287 1.77745 
-4.27181 -2.22845 1.85219 
-4.37309 -2.22392 1.85605 
-4.50369 -2.21544 1.82678 
-4.60341 -2.21093 1.82985 
-4.73682 -2.1985 1.75106 
-4.8469 -2.18138 1.59699 
-4.9674 -2.18626 1.73482 
-5.07491 -2.17901 1.70729 
-5.19633 -2.17487 1.72862 
-5.31038 -2.15579 1.55159 
-5.44529 -2.13131 1.31737 
-5.54752 -2.12791 1.33648 
-5.67926 -2.11734 1.28082 
-5.77988 -2.11115 1.26279 
-5.91256 -2.10355 1.24617 
-6.0206 -2.08956 1.13151 
-6.15518 -2.07779 1.06198 
-6.2531 -2.07933 1.14264 
-6.39452 -2.05638 0.932285 
-6.4966 -2.05285 0.949719 
-6.62687 -2.04674 0.950955 
-6.7268 -2.04521 0.993083 
-6.84937 -2.04876 1.115 
-6.96097 -2.03477 1.00244 
-7.09444 -2.02139 0.911429 
-7.19328 -2.02446 1.01255 
-7.32641 -2.01219 0.935687 
-7.42631 -2.0128 1.00554 
-7.56405 -1.99587 0.871022 
-7.65623 -2.00247 1.01376 
-7.79073 -1.99121 0.95095 
-7.89357 -1.98705 0.960649 
-8.02621 -1.97812 0.926976 
-8.12057 -1.98334 1.05309 
5.93933 -2.03564 -6.43347 
5.67876 -2.04233 -6.1873 
5.38304 -2.11038 -5.12687 
5.25475 -2.08805 -5.33665 
5.138 -2.10173 -5.08828 
4.89167 -2.0988 -4.97502 
4.74648 -2.11148 -4.72215 
4.64212 -2.09917 -4.81714 
4.50809 -2.07918 -4.99318 
4.37278 -2.15456 -3.9363 
3.98013 -2.16747 -3.52852 
3.87181 -2.17271 -3.39427 
3.75214 -2.13908 -3.75533 
3.61729 -2.18758 -3.04595 
3.49334 -2.16629 -3.24493 
3.36778 -2.18974 -2.86488 
3.23371 -2.2039 -2.59957 
3.11476 -2.21528 -2.37949 
2.98064 -2.22197 -2.21075 
2.8875 -2.18013 -2.6941 
2.74644 -2.18979 -2.48268 
2.63353 -2.20366 -2.23415 
2.48973 -2.23361 -1.75884 
2.39536 -2.20318 -2.09401 
2.26199 -2.19356 -2.13639 
2.13772 -2.25002 -1.33052 
2.01844 -2.20701 -1.81293 
1.90741 -2.21912 -1.58827 
1.77159 -2.21686 -1.53402 
1.67371 -2.19951 -1.69802 
1.5405 -2.19878 -1.62567 
1.42688 -2.21394 -1.35997 
1.3001 -2.20255 -1.42915 
1.19205 -2.21825 -1.15984 
1.05674 -2.2184 -1.07476 
0.957444 -2.20318 -1.21043 
0.824144 -2.20509 -1.10378 
0.719138 -2.19159 -1.21365 
0.582317 -2.18615 -1.19981 
0.484206 -2.18955 -1.09551 
0.340618 -2.18758 -1.03275 
0.240427 -2.18615 -0.989552 
0.110686 -2.19118 -0.844774 
0.00724681 -2.18709 -0.834002 
-0.122369 -2.17654 -0.890616 
-0.229495 -2.1766 -0.824014 
-0.356877 -2.16672 -0.873254 
-0.460817 -2.14961 -1.03046 
-0.596894 -2.16282 -0.775986 
-0.694593 -2.16973 -0.626612 
-0.930658 -2.16057 -0.599753 
-1.06777 -2.14228 -0.751648 
-1.16836 -2.12777 -0.877329 
-1.3036 -2.11495 -0.959748 
-1.4004 -2.13927 -0.585884 
-1.53724 -2.10424 -0.954299 
-1.64434 -2.09029 -1.06864 
-1.88103 -2.07521 -1.11783 
-2.00948 -2.07099 -1.09323 
-2.10439 -2.10793 -0.557434 
-2.89623 -2.20772 1.21984 
-3.01129 -2.17687 0.892052 
-3.12562 -2.2032 1.30268 
-3.22654 -2.21402 1.50473 
-3.34304 -2.22417 1.70766 
-3.58551 -2.19974 1.54146 
-3.67364 -2.22615 1.93706 
-3.81826 -2.18768 1.52899 
-3.91031 -2.20499 1.80942 
-4.04044 -2.204 1.87687 
-4.14049 -2.19611 1.83656 
-4.26416 -2.20399 2.01462 
-4.37208 -2.18337 1.81465 
-4.50445 -2.17145 1.74229 
-4.60802 -2.16367 1.70563 
-4.73428 -2.16171 1.7581 
-4.8404 -2.14818 1.64869 
-4.97135 -2.13678 1.58209 
-5.07747 -2.13104 1.57339 
-5.19755 -2.13631 1.71555 
-5.3109 -2.11344 1.48983 
-5.44663 -2.09553 1.34209 
-5.54525 -2.09268 1.36608 
-5.67229 -2.08643 1.3637 
-5.79094 -2.05974 1.09189 
-5.92044 -2.05386 1.0959 
-6.01459 -2.06196 1.25865 
-6.15012 -2.04649 1.14234 
-6.25628 -2.03593 1.07133 
-6.38964 -2.02423 1.00246 
-6.48249 -2.03374 1.1826 
-6.61701 -2.01963 1.08323 
-6.73354 -1.99581 0.847358 
-6.85723 -2.00078 0.987857 
-6.96009 -1.99337 0.955608 
-7.08419 -1.99596 1.06579 
-7.19273 -1.98408 0.979132 
-7.32283 -1.97685 0.966011 
-7.42353 -1.97651 1.02385 
-7.56019 -1.96132 0.911846 
-7.65257 -1.96772 1.0516 
-7.78255 -1.96242 1.06348 
-7.88646 -1.95487 1.03003 
-8.01256 -1.95348 1.0899 
5.63946 -2.06839 -5.32171 
5.48743 -2.07879 -5.09492 
5.4065 -2.04181 -5.52127 
5.26428 -2.03533 -5.51765 
5.166 -2.02415 -5.60143 
4.91267 -2.02272 -5.4648 
4.75191 -2.06472 -4.82609 
4.51112 -2.04078 -4.98675 
4.38503 -2.08168 -4.3834 
4.2438 -2.11069 -3.92371 
3.9973 -2.09524 -3.97169 
3.87589 -2.13352 -3.40476 
3.74849 -2.10929 -3.6386 
3.63604 -2.11706 -3.46976 
3.49669 -2.12166 -3.32517 
3.36956 -2.15156 -2.86263 
3.23474 -2.16749 -2.57512 
3.1243 -2.15641 -2.65013 
2.87697 -2.17403 -2.27191 
2.74351 -2.17118 -2.22688 
2.64448 -2.13575 -2.62213 
2.50038 -2.1714 -2.0751 
2.3913 -2.16999 -2.02635 
2.24912 -2.19521 -1.61476 
2.15371 -2.17841 -1.77255 
1.90969 -2.17583 -1.65616 
1.78041 -2.16625 -1.70022 
1.67446 -2.17505 -1.52206 
1.54396 -2.16213 -1.60846 
1.43134 -2.17944 -1.31665 
1.29741 -2.18261 -1.1937 
1.19579 -2.16477 -1.36107 
0.958092 -2.16664 -1.19123 
0.825671 -2.16997 -1.06718 
0.718626 -2.16175 -1.10745 
0.588594 -2.15375 -1.1306 
0.482553 -2.15569 -1.04066 
0.349338 -2.14183 -1.13736 
0.242981 -2.14911 -0.978408 
0.110484 -2.1476 -0.916555 
0.0131628 -2.13095 -1.07114 
-0.122167 -2.13787 -0.899106 
-0.224282 -2.11922 -1.07654 
-0.356009 -2.12689 -0.896942 
-0.458979 -2.11909 -0.934185 
-0.586361 -2.1296 -0.720775 
-0.699106 -2.11691 -0.814998 
-0.934883 -2.10931 -0.768151 
-1.06431 -2.1018 -0.785369 
-1.16344 -2.08697 -0.915347 
-1.30238 -2.06898 -1.06168 
-1.39666 -2.10736 -0.509827 
-1.53304 -2.07295 -0.869041 
-1.64336 -2.05472 -1.03593 
-1.87805 -2.03789 -1.10845 
-2.00917 -2.03973 -1.00422 
-2.99526 -2.18907 1.5235 
-3.12613 -2.15742 1.19651 
-3.2267 -2.16385 1.34113 
-3.347 -2.18421 1.67713 
-3.44623 -2.19249 1.84462 
-3.669 -2.19923 2.06823 
-3.80292 -2.1844 1.9597 
-3.90553 -2.17271 1.8723 
-4.04113 -2.15768 1.76222 
-4.1283 -2.18561 2.17534 
-4.26545 -2.16311 1.97 
-4.36704 -2.15507 1.92897 
-4.59929 -2.14187 1.90185 
-4.73391 -2.12129 1.71973 
-4.84316 -2.10459 1.57193 
-4.97232 -2.09546 1.53387 
-5.07575 -2.09157 1.54733 
-5.19791 -2.09117 1.61733 
-5.30632 -2.07957 1.53473 
-5.43578 -2.06712 1.45409 
-5.5417 -2.05878 1.41187 
-5.66884 -2.05253 1.40958 
-5.78139 -2.03413 1.24198 
-5.91321 -2.02696 1.23081 
-6.01621 -2.01829 1.18253 
