ply
format ascii 1.0
element vertex 1752
property float x
property float y
property float z
end_header
-8.08085 -3.97456 -0.443164 
-8.21947 -3.96278 -0.536799 
-8.36198 -3.92912 -0.992822 
5.5971 -4.16276 -6.78886 
5.40566 -4.21682 -5.75054 
5.34353 -4.16442 -6.57452 
5.16185 -4.20763 -5.7236 
5.04876 -4.20854 -5.62513 
4.89419 -4.23618 -5.05252 
4.81402 -4.18738 -5.8035 
4.65093 -4.21883 -5.16129 
4.53975 -4.21917 -5.07376 
4.38787 -4.24876 -4.47063 
4.30597 -4.18657 -5.44283 
4.11541 -4.2903 -3.58031 
4.04353 -4.2184 -4.72101 
3.88661 -4.26126 -3.89377 
3.78409 -4.24524 -4.08426 
3.61013 -4.30359 -2.98733 
3.53593 -4.25525 -3.73517 
3.37815 -4.28268 -3.16338 
3.27053 -4.28057 -3.11906 
3.12663 -4.29347 -2.79888 
3.02699 -4.27384 -3.05137 
2.77178 -4.29569 -2.50039 
2.62941 -4.32623 -1.88833 
2.53122 -4.29885 -2.27046 
2.38561 -4.32362 -1.7518 
2.27825 -4.32584 -1.63576 
2.13283 -4.34764 -1.16663 
2.02496 -4.35886 -0.900671 
1.89696 -4.33073 -1.27339 
1.80138 -4.31573 -1.45192 
1.65441 -4.35181 -0.744392 
1.55427 -4.35669 -0.589451 
1.41888 -4.35704 -0.483682 
1.31469 -4.35913 -0.372225 
1.18196 -4.39612 0.339958 
1.07572 -4.39229 0.354782 
0.938663 -4.43696 1.19768 
0.840727 -4.41627 0.926415 
0.706896 -4.40667 0.865788 
0.605802 -4.40725 0.950159 
0.475684 -4.40239 0.965512 
0.373278 -4.39804 0.968914 
0.243553 -4.42001 1.4295 
0.139102 -4.40757 1.29997 
0.0152733 -4.42859 1.74047 
-0.0915085 -4.41026 1.51505 
-0.216778 -4.40927 1.59106 
-0.322422 -4.40592 1.61344 
-0.44872 -4.40215 1.64419 
-0.545735 -4.41341 1.90287 
-0.67933 -4.41471 2.02308 
-0.780986 -4.40754 1.9791 
-0.909815 -4.42106 2.29888 
-1.01106 -4.40237 2.06323 
-1.13838 -4.40389 2.18267 
-1.24138 -4.3992 2.18085 
-1.36548 -4.39884 2.26664 
-1.46788 -4.39786 2.32598 
-1.58837 -4.40174 2.47949 
-1.69592 -4.39813 2.49898 
-1.81909 -4.39082 2.46871 
-1.92627 -4.37591 2.30038 
-2.05065 -4.37778 2.42331 
-2.15324 -4.36684 2.31755 
-2.28417 -4.35677 2.24705 
-2.38043 -4.35835 2.34453 
-2.51102 -4.35261 2.34585 
-2.61591 -4.34136 2.23652 
-2.96502 -4.33424 2.37651 
-3.07598 -4.31522 2.14262 
-3.20729 -4.29773 1.94934 
-3.30527 -4.30362 2.11973 
-3.43609 -4.28983 1.98747 
-3.54865 -4.26964 1.73537 
-4.69276 -4.07115 -0.714451 
-4.94003 -4.04659 -0.939361 
-5.05235 -4.02219 -1.26134 
-5.18342 -4.02594 -1.10202 
-5.29105 -4.01834 -1.14859 
-5.42857 -4.00496 -1.26907 
-5.5264 -4.00943 -1.12229 
-5.62983 -4.03398 -0.638024 
-5.75872 -4.00416 -1.03782 
-5.87576 -4.01693 -0.739078 
-5.98727 -4.00293 -0.888977 
-6.1212 -3.99382 -0.941092 
-6.22819 -3.98642 -0.98483 
-6.36693 -3.9738 -1.09169 
-6.47043 -3.96913 -1.09249 
-6.70062 -3.96679 -0.960836 
-6.8065 -3.98532 -0.574593 
-6.93254 -3.96017 -0.898941 
-7.06261 -3.9567 -0.860232 
-7.17328 -3.94851 -0.914158 
-7.2824 -3.96148 -0.617797 
-7.39114 -3.95393 -0.662678 
-7.62495 -3.94229 -0.682692 
-7.75046 -3.94346 -0.570209 
-7.83439 -3.95609 -0.29822 
-7.97905 -3.93724 -0.504021 
-8.09003 -3.92828 -0.570593 
-8.23388 -3.90978 -0.771317 
-8.34034 -3.90606 -0.754077 
5.82506 -4.15324 -6.46234 
5.58312 -4.13893 -6.52142 
5.43253 -4.15157 -6.2021 
5.33267 -4.13808 -6.35169 
5.15831 -4.1755 -5.60593 
5.06042 -4.1529 -5.90734 
4.90726 -4.18129 -5.32605 
4.81457 -4.14932 -5.78612 
4.6463 -4.18866 -5.01296 
4.54816 -4.17149 -5.22442 
4.41929 -4.1583 -5.3478 
4.28394 -4.19254 -4.68294 
4.13283 -4.23053 -3.94459 
4.04403 -4.18359 -4.65468 
3.79044 -4.19569 -4.26867 
3.62034 -4.25214 -3.21136 
3.38194 -4.24146 -3.21282 
3.27477 -4.24368 -3.09749 
3.13518 -4.24237 -3.01653 
3.03122 -4.2339 -3.08014 
2.86082 -4.30915 -1.71198 
2.76248 -4.28278 -2.07531 
2.61749 -4.31208 -1.48496 
2.52459 -4.27879 -1.96641 
2.3813 -4.29639 -1.57052 
2.28527 -4.28134 -1.74858 
2.13243 -4.32744 -0.874707 
2.04066 -4.28856 -1.4495 
1.9006 -4.29562 -1.22996 
1.80443 -4.26649 -1.64043 
1.65841 -4.30218 -0.94358 
1.31768 -4.30825 -0.592988 
1.18303 -4.35798 0.32751 
1.08101 -4.35056 0.279909 
0.941606 -4.38758 0.993933 
0.843038 -4.36852 0.75165 
0.708965 -4.37595 0.972961 
0.612264 -4.36344 0.837414 
0.479262 -4.35224 0.750181 
0.376095 -4.35987 0.952153 
0.243852 -4.39129 1.56845 
0.142035 -4.36496 1.20835 
0.0162558 -4.39749 1.83826 
-0.0893515 -4.36917 1.44818 
-0.215054 -4.38454 1.79456 
-0.317331 -4.36243 1.50451 
-0.446053 -4.37306 1.77489 
-0.544609 -4.37428 1.86756 
-0.676676 -4.37146 1.91805 
-0.777152 -4.36443 1.87599 
-0.906703 -4.38154 2.25388 
-1.00896 -4.36637 2.07858 
-1.13706 -4.37334 2.28802 
-1.23602 -4.36176 2.16957 
-1.36434 -4.35327 2.12376 
-1.46998 -4.34991 2.14606 
-1.58714 -4.36362 2.4589 
-1.69469 -4.3525 2.35438 
-1.81945 -4.34943 2.39546 
-1.92124 -4.34853 2.4556 
-2.05105 -4.33639 2.35053 
-2.1504 -4.33392 2.38295 
-2.28392 -4.3164 2.19193 
-2.37823 -4.32436 2.39277 
-2.51579 -4.3084 2.23053 
-2.61353 -4.30768 2.29054 
-2.84449 -4.29273 2.21377 
-3.0715 -4.28511 2.25511 
-3.20572 -4.25982 1.93613 
-3.30446 -4.26422 2.08166 
-3.43357 -4.25067 1.95285 
-3.54398 -4.23759 1.81816 
-4.69678 -4.02764 -0.800967 
-4.94685 -3.99145 -1.21453 
-5.05295 -3.98575 -1.2305 
-5.18208 -3.98608 -1.12982 
-5.28832 -3.98162 -1.12504 
-5.39744 -4.00348 -0.683458 
-5.53071 -3.9632 -1.25067 
-5.6353 -3.99003 -0.730297 
-5.76374 -3.9554 -1.20766 
-5.87442 -3.97847 -0.744748 
-6.00374 -3.94447 -1.21132 
-6.1184 -3.95832 -0.897792 
-6.2269 -3.9485 -0.980032 
-6.33991 -3.96151 -0.681608 
-6.45711 -3.94214 -0.915151 
-6.57673 -3.95375 -0.635057 
-6.70048 -3.92817 -0.966401 
-6.80569 -3.94631 -0.589076 
-6.93676 -3.91677 -0.980325 
-7.05691 -3.92222 -0.801683 
-7.16357 -3.9167 -0.814145 
-7.29671 -3.90753 -0.867378 
-7.39486 -3.91081 -0.740645 
-7.61398 -3.9123 -0.554264 
-7.72796 -3.92398 -0.277143 
-7.83823 -3.91391 -0.361954 
-7.97047 -3.90571 -0.399908 
-8.09318 -3.88674 -0.622733 
-8.2197 -3.88335 -0.585284 
-8.35421 -3.85453 -0.962329 
5.84496 -4.09739 -6.74899 
5.60215 -4.08029 -6.85263 
5.40523 -4.14842 -5.58936 
5.36952 -4.06068 -7.00495 
5.17367 -4.12075 -5.87489 
5.09624 -4.07226 -6.61496 
4.81083 -4.11777 -5.65859 
4.6282 -4.18505 -4.41973 
4.57323 -4.0994 -5.78691 
4.39943 -4.15318 -4.77612 
4.29944 -4.12625 -5.14556 
4.12503 -4.20886 -3.66055 
3.88221 -4.19748 -3.67005 
3.767 -4.20759 -3.41973 
3.62315 -4.21213 -3.23989 
3.54607 -4.17163 -3.84906 
3.3901 -4.19631 -3.32939 
3.29007 -4.17899 -3.5408 
3.13593 -4.20925 -2.93082 
3.04111 -4.18439 -3.26988 
2.61987 -4.26963 -1.56106 
2.52247 -4.24768 -1.85035 
2.39025 -4.24891 -1.73344 
2.29067 -4.23095 -1.95563 
2.13312 -4.28884 -0.88909 
2.04302 -4.25368 -1.40095 
1.80171 -4.24428 -1.37871 
1.65768 -4.28238 -0.647238 
1.56321 -4.24428 -1.2041 
1.4219 -4.28984 -0.35198 
1.3208 -4.29421 -0.2061 
1.18117 -4.32322 0.372853 
1.0843 -4.31411 0.294133 
0.943129 -4.3465 0.929841 
0.843607 -4.32871 0.710443 
0.712339 -4.33678 0.939162 
0.610303 -4.3273 0.858095 
0.480343 -4.32441 0.905852 
0.377244 -4.33205 1.10696 
0.247193 -4.34491 1.41363 
0.142472 -4.32144 1.10457 
0.01858 -4.3537 1.72555 
-0.0880399 -4.33015 1.4167 
-0.216902 -4.34363 1.73271 
-0.315689 -4.33372 1.64214 
-0.444616 -4.32653 1.61853 
-0.548821 -4.32595 1.68544 
-0.673246 -4.35242 2.21167 
-0.777099 -4.33413 1.98717 
-0.904778 -4.34384 2.24042 
-1.00894 -4.32934 2.07841 
-1.13302 -4.34449 2.41831 
-1.23765 -4.32102 2.1093 
-1.36228 -4.32052 2.19254 
-1.46701 -4.31938 2.25061 
-1.58557 -4.32486 2.42761 
-1.69604 -4.30618 2.20162 
-1.81498 -4.32191 2.54747 
-1.92085 -4.30569 2.35855 
-2.0495 -4.2986 2.33634 
-2.14932 -4.29672 2.37865 
-2.28027 -4.2844 2.27233 
-2.37895 -4.27926 2.26022 
-2.51059 -4.27534 2.29228 
-2.61043 -4.27253 2.31941 
-2.83938 -4.26298 2.33056 
-2.96435 -4.25104 2.22604 
-3.06738 -4.25355 2.34281 
-3.20552 -4.21995 1.89189 
-3.3073 -4.2233 2.02179 
-3.43676 -4.20487 1.81378 
-3.54059 -4.20268 1.85409 
-4.69329 -3.9905 -0.787328 
-4.941 -3.9637 -1.04597 
-5.04788 -3.95574 -1.09816 
-5.17867 -3.95385 -1.03329 
-5.29359 -3.93345 -1.28422 
-5.41025 -3.94542 -1.00158 
-5.512 -3.94728 -0.89625 
-5.63015 -3.95679 -0.65309 
-5.75313 -3.92703 -1.05209 
-5.8711 -3.94016 -0.74955 
-5.98933 -3.9201 -0.992395 
-6.11842 -3.91801 -0.931831 
-6.22856 -3.90746 -1.02437 
-6.35034 -3.91142 -0.86972 
-6.4649 -3.89531 -1.05039 
-6.57537 -3.91429 -0.657085 
-6.68272 -3.90326 -0.759449 
-6.81702 -3.89332 -0.824132 
-6.93115 -3.88318 -0.906974 
-7.05532 -3.88414 -0.799782 
-7.17215 -3.87125 -0.925865 
-7.28815 -3.87621 -0.759 
-7.41413 -3.8538 -1.03487 
-7.73294 -3.88104 -0.352439 
-7.84272 -3.8694 -0.462991 
-7.97751 -3.86042 -0.511406 
-8.08518 -3.85392 -0.539164 
-8.34844 -3.82104 -0.886066 
5.86103 -4.04547 -6.96562 
5.61089 -4.03942 -6.88249 
5.43465 -4.07629 -6.15161 
5.3466 -4.04898 -6.53399 
5.18005 -4.07414 -6.00141 
5.07312 -4.06329 -6.10102 
4.89832 -4.11719 -5.09262 
4.82026 -4.07185 -5.777 
4.62767 -4.15046 -4.35173 
4.55829 -4.08542 -5.36443 
4.43273 -4.06289 -5.64124 
4.3008 -4.08918 -5.11547 
4.16449 -4.09578 -4.90831 
4.0572 -4.08799 -4.95745 
3.86997 -4.17727 -3.36164 
3.80444 -4.10246 -4.53688 
3.62425 -4.17257 -3.25933 
3.54574 -4.13102 -3.88148 
3.40196 -4.14245 -3.5898 
3.28069 -4.15551 -3.28791 
3.15118 -4.15263 -3.24065 
3.04772 -4.13571 -3.44182 
2.79573 -4.15282 -2.97852 
2.62126 -4.231 -1.57321 
2.53174 -4.19414 -2.11059 
2.39377 -4.20559 -1.82271 
2.29306 -4.19012 -2.00227 
2.13493 -4.24807 -0.939484 
2.03906 -4.22172 -1.30033 
1.9101 -4.21872 -1.2553 
1.80291 -4.21075 -1.30748 
1.65983 -4.25857 -0.421327 
1.5644 -4.21042 -1.13896 
1.42664 -4.22689 -0.76914 
1.32348 -4.24509 -0.3963 
1.18551 -4.28335 0.329777 
1.085 -4.27282 0.230995 
0.942093 -4.32522 1.19202 
0.847161 -4.28477 0.599921 
0.713914 -4.27932 0.608005 
0.61354 -4.28698 0.80657 
0.480942 -4.28879 0.93293 
0.38143 -4.27839 0.835445 
0.248276 -4.30968 1.44422 
0.143919 -4.30281 1.4081 
0.0192005 -4.31687 1.7291 
-0.0864237 -4.29614 1.4673 
-0.214605 -4.31027 1.79185 
-0.313488 -4.29451 1.60641 
-0.444921 -4.29788 1.75741 
-0.547235 -4.29569 1.79635 
-0.67366 -4.28842 1.7697 
-0.775132 -4.29014 1.87206 
-0.902738 -4.31315 2.34151 
-1.00848 -4.28768 2.00229 
-1.13188 -4.29621 2.23181 
-1.23473 -4.29503 2.28775 
-1.36052 -4.28117 2.15284 
-1.46379 -4.28331 2.26334 
-1.58237 -4.29423 2.52859 
-1.69435 -4.27346 2.27078 
-1.81023 -4.28925 2.61371 
-1.91944 -4.26686 2.32736 
-2.04668 -4.26737 2.4287 
-2.14564 -4.26578 2.47499 
-2.2763 -4.24876 2.29222 
-2.37847 -4.24194 2.25532 
-2.50447 -4.23987 2.31358 
-2.60957 -4.23741 2.35009 
-2.96525 -4.21641 2.26685 
-3.06938 -4.20755 2.19807 
-3.20475 -4.18561 1.9382 
-3.30544 -4.1908 2.09665 
-3.43305 -4.17367 1.90986 
-3.54022 -4.15997 1.76428 
-4.69255 -3.95053 -0.818119 
-4.94647 -3.91647 -1.18934 
-5.05313 -3.90594 -1.28352 
-5.17772 -3.91352 -1.06835 
-5.2908 -3.89669 -1.26075 
-5.39888 -3.92113 -0.781922 
-5.4989 -3.92159 -0.701187 
-5.63991 -3.90424 -0.881861 
-5.74546 -3.89604 -0.93865 
-5.86575 -3.90399 -0.72047 
-5.99251 -3.87472 -1.10656 
-6.12768 -3.86474 -1.17073 
-6.24386 -3.8468 -1.37915 
-6.34957 -3.87211 -0.887779 
-6.45362 -3.8661 -0.909858 
-6.56152 -3.88827 -0.468244 
-6.67949 -3.86824 -0.709381 
-6.81216 -3.85943 -0.756355 
-6.93588 -3.8397 -0.988331 
-7.04348 -3.85418 -0.672659 
-7.17308 -3.83163 -0.946641 
-7.28469 -3.83858 -0.751186 
-7.42132 -3.80661 -1.17401 
-7.63132 -3.82062 -0.79105 
-7.70836 -3.86303 -0.0407805 
-7.84252 -3.83091 -0.46786 
-7.98764 -3.81219 -0.667736 
-8.07748 -3.81994 -0.47505 
-8.23148 -3.79446 -0.779089 
-8.35115 -3.77921 -0.940842 
5.85426 -4.01502 -6.81423 
5.60742 -4.00558 -6.78898 
5.44875 -4.02264 -6.39649 
5.35516 -4.00081 -6.6836 
5.08758 -4.01341 -6.2847 
4.89743 -4.07755 -5.10371 
4.65334 -4.06835 -5.07627 
4.5585 -4.04764 -5.34436 
4.40303 -4.07591 -4.77166 
4.30939 -4.04988 -5.1271 
4.15424 -4.08433 -4.4542 
4.03979 -4.08988 -4.28093 
3.81444 -4.04615 -4.82864 
3.63516 -4.11975 -3.5015 
3.53011 -4.11957 -3.42818 
3.39254 -4.11914 -3.33521 
3.30727 -4.07867 -3.93157 
3.14787 -4.12209 -3.10961 
3.05567 -4.08813 -3.59511 
2.88105 -4.16623 -2.19799 
2.78336 -4.14169 -2.52613 
2.63612 -4.16578 -2.02742 
2.51285 -4.20437 -1.31019 
2.4001 -4.15455 -2.03875 
2.3015 -4.1354 -2.27849 
2.13293 -4.21991 -0.781529 
2.04427 -4.17328 -1.4755 
1.90837 -4.1828 -1.22196 
1.81603 -4.14621 -1.75006 
1.66052 -4.22906 -0.289396 
1.56926 -4.16847 -1.20864 
1.42838 -4.18326 -0.865804 
1.32137 -4.19984 -0.518339 
1.18598 -4.24969 0.391015 
0.9475 -4.26824 0.866125 
0.84894 -4.26012 0.805614 
0.716009 -4.26358 0.958564 
0.611062 -4.25309 0.864211 
0.482683 -4.25636 1.0108 
0.38144 -4.25051 0.989157 
0.25009 -4.27477 1.47938 
0.143454 -4.25959 1.30994 
0.0214488 -4.28516 1.81473 
-0.08481 -4.25307 1.36987 
-0.212034 -4.27258 1.77981 
-0.312175 -4.26478 1.72585 
-0.442388 -4.25767 1.70487 
-0.54196 -4.25501 1.73404 
-0.672293 -4.27204 2.10579 
-0.770732 -4.24952 1.81119 
-0.904478 -4.27247 2.28173 
-1.00132 -4.25276 2.03167 
-1.13027 -4.26433 2.31366 
-1.22989 -4.25415 2.22061 
-1.35709 -4.26242 2.44771 
-1.46294 -4.24587 2.25549 
-1.58056 -4.2655 2.66038 
-1.69319 -4.24137 2.34989 
-1.80963 -4.24726 2.53046 
-1.91753 -4.2316 2.35423 
-2.04445 -4.22728 2.37628 
-2.1432 -4.22158 2.35546 
-2.27501 -4.2084 2.23702 
-2.37318 -4.21265 2.37761 
-2.50478 -4.20432 2.3379 
-2.60151 -4.21345 2.55698 
-2.96318 -4.18958 2.43203 
-3.07422 -4.16562 2.12298 
-3.19491 -4.16134 2.14137 
-3.30715 -4.14507 1.95832 
-3.42846 -4.13897 1.94739 
-3.53611 -4.12376 1.77839 
-4.69465 -3.90821 -0.884657 
-4.93867 -3.88514 -1.0822 
-5.04138 -3.88604 -0.99259 
-5.18018 -3.87119 -1.13311 
-5.28718 -3.86196 -1.20528 
-5.40191 -3.87842 -0.853744 
-5.51154 -3.86762 -0.949571 
-5.62866 -3.88026 -0.658492 
-5.75925 -3.84083 -1.20481 
-5.86428 -3.86861 -0.676194 
-5.98463 -3.84346 -0.99764 
-6.1224 -3.83295 -1.06829 
-6.2313 -3.82141 -1.17664 
-6.35554 -3.82593 -1.01244 
-6.45893 -3.82099 -1.01736 
-6.56421 -3.8447 -0.554761 
-6.69579 -3.81381 -0.961369 
-6.82261 -3.81159 -0.904929 
-6.90821 -3.82464 -0.63008 
-7.05863 -3.80056 -0.91231 
-7.17327 -3.78924 -1.01275 
-7.28153 -3.80126 -0.738192 
-7.40744 -3.78096 -0.976557 
-7.61421 -3.79589 -0.582714 
-7.71839 -3.81178 -0.247969 
-7.84025 -3.79313 -0.46266 
-7.97178 -3.78597 -0.483107 
-8.07527 -3.78212 -0.470154 
-8.21784 -3.76621 -0.625001 
-8.34998 -3.74116 -0.936158 
5.85511 -3.97507 -6.82358 
5.57607 -4.00109 -6.20114 
5.44206 -3.99366 -6.22453 
5.35701 -3.96165 -6.68122 
5.18728 -3.99875 -5.9582 
5.07065 -4.00264 -5.81105 
4.8192 -3.99721 -5.71727 
4.67759 -3.99646 -5.62702 
4.54165 -4.03184 -4.95634 
4.43791 -3.98074 -5.70821 
4.31747 -3.99686 -5.36037 
4.1505 -4.06021 -4.21444 
4.06546 -3.99854 -5.15096 
3.90487 -4.04774 -4.23869 
3.79766 -4.04873 -4.14526 
3.6376 -4.08355 -3.46599 
3.53866 -4.07441 -3.54239 
3.38698 -4.09339 -3.12544 
3.30405 -4.04751 -3.80796 
3.15623 -4.06629 -3.39726 
3.04117 -4.07797 -3.12497 
2.7766 -4.11839 -2.27951 
2.64195 -4.1249 -2.0767 
2.53712 -4.11939 -2.08993 
2.39666 -4.13204 -1.78368 
2.30273 -4.09252 -2.35524 
2.13668 -4.17797 -0.852175 
2.0517 -4.12306 -1.67929 
1.91383 -4.1295 -1.4754 
1.80825 -4.13184 -1.36102 
1.66513 -4.16797 -0.672749 
1.56061 -4.15524 -0.80308 
1.42886 -4.15605 -0.694614 
1.32397 -4.16007 -0.553631 
1.18827 -4.22251 0.555267 
1.08992 -4.19953 0.254441 
0.94933 -4.23315 0.900506 
0.854476 -4.20504 0.51415 
0.715588 -4.22397 0.921058 
0.613405 -4.211 0.785299 
0.48129 -4.22365 1.08571 
0.381402 -4.20304 0.824379 
0.253998 -4.2261 1.29002 
0.144818 -4.21781 1.23493 
0.0246733 -4.24906 1.82777 
-0.083039 -4.21374 1.33406 
-0.209696 -4.23404 1.7544 
-0.311291 -4.218 1.56842 
-0.440879 -4.21595 1.62909 
-0.540861 -4.22134 1.78891 
-0.674218 -4.22704 1.97774 
-0.771457 -4.21793 1.90074 
-0.897322 -4.2461 2.44796 
-1.00106 -4.22061 2.1105 
-1.13065 -4.22632 2.29695 
-1.22936 -4.21203 2.13724 
-1.35648 -4.21394 2.26035 
-1.46203 -4.20891 2.25539 
-1.57816 -4.23261 2.72319 
-1.6902 -4.1971 2.22967 
-1.80994 -4.20969 2.52032 
-1.91412 -4.19798 2.40627 
-2.03993 -4.19871 2.5094 
-2.14036 -4.18924 2.42894 
-2.27136 -4.18176 2.40284 
-2.37223 -4.17531 2.37166 
-2.49762 -4.17469 2.45259 
-2.60164 -4.1644 2.36141 
-2.96739 -4.13808 2.20067 
-3.0654 -4.13915 2.2891 
-3.19881 -4.10985 1.91165 
-3.30478 -4.1057 1.92147 
-3.43064 -4.09856 1.89715 
-3.53465 -4.09053 1.84269 
-4.68259 -3.88509 -0.64987 
-4.94178 -3.83854 -1.21526 
-5.0483 -3.83121 -1.25662 
-5.17587 -3.8353 -1.09779 
-5.28481 -3.82125 -1.24615 
-5.39802 -3.84264 -0.817626 
-5.51433 -3.82052 -1.09127 
-5.61437 -3.85326 -0.488393 
-5.76005 -3.80096 -1.22938 
-5.88003 -3.8094 -1.00561 
-5.99144 -3.79552 -1.1494 
-6.12329 -3.79172 -1.11502 
-6.21736 -3.79736 -0.955434 
-6.34245 -3.80078 -0.809182 
-6.46628 -3.77413 -1.15062 
-6.54838 -3.81929 -0.35974 
-6.69809 -3.77201 -1.01648 
-6.80843 -3.78534 -0.720422 
-6.91066 -3.77921 -0.745361 
-7.04459 -3.77422 -0.728836 
-7.17008 -3.75166 -1.00282 
-7.28024 -3.76318 -0.73626 
-7.38916 -3.75828 -0.736331 
-7.62915 -3.74297 -0.809702 
-7.72008 -3.77144 -0.282562 
-7.83879 -3.75507 -0.461343 
-7.97536 -3.74301 -0.55719 
-8.09887 -3.72394 -0.776148 
-8.22813 -3.71811 -0.77659 
-8.33547 -3.71261 -0.7875 
5.88568 -3.90067 -7.40896 
5.60883 -3.92636 -6.79619 
5.46269 -3.93559 -6.54249 
5.34042 -3.94397 -6.31955 
5.20666 -3.93683 -6.33829 
5.1163 -3.90708 -6.75224 
4.92074 -3.977 -5.48575 
4.83692 -3.93707 -6.06837 
4.65553 -3.99533 -4.99975 
4.57871 -3.94241 -5.79646 
4.4027 -4.01053 -4.57298 
4.29198 -4.00369 -4.60338 
4.15707 -4.01239 -4.3661 
4.04687 -4.00888 -4.3433 
3.88862 -4.04176 -3.69987 
3.80479 -3.99921 -4.32463 
3.65264 -4.02418 -3.81303 
3.55103 -4.01721 -3.85198 
3.40914 -4.02171 -3.67738 
3.29074 -4.03318 -3.4074 
3.15294 -4.03937 -3.20838 
3.05641 -4.01814 -3.48073 
2.7982 -4.04708 -2.82856 
2.63219 -4.10028 -1.85238 
2.38777 -4.12286 -1.31246 
2.3029 -4.06741 -2.14433 
2.13763 -4.13229 -0.980406 
2.05262 -4.08856 -1.62329 
1.91367 -4.09424 -1.43152 
1.80589 -4.10557 -1.1715 
1.66459 -4.16994 -0.0328965 
1.56638 -4.10281 -1.04313 
1.43092 -4.13467 -0.432389 
1.32525 -4.1022 -0.879037 
1.1887 -4.18317 0.523336 
1.0963 -4.15006 0.0566869 
0.955162 -4.18339 0.695313 
0.852783 -4.17578 0.646571 
0.7201 -4.18566 0.901437 
0.620318 -4.18303 0.931133 
0.488536 -4.17495 0.896151 
0.383558 -4.17839 1.02718 
0.254894 -4.19559 1.39707 
0.146909 -4.1808 1.23678 
0.0274926 -4.20548 1.72039 
-0.0800475 -4.17363 1.28518 
-0.20535 -4.1911 1.65689 
-0.308458 -4.18724 1.66918 
-0.438772 -4.1902 1.811 
-0.536317 -4.18146 1.74058 
-0.670784 -4.20171 2.16383 
-0.76741 -4.18821 2.01619 
-0.998025 -4.1824 2.08914 
-1.12837 -4.1922 2.34114 
-1.2285 -4.17742 2.17535 
-1.35403 -4.18677 2.41663 
-1.45866 -4.1748 2.29941 
-1.57799 -4.18916 2.6169 
-1.68988 -4.15621 2.16703 
-1.91201 -4.16336 2.44266 
-2.03944 -4.15679 2.42896 
-2.14442 -4.14234 2.27211 
-2.27252 -4.13167 2.19278 
-2.37453 -4.13715 2.35478 
-2.49838 -4.13953 2.48262 
-2.59557 -4.13796 2.52763 
-2.83045 -4.1177 2.37109 
-3.0667 -4.08807 2.06464 
-3.1914 -4.08607 2.12248 
-3.29865 -4.08072 2.1139 
-3.42405 -4.06832 2.00487 
-3.52917 -4.06258 1.98839 
-4.68408 -3.84165 -0.735049 
-4.9371 -3.80617 -1.12358 
-5.04106 -3.80347 -1.09181 
-5.1737 -3.79656 -1.10706 
-5.28 -3.78667 -1.18956 
-5.39831 -3.79995 -0.890006 
-5.50088 -3.79989 -0.816721 
-5.63904 -3.78643 -0.933551 
-5.74952 -3.77367 -1.05918 
-5.86877 -3.78235 -0.832951 
-5.98119 -3.76972 -0.955148 
-6.11501 -3.76171 -0.987309 
-6.22627 -3.74578 -1.16338 
-6.35204 -3.75236 -0.966278 
-6.45592 -3.74425 -1.02166 
-6.68968 -3.73865 -0.942655 
-6.80852 -3.74487 -0.756474 
-6.91778 -3.7353 -0.831463 
-7.06605 -3.71356 -1.07429 
-7.14199 -3.73706 -0.640768 
-7.2821 -3.72146 -0.790506 
-7.39351 -3.71579 -0.801143 
-7.60827 -3.72113 -0.559577 
-7.7074 -3.74234 -0.146072 
-7.85025 -3.70553 -0.63553 
-7.98477 -3.6963 -0.686781 
-8.0964 -3.68611 -0.770043 
-8.2224 -3.68207 -0.743923 
-8.35779 -3.65296 -1.11472 
5.84841 -3.90534 -6.67311 
5.60672 -3.89315 -6.69522 
5.44811 -3.9117 -6.28428 
5.36235 -3.88054 -6.72211 
5.18601 -3.9173 -6.0068 
5.08888 -3.90003 -6.21371 
4.93199 -3.92473 -5.70553 
4.81253 -3.93779 -5.41069 
4.65659 -3.96137 -4.92109 
4.56036 -3.93499 -5.2747 
4.42889 -3.92458 -5.34721 
4.33522 -3.8916 -5.80842 
4.16509 -3.9586 -4.61284 
4.05983 -3.94493 -4.75642 
3.87724 -4.02451 -3.35039 
3.8063 -3.96316 -4.28236 
3.65682 -3.98335 -3.85172 
3.56318 -3.95067 -4.30811 
3.40359 -3.99227 -3.52696 
3.30392 -3.97889 -3.66992 
3.14372 -4.02343 -2.84125 
3.06952 -3.95661 -3.85864 
2.88453 -4.05913 -2.08319 
2.78392 -4.03958 -2.32425 
2.62615 -4.08292 -1.51656 
2.53581 -4.056 -1.88297 
2.40224 -4.05668 -1.77612 
2.30909 -4.01741 -2.33846 
2.14257 -4.08994 -1.05665 
2.05299 -4.05146 -1.60898 
1.91055 -4.07202 -1.17712 
1.80461 -4.06739 -1.17535 
1.66713 -4.12144 -0.210534 
1.56413 -4.07795 -0.833337 
1.42598 -4.14019 0.263292 
1.33023 -4.08282 -0.587165 
1.19034 -4.14544 0.516718 
1.09436 -4.11568 0.108736 
0.956364 -4.14313 0.647853 
0.85393 -4.13485 0.588706 
0.720496 -4.14791 0.893968 
0.621126 -4.13806 0.807546 
0.490405 -4.138 0.900566 
0.388273 -4.15006 1.16718 
0.255162 -4.16675 1.5303 
0.15012 -4.1419 1.2077 
0.0285115 -4.17323 1.79722 
-0.0793803 -4.14644 1.44543 
-0.204404 -4.16994 1.91193 
-0.306638 -4.1532 1.71729 
-0.435072 -4.13871 1.57749 
-0.532149 -4.14327 1.72023 
-0.669208 -4.15286 1.97256 
-0.766934 -4.14897 1.98048 
-0.895622 -4.17144 2.43324 
-0.99546 -4.14558 2.09067 
-1.12482 -4.15412 2.32063 
-1.22849 -4.14658 2.27438 
-1.35252 -4.14446 2.32955 
-1.45421 -4.13479 2.24778 
-1.57795 -4.1468 2.5293 
-1.68602 -4.13041 2.34441 
-1.8045 -4.14369 2.6426 
-1.91238 -4.11725 2.29654 
-2.0389 -4.11817 2.40235 
-2.1457 -4.10663 2.29416 
-2.27129 -4.09695 2.22957 
-2.37458 -4.09764 2.31493 
-2.4948 -4.10886 2.58137 
-2.59854 -4.09286 2.39958 
-2.82937 -4.07596 2.29497 
-2.96366 -4.07082 2.30938 
-3.05771 -4.06885 2.34551 
-3.19096 -4.04449 2.05108 
-3.29854 -4.04173 2.0843 
-3.43108 -4.01418 1.73826 
-3.53137 -4.01645 1.84691 
-4.68481 -3.80396 -0.727645 
-4.93644 -3.76773 -1.12707 
-5.04666 -3.75598 -1.23591 
-5.17514 -3.75492 -1.16024 
-5.28637 -3.73844 -1.34424 
-5.39621 -3.76417 -0.852635 
-5.50301 -3.754 -0.938613 
-5.63386 -3.74974 -0.912651 
-5.74007 -3.74461 -0.918232 
-5.8776 -3.7311 -1.03561 
-5.98126 -3.72904 -0.993853 
-6.11977 -3.71512 -1.11708 
-6.22383 -3.70957 -1.131 
-6.35584 -3.70814 -1.05866 
-6.46392 -3.69354 -1.21473 
-6.56048 -3.72834 -0.587226 
-6.68427 -3.70538 -0.866067 
-6.8036 -3.71012 -0.703947 
-6.92499 -3.68881 -0.957957 
-7.05383 -3.68716 -0.891391 
-7.17225 -3.66609 -1.14369 
-7.27181 -3.69261 -0.646721 
-7.39149 -3.6736 -0.865202 
-7.6115 -3.67843 -0.628899 
-7.72342 -3.68961 -0.368921 
-7.84423 -3.67196 -0.564721 
-7.97842 -3.66186 -0.629744 
-8.08949 -3.65167 -0.712789 
-8.32868 -3.6388 -0.746457 
5.88102 -3.83366 -7.21142 
5.60494 -3.8598 -6.59761 
5.44418 -3.87757 -6.19956 
5.36732 -3.83846 -6.76807 
5.18663 -3.87743 -6.01777 
5.10285 -3.84302 -6.50659 
4.94618 -3.87081 -5.95157 
4.8287 -3.87725 -5.76509 
4.67284 -3.90204 -5.25852 
4.58647 -3.85943 -5.87606 
4.41635 -3.91233 -4.9112 
4.30262 -3.91391 -4.80465 
4.17249 -3.90774 -4.81003 
4.07003 -3.88791 -5.05294 
3.80013 -3.93937 -4.03962 
3.6522 -3.95676 -3.65671 
3.56004 -3.92692 -4.06653 
3.39196 -3.97838 -3.12598 
3.30229 -3.95007 -3.51313 
3.14762 -3.98243 -2.88666 
3.06114 -3.93891 -3.51852 
2.88281 -4.02656 -1.99363 
2.61901 -4.06387 -1.21006 
2.53247 -4.02041 -1.84112 
2.38723 -4.04508 -1.34385 
2.3121 -3.97446 -2.41602 
2.14171 -4.06133 -0.90917 
2.05569 -4.01561 -1.57647 
1.91169 -4.03663 -1.13822 
1.81568 -4.0119 -1.46391 
1.67422 -4.04923 -0.767438 
1.57177 -4.0185 -1.18412 
1.43561 -4.07509 -0.18428 
1.33285 -4.03386 -0.768159 
1.19731 -4.09917 0.370109 
1.09314 -4.10777 0.5818 
0.954882 -4.12495 0.954863 
0.859349 -4.09654 0.570168 
0.722515 -4.1177 1.00564 
0.623758 -4.09906 0.779204 
0.492279 -4.10094 0.903278 
0.388072 -4.11637 1.22394 
0.25845 -4.12364 1.43275 
0.151413 -4.10414 1.19841 
0.0291683 -4.13182 1.72741 
-0.0772888 -4.1195 1.60714 
-0.202007 -4.10841 1.51976 
-0.304434 -4.11231 1.65538 
-0.434346 -4.1107 1.72279 
-0.531881 -4.09433 1.53167 
-0.667178 -4.12173 2.06551 
-0.764971 -4.11414 2.01448 
-0.896089 -4.12355 2.25848 
-0.996025 -4.10808 2.08342 
-1.12612 -4.11242 2.24602 
-1.22468 -4.1059 2.21269 
-1.35022 -4.10798 2.33584 
-1.4569 -4.09276 2.16955 
-1.57722 -4.10688 2.48104 
-1.68492 -4.09028 2.29356 
-1.8051 -4.09325 2.4271 
-1.90578 -4.11639 2.8683 
-2.03654 -4.08276 2.42583 
-2.13919 -4.07482 2.37283 
-2.26775 -4.06896 2.37163 
-2.36831 -4.05854 2.27762 
-2.49246 -4.07328 2.60161 
-2.59944 -4.05017 2.30988 
-2.83067 -4.03767 2.27639 
-2.95763 -4.0382 2.37603 
-3.05864 -4.02759 2.27928 
-3.19022 -4.00515 2.01581 
-3.29364 -4.01259 2.20867 
-3.41967 -3.99321 1.99005 
-3.52989 -3.97935 1.84812 
-4.67736 -3.77285 -0.621236 
-4.93386 -3.73345 -1.06555 
-5.03698 -3.73386 -0.984839 
-5.18099 -3.7065 -1.31777 
-5.28551 -3.70279 -1.30198 
-5.38981 -3.73069 -0.782037 
-5.50141 -3.71669 -0.925207 
-5.62761 -3.71664 -0.835327 
-5.74764 -3.69525 -1.09015 
-5.86774 -3.70246 -0.889014 
-5.99023 -3.67758 -1.19783 
-6.11744 -3.67586 -1.13385 
-6.22333 -3.66938 -1.16103 
-6.34845 -3.67375 -1.00144 
-6.45654 -3.66282 -1.09808 
-6.56707 -3.68309 -0.695413 
-6.67863 -3.6715 -0.80006 
-6.80847 -3.66615 -0.791997 
-6.93228 -3.63854 -1.14345 
-7.04233 -3.65836 -0.748209 
-7.14908 -3.64891 -0.822181 
-7.29288 -3.63274 -0.976659 
-7.39995 -3.62642 -1.00055 
-7.63162 -3.62077 -0.92399 
-7.72756 -3.64682 -0.439449 
-7.82379 -3.65016 -0.317068 
-7.96859 -3.63135 -0.512974 
-8.08622 -3.614 -0.705031 
-8.23347 -3.59481 -0.905344 
-8.34424 -3.58679 -0.953467 
5.63694 -3.78712 -7.14881 
5.46574 -3.81565 -6.57456 
5.32084 -3.85479 -5.85056 
5.20297 -3.82197 -6.28733 
5.10531 -3.80433 -6.49756 
4.9209 -3.86673 -5.37662 
4.81354 -3.86372 -5.34793 
4.67838 -3.85648 -5.36645 
4.57456 -3.84428 -5.48612 
4.43056 -3.84863 -5.31461 
4.30921 -3.87156 -4.86447 
4.17692 -3.8602 -4.95041 
4.06019 -3.87574 -4.62078 
3.9145 -3.89652 -4.18747 
3.80854 -3.88379 -4.31398 
3.66041 -3.91056 -3.78367 
3.56717 -3.87384 -4.29973 
3.42464 -3.891 -3.92601 
3.30075 -3.9172 -3.42213 
3.16221 -3.92112 -3.26125 
3.05963 -3.90667 -3.41747 
2.8918 -3.97322 -2.24216 
2.79649 -3.94329 -2.64898 
2.63093 -4.00644 -1.52918 
2.5329 -3.9926 -1.6788 
2.4092 -3.96351 -2.05211 
2.29817 -3.96819 -1.8988 
2.06263 -3.96557 -1.77242 
1.91429 -3.99473 -1.20407 
1.81703 -3.98076 -1.35641 
1.67843 -3.99399 -1.04755 
1.5731 -3.98982 -1.03858 
1.43777 -4.02194 -0.432603 
1.33393 -3.99594 -0.770938 
1.19973 -4.06254 0.381291 
1.10062 -4.04512 0.175642 
0.958073 -4.09264 1.03129 
0.862636 -4.07166 0.766456 
0.727391 -4.07221 0.87176 
0.624476 -4.0579 0.718036 
0.492466 -4.06593 0.939636 
0.391937 -4.07533 1.16066 
0.260936 -4.08107 1.34516 
0.154108 -4.07487 1.32295 
0.0319512 -4.09916 1.79555 
-0.0735863 -4.07931 1.55591 
-0.199966 -4.08801 1.78421 
-0.303349 -4.07665 1.67776 
-0.433723 -4.08056 1.83295 
-0.531079 -4.08152 1.91759 
-0.664257 -4.07131 1.85074 
-0.759921 -4.07436 1.96737 
-0.996846 -4.06525 1.99204 
-1.1222 -4.08406 2.38013 
-1.22559 -4.06095 2.08731 
-1.34875 -4.06742 2.27784 
-1.45326 -4.06348 2.29004 
-1.57119 -4.08541 2.72214 
-1.68323 -4.05498 2.31937 
-1.90355 -4.07382 2.7757 
-2.03324 -4.05004 2.49117 
-2.13706 -4.03825 2.37823 
-2.26669 -4.02869 2.31911 
-2.37659 -4.00302 1.99031 
-2.48932 -4.03889 2.64006 
-2.5971 -4.01594 2.35295 
-2.95454 -3.99482 2.27344 
-3.05974 -3.99053 2.28059 
-3.19105 -3.96394 1.95243 
-3.29706 -3.96253 2.00583 
-3.42326 -3.95082 1.91029 
-3.52865 -3.93999 1.81375 
-4.66997 -3.74146 -0.520286 
-4.93084 -3.69253 -1.11018 
-5.04343 -3.68232 -1.19171 
-5.17426 -3.67515 -1.21183 
-5.2851 -3.65809 -1.40334 
-5.38398 -3.69572 -0.735306 
-5.50283 -3.67753 -0.939019 
-5.63067 -3.67788 -0.8419 
-5.74301 -3.65973 -1.04946 
-5.86465 -3.66791 -0.832629 
-5.97969 -3.65006 -1.03359 
-6.11761 -3.63648 -1.15036 
-6.22118 -3.63144 -1.15629 
-6.35167 -3.62789 -1.1192 
-6.45335 -3.6287 -1.03352 
-6.57043 -3.63947 -0.778777 
-6.68349 -3.6279 -0.881304 
-6.8218 -3.61165 -1.04018 
-6.93112 -3.59869 -1.16771 
-7.04028 -3.61899 -0.767186 
-7.15732 -3.60136 -0.963198 
-7.28875 -3.59673 -0.942657 
-7.40341 -3.58346 -1.07103 
-7.63071 -3.58531 -0.878811 
-7.70406 -3.62738 -0.158624 
-7.85559 -3.58299 -0.754608 
-7.97416 -3.58551 -0.629511 
-8.09784 -3.56386 -0.884527 
-8.22625 -3.56037 -0.84792 
-8.34749 -3.54391 -1.0223 
5.88391 -3.75594 -7.19194 
5.58329 -3.8085 -6.14931 
5.47352 -3.76894 -6.69587 
5.35307 -3.78358 -6.37939 
5.17136 -3.82638 -5.57504 
5.08663 -3.79133 -6.06825 
4.91287 -3.84721 -5.06293 
4.83917 -3.78439 -6.00225 
4.66523 -3.84226 -4.96552 
4.57348 -3.8094 -5.41911 
4.4273 -3.81463 -5.23278 
4.33774 -3.78649 -5.61346 
4.18432 -3.81149 -5.10997 
4.05252 -3.86127 -4.2308 
3.90052 -3.88703 -3.71625 
3.80923 -3.85084 -4.2228 
3.65636 -3.88199 -3.62251 
3.56202 -3.85405 -3.99657 
3.42271 -3.85686 -3.85334 
3.29215 -3.89329 -3.18569 
3.17467 -3.85865 -3.64906 
3.06894 -3.85542 -3.62498 
2.8064 -3.88797 -2.9247 
2.54805 -3.92508 -2.15555 
2.41812 -3.91008 -2.30004 
2.31271 -3.90608 -2.28833 
2.16568 -3.94459 -1.57597 
2.06311 -3.93553 -1.64604 
1.91316 -3.95558 -1.22308 
1.81433 -3.94969 -1.24577 
1.67687 -3.96254 -0.945396 
1.5768 -3.94356 -1.17379 
1.43882 -3.98591 -0.407225 
1.33448 -3.99505 -0.188845 
1.19986 -4.02147 0.323864 
1.09927 -4.0168 0.321693 
0.960064 -4.04304 0.834875 
0.868772 -4.00755 0.33948 
0.727419 -4.04589 1.04519 
0.623627 -4.02385 0.771095 
0.494601 -4.01938 0.792333 
0.391952 -4.0295 1.02499 
0.262283 -4.04721 1.39674 
0.154821 -4.04125 1.37907 
0.0329619 -4.05225 1.6395 
-0.0712813 -4.03039 1.36839 
-0.198128 -4.04077 1.62258 
-0.301001 -4.04032 1.68858 
-0.428269 -4.02825 1.58861 
-0.529643 -4.03638 1.78905 
-0.662259 -4.04786 2.06461 
-0.759599 -4.04379 2.06957 
-0.990162 -4.03656 2.11953 
-1.11957 -4.0462 2.36385 
-1.22254 -4.03164 2.20713 
-1.34735 -4.02726 2.22689 
-1.45172 -4.02655 2.28988 
-1.57372 -4.01641 2.21668 
-1.68095 -4.02012 2.35155 
-1.90493 -4.01877 2.48974 
-2.02988 -4.01219 2.47471 
-2.13445 -4.00635 2.45701 
-2.26684 -3.98889 2.27557 
-2.38138 -3.93218 1.46171 
-2.48741 -4.00232 2.64468 
-2.59317 -3.98183 2.39646 
-2.82642 -3.96169 2.24456 
-2.9508 -3.95485 2.2252 
-3.06006 -3.94752 2.18727 
-3.18533 -3.93555 2.08753 
-3.29491 -3.93178 2.10609 
-3.42315 -3.91057 1.86248 
-3.52805 -3.90467 1.84403 
-4.66301 -3.7085 -0.444902 
-4.9288 -3.65956 -1.02825 
-5.03711 -3.64593 -1.16625 
-5.16936 -3.63978 -1.1691 
-5.28501 -3.61668 -1.45138 
-5.38455 -3.65681 -0.746747 
-5.50894 -3.62905 -1.09646 
-5.61888 -3.64784 -0.721308 
-5.74458 -3.61888 -1.08898 
-5.86688 -3.62521 -0.901786 
-5.98149 -3.60721 -1.10437 
-6.10064 -3.61682 -0.867598 
-6.22413 -3.58906 -1.21797 
-6.34828 -3.5943 -1.04657 
-6.45145 -3.59066 -1.03041 
-6.56883 -3.59998 -0.799584 
-6.68123 -3.58698 -0.9247 
-6.79992 -3.59345 -0.737715 
-6.92244 -3.57119 -1.00196 
-7.06645 -3.55008 -1.23249 
-7.16736 -3.55092 -1.14725 
-7.27059 -3.57252 -0.732395 
-7.39807 -3.54961 -1.00331 
-7.6331 -3.54304 -0.93923 
-7.72087 -3.5735 -0.395462 
-7.84513 -3.55201 -0.646277 
-7.99625 -3.52515 -0.962559 
-8.08661 -3.53478 -0.745901 
-8.34074 -3.50962 -0.961934 
5.87091 -3.73496 -6.89122 
5.64539 -3.70114 -7.26327 
5.45866 -3.74968 -6.36894 
5.39526 -3.69108 -7.24463 
5.18242 -3.78028 -5.69316 
5.10134 -3.73851 -6.29197 
4.91109 -3.81622 -4.93699 
4.82962 -3.7634 -5.70903 
4.68703 -3.77283 -5.46019 
4.58329 -3.7546 -5.67323 
4.41971 -3.79582 -4.91025 
4.34393 -3.73636 -5.79057 
4.16988 -3.80513 -4.58738 
4.09204 -3.74953 -5.40571 
3.89844 -3.85312 -3.64172 
3.81331 -3.81308 -4.21045 
3.64046 -3.86975 -3.19799 
3.56036 -3.8223 -3.88664 
3.40675 -3.85254 -3.30306 
3.3286 -3.79697 -4.12066 
3.15106 -3.87115 -2.82982 
2.90191 -3.88122 -2.49542 
2.81362 -3.83888 -3.09815 
2.64223 -3.927 -1.59261 
2.39934 -3.92228 -1.49482 
2.2896 -3.92604 -1.35811 
2.16933 -3.90378 -1.62274 
2.06208 -3.90614 -1.50971 
1.91165 -3.93007 -1.02738 
1.80937 -3.92795 -0.988187 
1.67602 -3.94707 -0.593425 
1.58335 -3.90276 -1.22394 
1.44286 -3.92141 -0.831569 
1.33888 -3.92161 -0.754803 
1.10498 -3.95778 -0.0209651 
0.963588 -3.99767 0.705803 
0.865807 -3.97952 0.490026 
0.729966 -4.00437 0.976533 
0.626884 -3.9912 0.842707 
0.495695 -3.98919 0.903992 
0.396367 -3.97339 0.726184 
0.264264 -4.00297 1.28451 
0.160205 -3.98923 1.14233 
0.0328829 -4.02712 1.8278 
-0.0742324 -4.00777 1.59975 
-0.195029 -4.00962 1.71436 
-0.298374 -3.99544 1.56491 
-0.426853 -3.99499 1.64887 
-0.53038 -3.99684 1.75121 
-0.661338 -4.01836 2.18221 
-0.757988 -4.0025 2.00158 
-0.988097 -3.9935 2.02327 
-1.12053 -4.00826 2.349 
-1.21971 -3.98841 2.10743 
-1.34599 -3.98758 2.18404 
-1.45161 -3.97647 2.0843 
-1.57254 -3.9784 2.20038 
-1.68092 -3.9718 2.17357 
-1.9025 -3.9865 2.56177 
-2.02918 -3.97266 2.43414 
-2.13336 -3.96356 2.36503 
-2.26227 -3.95441 2.31275 
-2.37052 -3.92607 1.94423 
-2.48769 -3.95841 2.53557 
-2.59361 -3.94349 2.37618 
-3.06291 -3.90021 2.02928 
-3.18698 -3.89562 2.04521 
-3.28891 -3.89488 2.10585 
-3.42032 -3.8735 1.86326 
-3.52848 -3.86382 1.78789 
-4.92565 -3.62641 -0.950597 
-5.03789 -3.60576 -1.19544 
-5.16937 -3.59737 -1.23388 
-5.27723 -3.58687 -1.3222 
-5.39307 -3.60717 -0.920982 
-5.50508 -3.59323 -1.06049 
-5.61514 -3.61119 -0.700051 
-5.73833 -3.58596 -1.009 
-5.86796 -3.58233 -0.973881 
-5.96246 -3.59054 -0.777676 
-6.10907 -3.56624 -1.05546 
-6.22618 -3.5457 -1.29501 
-6.33494 -3.56965 -0.841225 
-6.46023 -3.53728 -1.26098 
-6.55146 -3.57735 -0.566287 
-6.68542 -3.53965 -1.0636 
-6.79558 -3.56026 -0.661464 
-6.92647 -3.5264 -1.10045 
-7.04812 -3.53058 -0.948237 
-7.16239 -3.51761 -1.07087 
-7.26572 -3.53887 -0.663335 
-7.39346 -3.51454 -0.954812 
-7.62586 -3.50866 -0.881854 
-7.7149 -3.5388 -0.344927 
-7.83978 -3.51623 -0.610795 
-7.96931 -3.51089 -0.60261 
-8.08652 -3.49613 -0.751157 
-8.22234 -3.48429 -0.840581 
-8.33948 -3.47177 -0.954155 
5.88324 -3.68337 -7.08979 
5.62877 -3.68742 -6.8474 
5.48179 -3.68819 -6.73196 
5.38412 -3.67025 -6.94361 
5.20036 -3.71975 -6.04066 
5.0838 -3.7278 -5.83277 
4.92168 -3.76331 -5.16356 
4.86291 -3.68328 -6.37316 
4.68002 -3.74688 -5.25029 
4.58733 -3.71585 -5.66996 
4.44987 -3.71332 -5.61278 
4.33806 -3.71179 -5.55797 
4.1685 -3.77001 -4.52847 
4.06823 -3.76079 -4.60199 
3.9099 -3.80004 -3.87683 
3.81873 -3.7648 -4.36346 
3.64465 -3.82813 -3.25085 
3.5439 -3.81318 -3.41366 
3.42137 -3.7912 -3.6708 
3.29638 -3.81773 -3.16803 
3.15806 -3.81956 -3.04199 
3.07023 -3.78156 -3.57407 
2.8886 -3.86679 -2.11377 
2.81159 -3.80713 -2.99207 
2.65404 -3.86897 -1.91438 
2.42792 -3.81524 -2.59485 
2.31071 -3.84445 -2.05564 
2.16684 -3.87074 -1.54321 
2.08151 -3.82216 -2.24245 
1.91538 -3.89358 -1.00879 
1.81132 -3.8799 -1.14924 
1.67744 -3.92036 -0.422287 
1.57715 -3.89124 -0.806762 
1.44455 -3.89273 -0.69001 
1.33789 -3.88969 -0.662225 
1.20585 -3.94222 0.252088 
1.10367 -3.93492 0.210039 
0.963145 -3.96549 0.787034 
0.862345 -3.96051 0.780452 
0.728381 -3.96215 0.900495 
0.634067 -3.93103 0.480564 
0.497165 -3.95857 1.00772 
0.396209 -3.95846 1.07739 
0.264749 -3.97523 1.43231 
0.159937 -3.96439 1.33682 
0.0360021 -3.9817 1.69491 
-0.0704132 -3.96151 1.4544 
-0.190223 -3.9714 1.69362 
-0.297667 -3.96035 1.59669 
-0.427858 -3.95134 1.54782 
-0.530637 -3.95789 1.72284 
-0.660651 -3.96982 2.00109 
-0.753714 -3.969 2.05409 
-0.985508 -3.96054 2.08555 
-1.1198 -3.96121 2.19089 
-1.21913 -3.94599 2.02305 
-1.34434 -3.95667 2.27845 
-1.44699 -3.94978 2.24331 
-1.57143 -3.94474 2.25248 
-1.67818 -3.93859 2.23176 
-1.90074 -3.95176 2.59493 
-2.03116 -3.93215 2.3805 
-2.12919 -3.93354 2.47152 
-2.25978 -3.91175 2.22307 
-2.36519 -3.90147 2.13682 
-2.48736 -3.91941 2.50368 
-2.58914 -3.90721 2.38494 
-2.95036 -3.88338 2.26769 
-3.06065 -3.85998 1.97982 
-3.18548 -3.8582 2.04022 
-3.28519 -3.86056 2.14774 
-3.41654 -3.84296 1.96536 
-3.52366 -3.83374 1.897 
-4.9233 -3.5856 -0.992884 
-5.03255 -3.57696 -1.05076 
-5.16859 -3.55755 -1.25804 
-5.2789 -3.54549 -1.3685 
-5.39121 -3.56915 -0.919026 
-5.50785 -3.55002 -1.13565 
-5.61138 -3.57831 -0.619874 
-5.74135 -3.54348 -1.07264 
-5.86774 -3.54266 -0.995974 
-5.97978 -3.53038 -1.10858 
-6.10868 -3.52677 -1.07384 
-6.22579 -3.50547 -1.32402 
-6.35445 -3.50594 -1.2255 
-6.4553 -3.50439 -1.17829 
-6.56243 -3.52636 -0.758889 
-6.67806 -3.50754 -0.971274 
-6.80443 -3.50992 -0.844644 
-6.90723 -3.50717 -0.814699 
-7.06337 -3.47568 -1.19658 
-7.16105 -3.48034 -1.05456 
-7.27431 -3.49226 -0.787904 
-7.39161 -3.47445 -0.983246 
-7.61217 -3.48094 -0.725497 
-7.70023 -3.51354 -0.153292 
-7.83818 -3.47705 -0.626183 
-7.96647 -3.47326 -0.594467 
-8.08779 -3.45699 -0.762927 
-8.23067 -3.43764 -0.964422 
-8.34344 -3.42694 -1.05176 
5.8575 -3.67633 -6.56668 
5.62591 -3.65113 -6.7963 
5.4751 -3.66207 -6.52036 
5.38085 -3.64146 -6.77481 
5.21007 -3.6726 -6.17077 
5.11512 -3.64962 -6.46161 
4.95681 -3.6769 -5.92611 
4.67659 -3.71613 -5.11943 
4.58532 -3.68359 -5.56152 
4.43547 -3.70051 -5.19318 
4.3264 -3.69886 -5.14229 
4.18949 -3.69503 -5.10577 
4.07747 -3.70632 -4.85154 
3.91186 -3.76127 -3.8806 
3.8311 -3.69827 -4.80387 
3.67116 -3.75406 -3.82374 
3.56334 -3.75202 -3.77975 
3.41893 -3.75867 -3.57496 
3.30537 -3.76805 -3.34933 
3.18104 -3.7442 -3.63307 
3.07326 -3.744 -3.56049 
2.89265 -3.83029 -2.09122 
2.64954 -3.84327 -1.71863 
2.54294 -3.83224 -1.81528 
2.42927 -3.7856 -2.46102 
2.31624 -3.79825 -2.18477 
2.18015 -3.81228 -1.87095 
2.0691 -3.81644 -1.72826 
1.92025 -3.84385 -1.19711 
1.82079 -3.83149 -1.31954 
1.68185 -3.86091 -0.764289 
1.57494 -3.86209 -0.670678 
1.44363 -3.86382 -0.551542 
1.34083 -3.85368 -0.63704 
1.10543 -3.89173 0.120337 
0.963564 -3.93066 0.825824 
0.868793 -3.89955 0.408419 
0.728653 -3.92068 0.835692 
0.633115 -3.91024 0.74044 
0.49678 -3.93026 1.1478 
0.397077 -3.91809 1.02854 
0.267424 -3.92446 1.21879 
0.161647 -3.92038 1.22983 
0.0381467 -3.9455 1.70748 
-0.0683282 -3.93062 1.55091 
-0.189468 -3.93308 1.67434 
-0.298676 -3.91649 1.49305 
-0.425578 -3.92639 1.73643 
-0.529836 -3.91694 1.66281 
-0.656179 -3.93723 2.06733 
-0.75416 -3.92882 2.00542 
-0.884543 -3.94215 2.30462 
-0.987796 -3.92485 2.10816 
-1.11502 -3.93357 2.33335 
-1.21694 -3.92194 2.22406 
-1.34252 -3.91264 2.1678 
-1.44808 -3.90059 2.05464 
-1.56823 -3.91448 2.35541 
-1.67447 -3.90121 2.2237 
-1.79277 -3.93123 2.77411 
-1.89782 -3.91822 2.64565 
-2.12559 -3.89485 2.44245 
-2.266 -3.83538 1.61595 
-2.36243 -3.87332 2.27418 
-2.48625 -3.88065 2.47547 
-2.58879 -3.86711 2.33701 
-2.94371 -3.85585 2.41192 
-3.05418 -3.83551 2.17314 
-3.18566 -3.81038 1.87484 
-3.28481 -3.8231 2.14256 
-3.41273 -3.80765 1.99236 
-3.52106 -3.79439 1.86235 
-4.91558 -3.55532 -0.874785 
-5.03735 -3.52636 -1.2396 
-5.17117 -3.51443 -1.33088 
-5.27614 -3.51079 -1.31354 
-5.38467 -3.53752 -0.820923 
-5.50325 -3.51511 -1.08616 
-5.63272 -3.50984 -1.07675 
-5.73477 -3.51049 -0.994702 
-5.8602 -3.50971 -0.918351 
-5.98003 -3.48989 -1.14219 
-6.12322 -3.4669 -1.39905 
-6.2232 -3.47099 -1.26474 
-6.34359 -3.47688 -1.08819 
-6.45585 -3.46189 -1.24222 
-6.5564 -3.49561 -0.646507 
-6.67548 -3.47052 -0.952965 
-6.8103 -3.46313 -0.972807 
-6.91167 -3.45968 -0.955002 
-7.04392 -3.45629 -0.914292 
-7.14598 -3.45645 -0.839849 
-7.27619 -3.45066 -0.837986 
-7.38971 -3.43802 -0.954634 
-7.60341 -3.44923 -0.629232 
-7.73419 -3.4404 -0.674371 
-7.84105 -3.43513 -0.680827 
-7.96931 -3.43015 -0.667874 
-8.09637 -3.40854 -0.914376 
-8.21926 -3.40792 -0.837243 
-8.32559 -3.40309 -0.837405 
5.90245 -3.58723 -7.36807 
5.62081 -3.62039 -6.65809 
5.45802 -3.64561 -6.15395 
5.35946 -3.6265 -6.38091 
5.19931 -3.64481 -5.98554 
5.12966 -3.59237 -6.74858 
4.9554 -3.6404 -5.88342 
4.86257 -3.61315 -6.24032 
4.70963 -3.63 -5.87256 
4.58987 -3.64578 -5.54455 
4.42736 -3.67911 -4.91494 
4.32656 -3.66414 -5.07622 
4.18121 -3.67431 -4.81716 
4.08716 -3.6547 -5.05494 
3.83561 -3.64996 -4.95238 
3.66712 -3.7205 -3.74256 
3.57538 -3.69695 -4.04291 
3.41363 -3.73108 -3.40143 
3.32203 -3.70314 -3.76991 
3.17331 -3.72243 -3.36717 
3.07597 -3.70623 -3.54989 
2.81146 -3.74132 -2.8216 
2.66171 -3.77593 -2.18097 
2.55953 -3.76087 -2.34262 
2.41616 -3.78343 -1.89298 
2.31048 -3.78092 -1.85783 
2.17334 -3.78632 -1.67827 
2.08122 -3.7562 -2.08008 
1.82486 -3.79426 -1.31129 
1.689 -3.80686 -1.02109 
1.5805 -3.80852 -0.919424 
1.44652 -3.83268 -0.451645 
1.34193 -3.80407 -0.821344 
1.21227 -3.85751 0.0969094 
1.10818 -3.85817 0.180082 
0.963005 -3.9065 1.02991 
0.868957 -3.86172 0.402504 
0.73184 -3.88799 0.905397 
0.634459 -3.8729 0.740018 
0.500927 -3.87776 0.908833 
0.402337 -3.87437 0.925325 
0.271304 -3.89028 1.26362 
0.166108 -3.88578 1.26756 
0.0373387 -3.92674 1.99204 
-0.0662852 -3.88155 1.36504 
-0.194093 -3.89896 1.72413 
-0.293363 -3.89028 1.65935 
-0.423132 -3.88987 1.74391 
-0.52441 -3.89667 1.92025 
-0.654041 -3.89289 1.9526 
-0.753968 -3.8988 2.11429 
-0.882508 -3.89402 2.13041 
-0.98569 -3.87983 1.98306 
-1.11391 -3.89535 2.31329 
-1.21474 -3.87556 2.07752 
-1.34053 -3.87666 2.18274 
-1.44483 -3.87694 2.26025 
-1.56778 -3.8795 2.38618 
-1.67329 -3.85823 2.13089 
-1.79464 -3.88942 2.69891 
-1.89862 -3.86879 2.45251 
-2.12541 -3.85829 2.4491 
-2.35975 -3.83692 2.28261 
-2.48712 -3.83734 2.37855 
-2.58861 -3.83011 2.33768 
-2.94651 -3.8123 2.31318 
-3.05415 -3.80552 2.28387 
-3.18136 -3.7765 1.92376 
-3.28508 -3.77772 2.01547 
-3.41319 -3.76472 1.90412 
-3.51847 -3.7602 1.90797 
-3.87967 -3.73335 1.74586 
-4.91666 -3.51402 -0.922242 
-5.03304 -3.49145 -1.19002 
-5.17966 -3.46218 -1.54021 
-5.27377 -3.47439 -1.28502 
-5.38957 -3.491 -0.946465 
-5.50075 -3.47456 -1.12286 
-5.73346 -3.47551 -0.944605 
-5.86083 -3.4691 -0.954309 
-5.96825 -3.46418 -0.954989 
-6.11249 -3.43976 -1.23183 
-6.2297 -3.42113 -1.43796 
-6.34648 -3.43295 -1.17279 
-6.44229 -3.43938 -1.00587 
-6.67164 -3.43574 -0.90089 
-6.79763 -3.43773 -0.781477 
-6.8992 -3.43276 -0.787082 
-7.03529 -3.42347 -0.835141 
-7.15839 -3.40046 -1.10504 
-7.27065 -3.41623 -0.781732 
-7.39133 -3.39521 -1.02241 
-7.61351 -3.39945 -0.800508 
-7.73382 -3.40289 -0.662495 
-7.84507 -3.39331 -0.732589 
-7.98486 -3.37565 -0.907753 
-8.08974 -3.37416 -0.857109 
-8.226 -3.36045 -0.9735 
-8.33199 -3.3572 -0.949326 
5.89855 -3.55632 -7.23148 
5.63296 -3.56871 -6.85579 
5.51255 -3.54662 -7.11224 
5.37634 -3.57059 -6.64807 
5.21716 -3.58998 -6.23855 
5.1175 -3.57038 -6.47109 
4.93382 -3.63786 -5.30371 
4.8661 -3.56888 -6.3191 
4.68602 -3.63094 -5.23769 
4.60922 -3.57576 -6.03422 
4.45332 -3.59518 -5.62645 
4.31395 -3.65085 -4.67169 
4.06136 -3.67628 -4.10404 
3.91317 -3.68324 -3.89342 
3.82772 -3.64045 -4.49313 
3.64599 -3.71752 -3.17913 
3.57009 -3.66122 -3.99365 
3.43277 -3.66031 -3.91186 
3.32886 -3.65726 -3.88649 
3.163 -3.71427 -2.89249 
3.06942 -3.67984 -3.35774 
2.90508 -3.73808 -2.34584 
2.79957 -3.72913 -2.41012 
2.64389 -3.78037 -1.51215 
2.55395 -3.74574 -1.98287 
2.32344 -3.71474 -2.29976 
2.18261 -3.72901 -1.98157 
2.08037 -3.72159 -2.02463 
1.92219 -3.7878 -0.894108 
1.82351 -3.76181 -1.22582 
1.68579 -3.77816 -0.877792 
1.58441 -3.75396 -1.17985 
1.44915 -3.77591 -0.747329 
1.34399 -3.75921 -0.931237 
1.20751 -3.834 0.31631 
1.11133 -3.80837 -0.0113744 
0.971826 -3.85969 0.876802 
0.873584 -3.8159 0.270581 
0.732998 -3.86434 1.11513 
0.635875 -3.84305 0.854957 
0.501094 -3.84894 1.03981 
0.400997 -3.83447 0.88671 
0.27248 -3.85992 1.36855 
0.16856 -3.84183 1.16245 
0.0409161 -3.86941 1.67645 
-0.0648427 -3.8525 1.48989 
-0.191165 -3.86416 1.75769 
-0.290633 -3.84298 1.50082 
-0.41815 -3.8525 1.73668 
-0.521797 -3.84558 1.70238 
-0.655383 -3.86265 2.05878 
-0.75342 -3.86279 2.12951 
-0.983003 -3.84346 1.99203 
-1.11117 -3.85991 2.33502 
-1.21231 -3.84164 2.12425 
-1.33864 -3.84366 2.24361 
-1.44424 -3.83296 2.15257 
-1.56651 -3.83613 2.28682 
-1.66965 -3.8356 2.35082 
-1.89759 -3.82566 2.35705 
-2.12272 -3.82118 2.44542 
-2.35556 -3.80119 2.30021 
-2.58612 -3.7962 2.38455 
-3.05376 -3.75824 2.12659 
-3.17538 -3.75154 2.10845 
-3.28718 -3.74491 2.08459 
-3.51765 -3.72198 1.89242 
-4.92216 -3.46538 -1.07916 
-5.03567 -3.44564 -1.30396 
-5.17683 -3.42604 -1.50713 
-5.27226 -3.43365 -1.32302 
-5.38571 -3.45542 -0.908027 
-5.49836 -3.43957 -1.07346 
-5.62544 -3.44367 -0.921354 
-5.73845 -3.4262 -1.11136 
-5.85069 -3.44246 -0.782212 
-5.98207 -3.40471 -1.27203 
-6.1124 -3.401 -1.23794 
-6.22712 -3.38326 -1.43095 
-6.33603 -3.40548 -1.01209 
-6.45655 -3.38099 -1.30523 
-6.56024 -3.41142 -0.763537 
-6.67503 -3.39163 -0.98817 
-6.78799 -3.40835 -0.651181 
-6.93161 -3.35914 -1.30917 
-7.03578 -3.38302 -0.868047 
-7.14084 -3.37804 -0.871093 
-7.27757 -3.36986 -0.901314 
-7.38831 -3.3594 -0.985015 
-7.62134 -3.35217 -0.933098 
-7.7218 -3.37225 -0.55306 
-7.83558 -3.36189 -0.632963 
-7.95992 -3.36012 -0.573094 
-8.09935 -3.32452 -1.02406 
-8.21675 -3.3293 -0.868134 
-8.32272 -3.32708 -0.828071 
5.92261 -3.49151 -7.63523 
5.66628 -3.49102 -7.46491 
5.50584 -3.51558 -6.97718 
5.37149 -3.53637 -6.56526 
5.21528 -3.55644 -6.14906 
4.92441 -3.61632 -5.02922 
4.70554 -3.5608 -5.72845 
4.59264 -3.568 -5.53973 
4.45437 -3.56228 -5.53144 
4.30668 -3.63118 -4.37259 
4.19137 -3.58551 -4.99271 
4.0958 -3.56047 -5.31033 
3.90974 -3.65596 -3.71705 
3.82983 -3.59706 -4.56456 
3.64767 -3.67821 -3.19392 
3.56721 -3.63156 -3.85328 
3.42801 -3.63794 -3.65863 
3.30885 -3.6537 -3.33434 
3.17816 -3.6467 -3.35075 
3.07628 -3.63279 -3.49326 
2.90822 -3.6969 -2.39356 
2.81007 -3.67394 -2.67732 
2.64742 -3.73606 -1.61194 
2.54709 -3.7239 -1.72866 
2.42785 -3.68876 -2.18448 
2.32455 -3.67766 -2.28287 
2.17143 -3.72844 -1.3979 
2.07601 -3.69654 -1.82065 
1.923 -3.74846 -0.918137 
1.82129 -3.73294 -1.08545 
1.68813 -3.74094 -0.870129 
1.58219 -3.73768 -0.846538 
1.4534 -3.74451 -0.652168 
1.34826 -3.71485 -1.03389 
1.2105 -3.78635 0.158192 
1.11363 -3.76741 -0.0648123 
0.973682 -3.81021 0.688785 
0.869462 -3.78798 0.420508 
0.737842 -3.80642 0.794813 
0.63824 -3.81162 0.943913 
0.50556 -3.79667 0.806904 
0.400895 -3.80022 0.934173 
0.275221 -3.81811 1.29594 
0.1664 -3.79777 1.05971 
0.0428701 -3.84158 1.81762 
-0.061562 -3.80824 1.37894 
-0.187605 -3.82094 1.66142 
-0.292533 -3.81181 1.59456 
-0.419873 -3.81315 1.70375 
-0.517012 -3.80731 1.6817 
-0.65181 -3.8269 2.076 
-0.753497 -3.80506 1.81183 
-0.879067 -3.83663 2.38343 
-0.978155 -3.8162 2.1392 
-1.11243 -3.81346 2.19068 
-1.20814 -3.81382 2.26277 
-1.33744 -3.79985 2.13857 
-1.4451 -3.79496 2.13863 
-1.56298 -3.80077 2.30984 
-1.67231 -3.78775 2.18633 
-1.79627 -3.78139 2.17517 
-1.89529 -3.79445 2.44449 
-2.1218 -3.77795 2.3492 
-2.34926 -3.77895 2.52306 
-2.58428 -3.75661 2.34417 
-3.04631 -3.72751 2.21996 
-3.17671 -3.70856 2.02024 
-3.28503 -3.70704 2.07247 
-3.40721 -3.69199 1.92676 
-3.51691 -3.68293 1.86427 
-4.66752 -3.46116 -0.734705 
-4.91965 -3.43251 -0.998247 
-5.02953 -3.41813 -1.14217 
-5.175 -3.38738 -1.5123 
-5.27047 -3.39707 -1.29712 
-5.38155 -3.42001 -0.867689 
-5.49696 -3.3986 -1.11558 
-5.62554 -3.40253 -0.965569 
-5.73824 -3.38589 -1.1422 
-5.84916 -3.40423 -0.783454 
-5.97276 -3.37643 -1.12365 
-6.10628 -3.36975 -1.13282 
-6.20947 -3.36454 -1.14075 
-6.33796 -3.36212 -1.08824 
-6.448 -3.35202 -1.1662 
-6.68117 -3.34408 -1.12528 
-6.78973 -3.36534 -0.723302 
-6.91677 -3.33685 -1.0716 
-7.03011 -3.35017 -0.788176 
-7.14353 -3.33819 -0.892684 
-7.25939 -3.34621 -0.688796 
-7.37602 -3.33201 -0.825192 
-7.62165 -3.31211 -0.958758 
-7.72595 -3.32919 -0.623978 
-7.83694 -3.32103 -0.671551 
-7.96496 -3.31583 -0.66196 
-8.09541 -3.28922 -0.978949 
-8.3154 -3.29386 -0.754004 
5.90976 -3.47056 -7.34045 
5.63262 -3.49727 -6.74131 
5.48459 -3.5028 -6.55459 
5.37818 -3.49081 -6.66394 
5.22708 -3.50396 -6.35888 
4.95061 -3.54616 -5.52389 
4.87126 -3.49263 -6.28573 
4.69645 -3.53825 -5.46879 
4.59121 -3.53496 -5.44611 
4.44637 -3.54539 -5.18681 
4.18815 -3.55934 -4.79529 
3.92362 -3.60146 -3.96953 
3.82272 -3.5681 -4.40867 
3.66178 -3.61874 -3.5246 
3.57346 -3.58417 -3.99108 
3.43186 -3.59745 -3.69033 
3.32519 -3.59029 -3.7258 
3.18048 -3.60877 -3.3436 
3.08176 -3.59148 -3.53908 
2.8018 -3.6572 -2.34242 
2.65638 -3.69062 -1.73163 
2.56767 -3.64189 -2.41386 
