ply
format ascii 1.0
element vertex 1794
property float x
property float y
property float z
end_header
1.90941 -5.33096 3.21277 
1.68321 -5.32487 3.28152 
1.55402 -5.3199 3.2931 
1.45711 -5.3146 3.27264 
1.33023 -5.31141 3.31548 
1.22772 -5.31503 3.46471 
1.10551 -5.29933 3.27212 
1.00116 -5.29497 3.27503 
0.650594 -5.2716 3.12362 
0.552079 -5.2639 3.0601 
0.424143 -5.24846 2.87672 
0.323061 -5.24821 2.95335 
0.194802 -5.23449 2.8022 
0.0985338 -5.2004 2.24809 
-0.0266976 -5.20554 2.44383 
-0.128028 -5.1876 2.19297 
-0.251982 -5.19515 2.43232 
-0.354769 -5.13638 1.42634 
-0.484936 -5.14362 1.66492 
-0.588652 -5.12157 1.3399 
-0.71714 -5.11551 1.33085 
-0.813753 -5.12475 1.57948 
-0.945945 -5.11026 1.41727 
-1.04868 -5.10428 1.38895 
-1.17846 -5.0916 1.2585 
-1.28066 -5.10312 1.55381 
-1.40604 -5.08934 1.39942 
-1.51233 -5.08284 1.36436 
-1.63728 -5.08062 1.42364 
-1.74312 -5.07041 1.3196 
-1.96897 -5.05714 1.25519 
-2.10418 -5.05178 1.26449 
-2.20167 -5.04931 1.2971 
-2.33663 -5.03814 1.19877 
-2.43679 -5.03354 1.19409 
-2.57042 -5.02269 1.10042 
-2.66972 -5.02214 1.17011 
-2.90298 -5.00365 1.01515 
-3.13098 -5.00774 1.2741 
-3.25926 -4.99484 1.13844 
-3.36297 -4.99491 1.22309 
-3.49238 -4.98143 1.07739 
-3.58949 -4.99002 1.31456 
-3.71892 -4.98464 1.3191 
-3.82057 -4.97787 1.27546 
-3.96544 -4.95734 1.01158 
-4.05097 -4.97279 1.36657 
-4.18444 -4.9611 1.25747 
-4.28575 -4.95986 1.316 
-4.41972 -4.94907 1.22388 
-4.51327 -4.95472 1.40378 
-4.74259 -4.94922 1.48638 
-4.8744 -4.93915 1.40591 
-4.97603 -4.93557 1.42134 
-5.10579 -4.92612 1.35072 
-5.21919 -4.91331 1.20474 
6.2441 -5.22133 -1.59124 
6.13857 -5.19788 -1.93893 
6.01821 -5.20742 -1.66734 
5.87375 -5.20889 -1.52528 
5.75986 -5.21333 -1.3528 
5.61541 -5.21916 -1.13041 
5.49097 -5.24154 -0.619391 
5.36551 -5.23292 -0.678172 
5.25494 -5.23903 -0.477583 
5.134 -5.21796 -0.769081 
5.00587 -5.25228 -0.0351168 
4.88521 -5.22765 -0.392299 
4.63886 -5.24159 0.060715 
4.53577 -5.2344 0.0105345 
4.40415 -5.23438 0.115048 
4.29543 -5.23504 0.213931 
4.15193 -5.25065 0.61583 
4.05544 -5.23805 0.460651 
3.93308 -5.22521 0.321955 
3.81642 -5.23912 0.671125 
3.69266 -5.22094 0.43514 
3.55792 -5.26419 1.33885 
3.44441 -5.24131 1.00812 
3.31772 -5.27503 1.73 
3.1892 -5.26784 1.70017 
3.07543 -5.28462 2.10001 
2.95386 -5.27408 2.00304 
2.84506 -5.27997 2.19831 
2.71979 -5.26741 2.06693 
2.60794 -5.28785 2.53252 
2.48346 -5.28332 2.54849 
2.37315 -5.28598 2.68565 
2.24649 -5.28698 2.80504 
2.13848 -5.3034 3.19366 
2.01979 -5.27889 2.83714 
1.91074 -5.29467 3.21481 
1.68486 -5.28259 3.17284 
1.55743 -5.27534 3.14104 
1.4576 -5.28463 3.39188 
1.3317 -5.2738 3.293 
1.22869 -5.28537 3.58834 
1.10804 -5.26444 3.29931 
1.00231 -5.25903 3.28415 
0.651685 -5.24627 3.32938 
0.553291 -5.2263 3.04026 
0.42416 -5.2137 2.91138 
0.327076 -5.20173 2.76861 
0.197233 -5.20034 2.84671 
0.0991654 -5.17523 2.46277 
-0.0239954 -5.16328 2.34118 
-0.129319 -5.15763 2.3212 
-0.250427 -5.12587 1.83332 
-0.355234 -5.1167 1.74822 
-0.485258 -5.10852 1.7015 
-0.58486 -5.09824 1.59184 
-0.715177 -5.07378 1.24552 
-0.814946 -5.08205 1.47764 
-0.946918 -5.0718 1.39438 
-1.04626 -5.06662 1.37839 
-1.17685 -5.0598 1.35729 
-1.27768 -5.06281 1.49334 
-1.40264 -5.05168 1.38831 
-1.50963 -5.04832 1.41202 
-1.63671 -5.03405 1.25073 
-1.74213 -5.0335 1.32503 
-1.8682 -5.02518 1.27267 
-1.96999 -5.01275 1.12518 
-2.10366 -5.01053 1.19116 
-2.20308 -5.00654 1.19727 
-2.33895 -4.99087 1.0173 
-2.43678 -4.99394 1.15218 
-2.57089 -4.98257 1.05016 
-2.67248 -4.98071 1.09714 
-2.90542 -4.96668 1.02511 
-3.03402 -4.9566 0.942399 
-3.13597 -4.9619 1.12166 
-3.26247 -4.94784 0.963954 
-3.36077 -4.96048 1.27551 
-3.48836 -4.95049 1.19363 
-3.59379 -4.9451 1.17869 
-3.72206 -4.93832 1.15657 
-3.81699 -4.94771 1.40542 
-3.95389 -4.93319 1.24768 
-4.04868 -4.93553 1.36667 
-4.18039 -4.93083 1.38555 
-4.28383 -4.92403 1.34314 
-4.41528 -4.91481 1.27867 
-4.50724 -4.92297 1.50262 
-4.74093 -4.91026 1.45579 
-4.87199 -4.90272 1.42186 
-4.98294 -4.88763 1.2329 
-5.10581 -4.88724 1.32403 
-5.21563 -4.87807 1.2432 
-5.34878 -4.86408 1.09215 
-5.44641 -4.86668 1.21836 
6.01727 -5.17069 -1.64813 
5.8999 -5.15138 -1.90855 
5.74228 -5.19516 -0.982168 
5.49905 -5.19437 -0.803732 
5.38525 -5.17375 -1.09099 
5.26135 -5.19092 -0.678428 
5.11642 -5.2086 -0.239715 
5.01373 -5.20939 -0.143872 
4.88011 -5.19626 -0.278107 
4.64269 -5.20101 -0.00270181 
4.52982 -5.20909 0.234828 
4.40379 -5.19611 0.0971616 
4.2768 -5.22163 0.665108 
4.15 -5.21825 0.704061 
4.05787 -5.19904 0.425556 
3.92459 -5.20003 0.54954 
3.80695 -5.21345 0.888455 
3.69265 -5.19342 0.612585 
3.56473 -5.21951 1.19187 
3.44556 -5.20093 0.946309 
3.32073 -5.23907 1.74371 
3.1896 -5.23539 1.78063 
3.08152 -5.23784 1.91121 
2.96136 -5.22353 1.74483 
2.84259 -5.25074 2.3372 
2.72926 -5.2229 1.91772 
2.60881 -5.25172 2.54104 
2.48318 -5.24958 2.60163 
2.3699 -5.25859 2.85659 
2.24974 -5.25184 2.82863 
2.14411 -5.25571 2.98347 
2.01881 -5.24361 2.86141 
1.91463 -5.24802 3.02501 
1.68394 -5.25817 3.39432 
1.55896 -5.24 3.16097 
1.45785 -5.25063 3.43604 
1.33417 -5.23468 3.24235 
1.23159 -5.24125 3.44418 
1.10701 -5.23833 3.48983 
1.00465 -5.22563 3.33873 
0.655625 -5.20381 3.21684 
0.553076 -5.1909 3.06213 
0.42548 -5.17795 2.9265 
0.327763 -5.16583 2.78241 
0.200015 -5.16508 2.87032 
0.0994792 -5.12842 2.27905 
-0.0228226 -5.13485 2.49406 
-0.127389 -5.0996 1.93185 
-0.247219 -5.10482 2.12283 
-0.352152 -5.07257 1.61587 
-0.480822 -5.07405 1.74534 
-0.582376 -5.05678 1.51008 
-0.711945 -5.05145 1.51561 
-0.945042 -5.02923 1.29414 
-1.04553 -5.03168 1.4191 
-1.17488 -5.02311 1.36506 
-1.27307 -5.02397 1.45914 
-1.40071 -5.0154 1.4037 
-1.50918 -5.00336 1.26969 
-1.63361 -5.00231 1.3496 
-1.74031 -4.99084 1.22447 
-1.96695 -4.99139 1.41505 
-2.10225 -4.97138 1.15646 
-2.20385 -4.96055 1.03894 
-2.33594 -4.95494 1.04155 
-2.43282 -4.96324 1.27057 
-2.56543 -4.95004 1.13456 
-2.67072 -4.93776 0.993584 
-2.89865 -4.9359 1.14121 
-3.02881 -4.92564 1.05693 
-3.1343 -4.92402 1.11128 
-3.26213 -4.91293 1.01008 
-3.3619 -4.91713 1.1665 
-3.59035 -4.91314 1.27561 
-3.71666 -4.90799 1.28195 
-3.81841 -4.90851 1.37259 
-3.94853 -4.90058 1.33105 
-4.04491 -4.90202 1.43439 
-4.18455 -4.88362 1.20863 
-4.28401 -4.88228 1.26348 
-4.41058 -4.88164 1.35277 
-4.50897 -4.87916 1.38569 
-4.74459 -4.86471 1.30907 
-4.86974 -4.86668 1.44493 
-4.97683 -4.85773 1.3664 
-5.11169 -4.84308 1.20564 
-5.21429 -4.84037 1.23789 
-5.33939 -4.83112 1.16826 
-5.44593 -4.82909 1.21617 
6.1132 -5.14698 -1.46858 
6.02231 -5.12926 -1.71934 
5.86026 -5.14796 -1.25114 
5.74705 -5.1507 -1.11179 
5.49378 -5.16726 -0.61039 
5.37256 -5.15674 -0.706257 
5.26106 -5.15567 -0.637587 
5.12741 -5.16237 -0.410039 
5.02344 -5.15594 -0.444913 
4.8925 -5.14709 -0.502526 
4.64135 -5.16611 0.0421094 
4.53318 -5.16825 0.166451 
4.42011 -5.14239 -0.214794 
4.30353 -5.15616 0.128023 
4.15371 -5.17719 0.629173 
4.05591 -5.1668 0.517344 
3.92918 -5.15756 0.44932 
3.81185 -5.16937 0.757198 
3.55621 -5.20047 1.52535 
3.4477 -5.1688 1.0348 
3.31982 -5.20721 1.83504 
3.19007 -5.20405 1.88009 
3.07879 -5.21054 2.08619 
2.95472 -5.19958 1.98492 
2.84754 -5.20846 2.23133 
2.60567 -5.2223 2.67458 
2.49216 -5.19211 2.21496 
2.37486 -5.22102 2.83397 
2.25469 -5.20414 2.62176 
2.14398 -5.22567 3.10136 
2.01865 -5.21348 2.97859 
1.91604 -5.21936 3.16692 
1.68545 -5.21998 3.36065 
1.56139 -5.20164 3.12506 
1.46037 -5.20983 3.35421 
1.3354 -5.20256 3.32079 
1.2332 -5.20835 3.50714 
1.11208 -5.19254 3.31513 
1.00566 -5.18889 3.33292 
0.65703 -5.1683 3.23426 
0.557082 -5.1537 3.04763 
0.429216 -5.14063 2.91095 
0.331014 -5.12696 2.73987 
0.200795 -5.12768 2.85615 
0.102317 -5.1033 2.49042 
-0.0227991 -5.10015 2.53215 
-0.122306 -5.05813 1.84606 
-0.245707 -5.08225 2.38294 
-0.351187 -5.03487 1.60378 
-0.478347 -5.04441 1.87824 
-0.581136 -5.02187 1.54937 
-0.712884 -5.0071 1.38485 
-0.942425 -4.99561 1.35769 
-1.04507 -4.99485 1.4251 
-1.17245 -4.98584 1.36214 
-1.27326 -4.98821 1.48518 
-1.39989 -4.97736 1.38786 
-1.50475 -4.9734 1.39901 
-1.63144 -4.96347 1.31861 
-1.73961 -4.9518 1.19184 
-1.86246 -4.96166 1.46891 
-1.97022 -4.9351 1.07075 
-2.10075 -4.93355 1.14603 
-2.20118 -4.93009 1.16256 
-2.34221 -4.90324 0.785681 
-2.43503 -4.91547 1.08193 
-2.56443 -4.90802 1.04894 
-2.66502 -4.91323 1.22347 
-2.89421 -4.90641 1.28108 
-3.0303 -4.8748 0.813662 
-3.13316 -4.88284 1.04159 
-3.25906 -4.87458 0.991015 
-3.35997 -4.87983 1.16682 
-3.49222 -4.86383 0.980438 
-3.58704 -4.87686 1.29287 
-3.72163 -4.86033 1.09862 
-3.81677 -4.86926 1.33673 
-3.94695 -4.8622 1.31148 
-4.04481 -4.8644 1.42933 
-4.17324 -4.85839 1.42187 
-4.27924 -4.84833 1.32278 
-4.4074 -4.84798 1.41819 
-4.5093 -4.84169 1.38451 
-4.73777 -4.83556 1.45424 
-4.86887 -4.82725 1.4072 
-4.98306 -4.8112 1.20547 
-5.10341 -4.8126 1.32663 
-5.21225 -4.79865 1.15898 
-5.33781 -4.79416 1.17694 
-5.44307 -4.79265 1.23304 
6.00471 -5.10843 -1.39908 
5.88989 -5.08635 -1.70837 
5.75414 -5.11288 -1.12164 
5.65523 -5.08 -1.6388 
5.51358 -5.10737 -1.03212 
5.39955 -5.08769 -1.29871 
5.26575 -5.11691 -0.664646 
5.13245 -5.12056 -0.49375 
5.02107 -5.12499 -0.325905 
4.89068 -5.11431 -0.416599 
4.65677 -5.11161 -0.281468 
4.54781 -5.12 -0.0439066 
4.42916 -5.09433 -0.41516 
4.29803 -5.12636 0.267804 
4.16203 -5.13011 0.442602 
4.05953 -5.12877 0.49907 
3.93335 -5.12155 0.467775 
3.8202 -5.12731 0.661059 
3.69123 -5.12507 0.721984 
3.56496 -5.15708 1.40091 
3.44591 -5.1402 1.18903 
3.32349 -5.16545 1.74245 
3.19324 -5.16208 1.78399 
3.08875 -5.16378 1.8972 
2.96397 -5.14637 1.68022 
2.8525 -5.16923 2.18188 
2.72248 -5.16897 2.27958 
2.61286 -5.17815 2.53204 
2.48873 -5.17313 2.53902 
2.37241 -5.18594 2.86253 
2.25212 -5.17921 2.83552 
2.14569 -5.19005 3.11564 
2.02341 -5.16948 2.8396 
1.91659 -5.18184 3.14757 
1.68867 -5.18271 3.34286 
1.56254 -5.16402 3.1041 
1.46288 -5.17398 3.36279 
1.33773 -5.16428 3.28602 
1.23318 -5.173 3.52618 
1.11308 -5.15314 3.26137 
1.00815 -5.15354 3.35139 
0.65894 -5.12557 3.12037 
0.559383 -5.12551 3.19783 
0.430712 -5.1037 2.90446 
0.331961 -5.09658 2.85358 
0.204073 -5.08633 2.76882 
0.104357 -5.06478 2.45733 
-0.020213 -5.0639 2.53972 
-0.123328 -5.03762 2.14535 
-0.245122 -5.0479 2.42743 
-0.347607 -4.99198 1.49601 
-0.474574 -5.00432 1.81959 
-0.578411 -4.98444 1.54153 
-0.710099 -4.97743 1.51852 
-0.812036 -4.97215 1.50343 
-0.941424 -4.95877 1.36336 
-1.04271 -4.95863 1.44078 
-1.16969 -4.95265 1.43259 
-1.27222 -4.95253 1.51148 
-1.39847 -4.941 1.40233 
-1.50241 -4.94006 1.46736 
-1.62727 -4.92907 1.36701 
-1.73966 -4.91221 1.1505 
-1.96622 -4.90562 1.21004 
-2.09568 -4.90285 1.26206 
-2.20106 -4.88775 1.07176 
-2.3336 -4.88634 1.15098 
-2.42875 -4.88365 1.17732 
-2.56368 -4.87048 1.04559 
-2.67046 -4.85917 0.925056 
-2.89677 -4.85836 1.08917 
-3.02314 -4.84628 0.970233 
-3.13048 -4.84979 1.11869 
-3.25264 -4.84281 1.08881 
-3.36011 -4.83707 1.06969 
-3.48788 -4.83331 1.10251 
-3.59388 -4.82298 0.999226 
-3.72156 -4.81957 1.03843 
-3.81964 -4.82771 1.26333 
-3.94512 -4.82568 1.32574 
-4.04818 -4.81959 1.29696 
-4.17858 -4.80852 1.19956 
-4.27515 -4.81555 1.40311 
-4.41247 -4.80171 1.2611 
-4.50872 -4.80525 1.4013 
-4.73322 -4.80353 1.5476 
-4.86517 -4.79382 1.47612 
-4.97792 -4.7781 1.28063 
-5.10695 -4.76654 1.17346 
-5.20667 -4.7676 1.27146 
-5.3363 -4.7633 1.2962 
-5.44604 -4.74796 1.10513 
6.1191 -5.06873 -1.52517 
5.99833 -5.07734 -1.27578 
5.88692 -5.0531 -1.62489 
5.75044 -5.07583 -1.10889 
5.65916 -5.03887 -1.70269 
5.50148 -5.08932 -0.671332 
5.40862 -5.04616 -1.37529 
5.27367 -5.07224 -0.800359 
5.13464 -5.07998 -0.552139 
5.01165 -5.10388 -0.0256678 
4.88214 -5.09911 -0.0101063 
4.55083 -5.07442 -0.194768 
4.41636 -5.07635 -0.0547315 
4.30585 -5.08234 0.139707 
4.16084 -5.09932 0.558953 
4.06428 -5.08986 0.46426 
3.94032 -5.07717 0.333083 
3.8259 -5.0858 0.578104 
3.57014 -5.11435 1.29242 
3.45015 -5.09486 1.03575 
3.32733 -5.12751 1.71974 
3.19827 -5.1192 1.67127 
3.08177 -5.14309 2.1927 
2.95505 -5.13624 2.16868 
2.855 -5.13049 2.14367 
2.72852 -5.12012 2.05628 
2.61501 -5.14067 2.51515 
2.48479 -5.14936 2.77378 
2.37858 -5.14601 2.79672 
2.2584 -5.13914 2.76736 
2.14818 -5.15171 3.0801 
2.02497 -5.1303 2.7915 
1.91945 -5.14265 3.0965 
1.69077 -5.13804 3.19293 
1.56223 -5.13682 3.27193 
1.46483 -5.13525 3.32015 
1.33897 -5.13085 3.33979 
1.23676 -5.12939 3.39369 
1.11443 -5.11852 3.29394 
1.00907 -5.11759 3.36009 
0.658705 -5.09729 3.26964 
0.561194 -5.08466 3.11895 
0.430902 -5.06763 2.91456 
0.334172 -5.06026 2.85785 
0.205618 -5.04861 2.74925 
0.105393 -5.0332 2.55049 
-0.017647 -5.02664 2.52902 
-0.120208 -4.99546 2.04836 
-0.243693 -5.02656 2.70519 
-0.349293 -4.99479 2.21614 
-0.476589 -4.97033 1.87587 
-0.579297 -4.95919 1.75598 
-0.709059 -4.92826 1.30123 
-0.80867 -4.93475 1.49624 
-1.03909 -4.92124 1.43405 
-1.169 -4.91817 1.48098 
-1.27036 -4.91864 1.56896 
-1.39713 -4.89753 1.2887 
-1.50326 -4.89893 1.39729 
-1.62756 -4.89394 1.4051 
-1.73608 -4.87473 1.14461 
-1.96827 -4.86001 1.06199 
-2.09483 -4.86216 1.20028 
-2.2003 -4.84822 1.03216 
-2.33489 -4.83645 0.926132 
-2.42837 -4.84442 1.14303 
-2.56202 -4.83329 1.04773 
-2.66485 -4.8252 0.982989 
-2.8927 -4.82529 1.16382 
-3.02116 -4.81151 1.01667 
-3.12557 -4.81199 1.10746 
-3.25483 -4.803 1.04734 
-3.3562 -4.80558 1.17352 
-3.48465 -4.79932 1.16186 
-3.58462 -4.80063 1.26416 
-3.72085 -4.7841 1.07365 
-3.81787 -4.78459 1.15882 
-3.9453 -4.78511 1.2684 
-4.04273 -4.78679 1.37533 
-4.17598 -4.77397 1.24946 
-4.28329 -4.76349 1.14526 
-4.41522 -4.7569 1.1303 
-4.50895 -4.7674 1.39314 
-4.74103 -4.75186 1.29606 
-4.86832 -4.7501 1.36457 
-4.96721 -4.75146 1.46706 
-5.09975 -4.73848 1.33762 
-5.20551 -4.72874 1.24546 
-5.3317 -4.72915 1.35218 
-5.44146 -4.71481 1.18056 
6.27076 -5.01929 -1.85347 
5.9999 -5.03978 -1.27583 
5.89612 -5.01001 -1.72755 
5.75785 -5.03438 -1.18373 
5.64568 -5.01438 -1.45428 
5.52176 -5.02519 -1.16416 
5.4055 -5.01388 -1.27595 
5.27069 -5.04326 -0.645041 
5.13666 -5.04252 -0.553815 
5.01847 -5.05949 -0.157988 
4.89881 -5.03811 -0.447156 
4.55046 -5.04871 0.014307 
4.41257 -5.04882 0.123856 
4.30874 -5.04574 0.149699 
4.16217 -5.0653 0.614095 
4.06222 -5.05354 0.48172 
3.93481 -5.04662 0.457211 
3.82136 -5.05564 0.70722 
3.57065 -5.07955 1.33082 
3.4449 -5.06761 1.21526 
3.32343 -5.10146 1.9159 
3.19674 -5.08701 1.7562 
3.08605 -5.10263 2.12229 
2.96324 -5.09023 1.99632 
2.85325 -5.10627 2.36925 
2.72385 -5.09252 2.22413 
2.61377 -5.10432 2.52131 
2.49605 -5.09453 2.43801 
2.37965 -5.11221 2.84542 
2.26104 -5.10477 2.80498 
2.15127 -5.11064 2.99582 
2.02828 -5.10125 2.92373 
1.92182 -5.10333 3.04419 
1.56786 -5.08348 2.96545 
1.46756 -5.09624 3.2723 
1.34161 -5.08988 3.25686 
1.2384 -5.09758 3.47538 
1.11638 -5.07948 3.24682 
1.01154 -5.08098 3.35546 
0.662278 -5.05284 3.12484 
0.566913 -5.04547 3.06743 
0.432087 -5.03464 2.979 
0.335989 -5.02601 2.8997 
0.208759 -5.01131 2.73611 
0.108679 -4.9922 2.47228 
-0.0161348 -4.98846 2.50295 
-0.117758 -4.98774 2.56947 
-0.240217 -4.96791 2.31022 
-0.345871 -4.93289 1.76597 
-0.475355 -4.94174 2.02571 
-0.57624 -4.92508 1.80634 
-0.705785 -4.89915 1.44347 
-0.807252 -4.89377 1.42668 
-0.937601 -4.88937 1.44991 
-1.03836 -4.88468 1.4447 
-1.16767 -4.88124 1.48427 
-1.26933 -4.87694 1.4869 
-1.39606 -4.86922 1.44783 
-1.50205 -4.86559 1.46578 
-1.62508 -4.85544 1.38036 
-1.72998 -4.85161 1.39382 
-1.96115 -4.84478 1.45258 
-2.09467 -4.81776 1.07338 
-2.19029 -4.82644 1.30354 
-2.33035 -4.80053 0.949346 
-2.42722 -4.80348 1.07801 
-2.56119 -4.79403 1.01368 
-2.65921 -4.79668 1.13792 
-2.89551 -4.77705 0.971547 
-3.0235 -4.76444 0.845985 
-3.12848 -4.76106 0.867624 
-3.25233 -4.76224 0.985716 
-3.35539 -4.76537 1.12256 
-3.48526 -4.75734 1.08047 
-3.58345 -4.76437 1.28336 
-3.71764 -4.74918 1.11647 
-3.81287 -4.75252 1.2509 
-3.94498 -4.746 1.23769 
-4.0406 -4.75245 1.42808 
-4.17924 -4.73158 1.16296 
-4.27912 -4.72859 1.18777 
-4.51248 -4.72061 1.22778 
-4.73978 -4.71258 1.26218 
-4.86373 -4.71452 1.394 
-4.96674 -4.70885 1.37321 
-5.10113 -4.69582 1.24529 
-5.1988 -4.70016 1.39966 
-5.43743 -4.68068 1.23789 
6.01426 -4.99082 -1.48857 
5.89835 -4.97433 -1.69199 
5.76555 -4.99659 -1.19288 
5.64755 -4.97694 -1.45096 
5.51712 -4.99555 -1.01858 
5.39779 -4.98432 -1.12569 
5.25658 -5.02515 -0.289479 
5.13602 -5.00782 -0.504267 
5.01982 -5.0221 -0.15983 
4.89775 -5.00238 -0.416056 
4.66379 -4.99526 -0.360988 
4.55894 -4.98984 -0.375971 
4.42029 -5.0074 0.0441966 
4.16488 -5.02689 0.589505 
4.06346 -5.01821 0.513779 
3.93684 -5.01041 0.473454 
3.83224 -5.0103 0.552729 
3.70506 -4.99994 0.467236 
3.56853 -5.04493 1.37405 
3.45309 -5.02002 1.02047 
3.32965 -5.05608 1.75829 
3.19578 -5.05704 1.87935 
3.09058 -5.06167 2.04366 
2.96552 -5.0453 1.84954 
2.84754 -5.07441 2.45945 
2.72815 -5.05262 2.16439 
2.61336 -5.07707 2.68887 
2.49701 -5.05761 2.4329 
2.38082 -5.07106 2.76266 
2.26136 -5.06161 2.68741 
2.15244 -5.07552 3.01974 
2.02911 -5.06044 2.84724 
1.92394 -5.07196 3.13411 
1.56898 -5.05768 3.15626 
1.46726 -5.06494 3.36466 
1.34295 -5.05738 3.3267 
1.23765 -5.05726 3.40655 
1.11838 -5.04926 3.35704 
1.01325 -5.03928 3.26116 
0.664624 -5.02453 3.26999 
0.56527 -5.00612 3.01956 
0.435869 -4.99579 2.93654 
0.3393 -4.98447 2.81019 
0.208415 -4.98019 2.83594 
0.1101 -4.9668 2.67408 
-0.0149417 -4.95942 2.64008 
-0.120543 -4.92483 2.10645 
-0.238321 -4.93845 2.4407 
-0.345191 -4.91009 2.01907 
-0.470972 -4.89919 1.92294 
-0.572456 -4.88082 1.67494 
-0.701208 -4.87249 1.62709 
-0.804076 -4.86309 1.5398 
-0.933828 -4.86448 1.66553 
-1.04128 -4.8487 1.46833 
-1.16475 -4.84694 1.53325 
-1.2683 -4.83483 1.39838 
-1.39358 -4.82846 1.38257 
-1.5 -4.8253 1.4093 
-1.62389 -4.81835 1.38202 
-1.72989 -4.81028 1.32101 
-1.96218 -4.78908 1.12464 
-2.09275 -4.78686 1.18687 
-2.18951 -4.78628 1.25198 
-2.32474 -4.76948 1.05817 
-2.42701 -4.76906 1.13054 
-2.56275 -4.74885 0.876551 
-2.66076 -4.75028 0.978267 
-2.89178 -4.73686 0.919557 
-3.0218 -4.73 0.898724 
-3.12434 -4.73474 1.06318 
-3.24994 -4.72526 0.992243 
-3.35288 -4.72923 1.14338 
-3.48534 -4.71677 1.02469 
-3.58162 -4.7184 1.12883 
-3.80761 -4.71996 1.33296 
-3.94338 -4.70582 1.18704 
-4.04012 -4.70978 1.33311 
-4.17032 -4.70587 1.36506 
-4.28073 -4.69018 1.1718 
-4.4188 -4.6708 0.934504 
-4.50635 -4.68796 1.30847 
-4.73322 -4.68303 1.39764 
-4.86642 -4.67129 1.29263 
-4.97139 -4.66198 1.20878 
-5.09159 -4.66778 1.40584 
-5.19847 -4.66011 1.35283 
-5.43381 -4.64492 1.26597 
6.26631 -4.95179 -1.70677 
6.01921 -4.95158 -1.51961 
5.9163 -4.9214 -1.9742 
5.77897 -4.94913 -1.37732 
5.64948 -4.93955 -1.44678 
5.54095 -4.93751 -1.39903 
5.40626 -4.94129 -1.22796 
5.27919 -4.96 -0.798615 
5.15669 -4.93856 -1.08338 
5.02778 -4.97435 -0.350259 
4.87412 -5.00489 0.309097 
4.5478 -4.97752 0.0771212 
4.43031 -4.96261 -0.0958998 
4.16766 -4.99054 0.601748 
4.06557 -4.98146 0.519983 
3.93745 -4.97513 0.507092 
3.83021 -4.97939 0.665513 
3.57573 -4.99982 1.22407 
3.44889 -4.99087 1.16373 
3.33025 -5.01884 1.75075 
3.20925 -5.00566 1.61102 
3.08872 -5.02786 2.09743 
2.96085 -5.02298 2.11006 
2.85386 -5.03019 2.32053 
2.72824 -5.02241 2.28006 
2.61907 -5.02686 2.44335 
2.49488 -5.02778 2.5558 
2.38256 -5.03927 2.84629 
2.26438 -5.02144 2.62209 
2.15393 -5.03765 2.99459 
2.03111 -5.02114 2.7976 
1.92352 -5.044 3.28553 
1.69566 -5.03564 3.3141 
1.57055 -5.02148 3.1604 
1.46801 -5.02827 3.35995 
1.34516 -5.01948 3.29956 
1.2403 -5.02178 3.42161 
1.12103 -5.00798 3.26975 
1.01565 -5.00125 3.2322 
0.791481 -4.99593 3.31181 
0.666086 -4.98383 3.19494 
0.566988 -4.96937 3.01567 
0.43867 -4.96208 2.98619 
0.339638 -4.95178 2.88059 
0.210912 -4.94868 2.92548 
0.111456 -4.92033 2.50065 
-0.0132895 -4.92214 2.62946 
-0.117333 -4.89351 2.20328 
-0.237464 -4.89505 2.32382 
-0.343617 -4.87752 2.09572 
-0.469507 -4.85738 1.83687 
-0.570099 -4.85824 1.92998 
-0.701325 -4.83482 1.61721 
-0.803199 -4.81738 1.38736 
-1.0416 -4.80466 1.34714 
-1.16463 -4.80406 1.43198 
-1.26661 -4.80183 1.47161 
-1.39122 -4.79156 1.38649 
-1.49779 -4.78919 1.42718 
-1.62537 -4.77178 1.2179 
-1.72781 -4.77296 1.31832 
-1.96351 -4.74165 0.946948 
-2.09424 -4.74275 1.06792 
-2.19179 -4.74326 1.15265 
-2.32343 -4.73768 1.15601 
-2.42758 -4.72793 1.06429 
-2.55898 -4.71044 0.856553 
-2.662 -4.705 0.840199 
-2.89013 -4.70468 1.01167 
-3.02076 -4.69354 0.915923 
-3.12449 -4.69314 0.989339 
-3.25291 -4.68398 0.926874 
-3.35172 -4.68899 1.09226 
-3.48108 -4.67911 1.01786 
-3.58122 -4.67797 1.07549 
-3.71213 -4.67251 1.08043 
-3.81196 -4.67723 1.24162 
-3.9404 -4.6708 1.22754 
-4.03567 -4.67808 1.4304 
-4.17234 -4.65686 1.16077 
-4.27525 -4.65673 1.23849 
-4.41221 -4.64106 1.06745 
-4.50604 -4.64932 1.28666 
-4.74055 -4.63377 1.19359 
-4.86404 -4.63429 1.29875 
-4.97125 -4.62369 1.19445 
-5.1929 -4.62962 1.47165 
-5.42846 -4.61315 1.36321 
6.27722 -4.90884 -1.80662 
6.13818 -4.9089 -1.69852 
6.02631 -4.9106 -1.58261 
5.8872 -4.9096 -1.49313 
5.77981 -4.90894 -1.42214 
5.62957 -4.92209 -1.07502 
5.53381 -4.9087 -1.23704 
5.3917 -4.92207 -0.892322 
5.27924 -4.92535 -0.747911 
5.15513 -4.91338 -0.863089 
5.01217 -4.96257 0.112817 
4.89515 -4.94328 -0.136634 
4.66277 -4.93069 -0.179203 
4.55203 -4.93518 -0.0149882 
4.42792 -4.92651 -0.0718523 
4.17094 -4.95033 0.545332 
4.06013 -4.95395 0.694523 
3.93981 -4.94013 0.543916 
3.82851 -4.94602 0.733405 
3.71652 -4.91884 0.341215 
3.58254 -4.95553 1.09037 
3.45682 -4.94589 1.01765 
3.33248 -4.98249 1.7577 
3.19753 -4.98606 1.92453 
3.09655 -4.9833 1.95396 
2.97235 -4.97124 1.83734 
2.85729 -4.99138 2.28062 
2.72947 -4.9906 2.36541 
2.61854 -4.99954 2.60831 
2.49457 -4.99087 2.55126 
2.38468 -5.00287 2.84743 
2.26051 -4.99602 2.82252 
2.1564 -5.00172 3.00321 
2.03003 -4.99648 3.00852 
1.92904 -4.99752 3.10461 
1.69891 -4.99183 3.18205 
1.57271 -4.98159 3.09907 
1.47098 -4.98697 3.2724 
1.34722 -4.97944 3.23534 
1.24279 -4.98129 3.34847 
1.12457 -4.9675 3.19698 
1.01691 -4.9654 3.24297 
0.797105 -4.94488 3.05144 
0.666405 -4.94157 3.09408 
0.567668 -4.93428 3.04189 
0.440558 -4.92576 2.98994 
0.344418 -4.91938 2.95193 
0.208948 -4.91919 3.05312 
0.113326 -4.88441 2.51474 
-0.0128057 -4.895 2.79846 
-0.114945 -4.86767 2.39614 
-0.234821 -4.86648 2.46773 
-0.342027 -4.8426 2.13016 
-0.467713 -4.82553 1.92671 
-0.565592 -4.82668 2.02245 
-0.701978 -4.81466 1.91626 
-0.800199 -4.79797 1.69817 
-0.933286 -4.77783 1.44644 
-1.03332 -4.7742 1.45975 
-1.16318 -4.77226 1.52598 
-1.26728 -4.76608 1.49759 
-1.39025 -4.75658 1.42522 
-1.49873 -4.74066 1.22883 
-1.62129 -4.74599 1.4174 
-1.72524 -4.73434 1.29259 
-1.96084 -4.70962 1.03932 
-2.08857 -4.70816 1.11241 
-2.19295 -4.69788 1.01208 
-2.32696 -4.6876 0.934621 
-2.42441 -4.68776 1.0127 
-2.55331 -4.68252 1.02012 
-2.65826 -4.67828 1.02655 
-2.89554 -4.64883 0.691531 
-3.02059 -4.64729 0.761019 
-3.11882 -4.65782 1.02237 
-3.25662 -4.63573 0.739918 
-3.35054 -4.64946 1.05438 
-3.48017 -4.64489 1.07424 
-3.58282 -4.64504 1.15613 
-3.70927 -4.6354 1.08426 
-3.8096 -4.63872 1.22026 
-3.94306 -4.62633 1.10544 
-4.03537 -4.63595 1.34626 
-4.17497 -4.615 1.08532 
-4.27292 -4.61906 1.2326 
-4.41003 -4.60395 1.07257 
-4.50309 -4.61283 1.30097 
-4.73659 -4.60002 1.25612 
-4.85869 -4.60277 1.399 
-4.96356 -4.59378 1.32195 
-5.19023 -4.59025 1.43517 
-5.42895 -4.57329 1.32132 
6.27841 -4.87265 -1.77956 
6.0356 -4.86819 -1.67154 
5.91365 -4.85007 -1.8954 
5.65579 -4.86137 -1.49987 
5.53723 -4.87033 -1.25216 
5.39836 -4.87606 -1.04537 
5.27783 -4.89424 -0.634688 
5.14925 -4.8865 -0.671738 
5.0237 -4.91498 -0.07675 
4.90976 -4.88188 -0.568862 
4.78698 -4.9136 0.0806059 
4.67452 -4.87902 -0.438583 
4.54411 -4.91302 0.256755 
4.42977 -4.88586 -0.13106 
4.31155 -4.8979 0.170456 
4.17481 -4.90987 0.48484 
4.05867 -4.92221 0.790017 
3.94595 -4.89547 0.408496 
3.8392 -4.89366 0.458635 
3.71449 -4.88717 0.4407 
3.58964 -4.91305 0.989573 
3.46045 -4.90897 1.01743 
3.33165 -4.94727 1.78677 
3.20003 -4.94673 1.87848 
3.08976 -4.96024 2.19963 
2.97225 -4.93363 1.824 
2.86061 -4.95212 2.23331 
2.73462 -4.94432 2.1936 
2.61976 -4.96347 2.61709 
2.50067 -4.94781 2.43437 
2.38701 -4.9667 2.85242 
2.26507 -4.95169 2.68319 
2.15867 -4.96405 2.98142 
2.03322 -4.95538 2.92594 
1.93012 -4.96397 3.15551 
1.70076 -4.95794 3.22614 
1.57327 -4.94959 3.17803 
1.47118 -4.95568 3.36312 
1.34871 -4.94493 3.26891 
1.24604 -4.94683 3.38109 
1.12452 -4.9306 3.19038 
1.0224 -4.9248 3.16723 
0.669093 -4.91822 3.32367 
0.571157 -4.90037 3.08637 
0.443191 -4.88428 2.90299 
0.345519 -4.88978 3.07434 
0.210969 -4.89128 3.20404 
0.115984 -4.85004 2.55494 
-0.00985316 -4.844 2.54601 
-0.111474 -4.82449 2.28248 
-0.23152 -4.83247 2.51465 
-0.340149 -4.80499 2.1169 
-0.466378 -4.78858 1.92658 
-0.564979 -4.77826 1.82181 
-0.695347 -4.78223 1.99165 
-0.798464 -4.76109 1.70069 
-0.92801 -4.75549 1.70234 
-1.03024 -4.73896 1.49149 
-1.15753 -4.74088 1.62303 
-1.26377 -4.72841 1.48644 
-1.38739 -4.72506 1.52293 
-1.49526 -4.7052 1.258 
-1.61989 -4.70499 1.35025 
-1.72493 -4.69841 1.31587 
-1.95745 -4.67979 1.16871 
-2.0855 -4.67708 1.21993 
-2.18736 -4.66807 1.14039 
-2.31981 -4.65494 1.01251 
-2.42637 -4.64952 0.999603 
-2.55639 -4.63098 0.775014 
-2.65669 -4.64403 1.0808 
-2.88801 -4.62582 0.939897 
-3.01271 -4.62538 1.02832 
-3.1165 -4.61743 0.96899 
-3.24834 -4.61769 1.07506 
-3.34493 -4.61927 1.17707 
-3.47927 -4.60599 1.04798 
-3.58381 -4.60321 1.0798 
-3.71536 -4.59034 0.955754 
-3.80054 -4.6141 1.43744 
-3.93608 -4.59873 1.27266 
-4.03598 -4.59624 1.30612 
-4.17241 -4.57958 1.11942 
-4.27204 -4.57727 1.15566 
-4.41007 -4.56315 1.01476 
-4.50302 -4.57388 1.27444 
-4.7351 -4.56336 1.26898 
-4.86217 -4.55668 1.25001 
-4.96161 -4.5563 1.32 
-5.09065 -4.5499 1.30723 
-5.19214 -4.54934 1.37571 
-5.42789 -4.53303 1.27189 
6.14604 -4.82532 -1.84479 
6.03897 -4.82456 -1.77626 
5.89702 -4.82932 -1.58517 
5.77171 -4.84722 -1.1778 
5.65134 -4.8295 -1.39448 
5.52356 -4.84889 -0.959333 
5.40508 -4.83167 -1.16879 
5.28689 -4.84667 -0.817267 
5.15301 -4.84292 -0.780394 
5.03023 -4.86984 -0.217868 
4.89681 -4.87314 -0.0585547 
4.66227 -4.86262 -0.06263 
4.5643 -4.85606 -0.101963 
4.42763 -4.8534 -0.0438465 
4.17202 -4.87587 0.542741 
4.06988 -4.87257 0.563208 
3.94261 -4.86578 0.542258 
3.82199 -4.88733 1.00969 
3.71507 -4.84633 0.377494 
3.58314 -4.89069 1.25086 
3.46149 -4.87262 1.02918 
3.34122 -4.90121 1.61884 
3.21107 -4.89995 1.69646 
3.09823 -4.91274 2.0055 
2.97264 -4.9022 1.91793 
2.73805 -4.90807 2.19953 
2.62579 -4.92364 2.55649 
2.50191 -4.91751 2.54459 
2.39165 -4.92206 2.70823 
2.26511 -4.92181 2.80059 
2.15873 -4.93396 3.09356 
2.03765 -4.91071 2.78121 
1.93594 -4.92215 3.0584 
1.7033 -4.91996 3.19818 
1.57479 -4.90824 3.09244 
1.47393 -4.92225 3.41352 
1.35086 -4.9063 3.22994 
1.2477 -4.90242 3.24137 
1.12969 -4.89049 3.12392 
1.02229 -4.89199 3.23237 
0.799393 -4.87882 3.1735 
0.669717 -4.87317 3.17451 
0.57453 -4.87436 3.26807 
0.442622 -4.8504 2.95179 
0.345233 -4.86163 3.22194 
0.213123 -4.85045 3.12827 
0.118938 -4.8199 2.66844 
-0.00670725 -4.80868 2.56919 
-0.109399 -4.8024 2.53842 
-0.229623 -4.78742 2.36961 
-0.338722 -4.7733 2.2073 
-0.462294 -4.76393 2.13879 
-0.563302 -4.73803 1.76509 
-0.695318 -4.72935 1.71506 
-0.928782 -4.70814 1.52448 
-1.02701 -4.7073 1.58518 
-1.15748 -4.69931 1.54582 
-1.26071 -4.6939 1.53078 
-1.38741 -4.68101 1.40342 
-1.49382 -4.67335 1.35143 
-1.62125 -4.66434 1.29226 
-1.72169 -4.67135 1.49132 
-1.95378 -4.64266 1.16948 
-2.08606 -4.62594 0.979606 
-2.18869 -4.63436 1.20495 
-2.31673 -4.61914 1.03806 
-2.42072 -4.61321 1.01448 
-2.5542 -4.59989 0.884661 
-2.66481 -4.5754 0.542985 
-2.88748 -4.5839 0.861785 
-3.00793 -4.58936 1.04928 
-3.12032 -4.57426 0.872354 
-3.24392 -4.57598 0.997216 
-3.34429 -4.58315 1.19904 
-3.47985 -4.56111 0.91906 
-3.58021 -4.56651 1.09014 
-3.70918 -4.56235 1.11668 
-3.80195 -4.57121 1.34211 
-3.93618 -4.56069 1.26185 
-4.03634 -4.55487 1.2373 
-4.17054 -4.54411 1.15288 
-4.26665 -4.55076 1.3424 
-4.41139 -4.51864 0.893975 
-4.50776 -4.52199 1.02637 
-4.73266 -4.52303 1.2171 
-4.96147 -4.51732 1.2932 
-5.09095 -4.51192 1.29858 
-5.19721 -4.50569 1.27164 
6.26942 -4.80476 -1.63981 
6.02369 -4.80426 -1.46173 
5.92327 -4.77052 -1.96968 
5.76681 -4.81685 -1.04839 
5.64897 -4.79708 -1.30127 
5.52802 -4.80725 -1.03316 
5.41899 -4.78287 -1.37252 
5.28825 -4.80908 -0.819208 
5.15669 -4.80168 -0.847264 
5.00949 -4.85762 0.233419 
4.90032 -4.83337 -0.103517 
4.79419 -4.83164 -0.0527891 
4.56105 -4.82027 -0.0723187 
4.42911 -4.81637 -0.0394322 
4.28352 -4.87529 1.09165 
4.17299 -4.84179 0.595724 
4.07315 -4.83094 0.483697 
3.94853 -4.82615 0.495667 
3.83982 -4.82419 0.54441 
3.58714 -4.85046 1.19178 
3.46744 -4.83101 0.945991 
3.3352 -4.87461 1.80173 
3.2155 -4.85883 1.61959 
3.09079 -4.89151 2.28049 
2.96595 -4.88 2.17628 
2.86394 -4.87934 2.24254 
2.73838 -4.86827 2.14637 
2.62693 -4.88833 2.57869 
2.50729 -4.87648 2.4646 
2.39261 -4.89321 2.84174 
2.26983 -4.88533 2.79885 
2.16292 -4.89092 2.97714 
2.03932 -4.87446 2.78612 
1.93169 -4.8877 3.09743 
1.70316 -4.88405 3.20832 
1.57905 -4.86664 3.00136 
1.47626 -4.88243 3.35329 
1.35142 -4.87859 3.38197 
1.25053 -4.87156 3.33707 
1.13064 -4.85632 3.16445 
1.02377 -4.85232 3.17663 
0.800613 -4.84436 3.20884 
0.672603 -4.83168 3.08686 
0.57388 -4.82734 3.08699 
0.446272 -4.81463 2.96408 
0.346107 -4.8258 3.23398 
0.217672 -4.78381 2.60461 
0.119805 -4.77748 2.56956 
-0.107297 -4.75819 2.40857 
-0.228866 -4.74265 2.23215 
-0.336318 -4.73017 2.09796 
-0.462253 -4.72124 2.03932 
-0.562777 -4.71104 1.93926 
-0.691745 -4.69185 1.70525 
-0.7923 -4.68851 1.72406 
-0.927632 -4.68161 1.70775 
-1.02643 -4.6789 1.7363 
-1.15558 -4.65886 1.48761 
-1.25869 -4.65246 1.45541 
-1.38297 -4.66289 1.73087 
-1.49238 -4.63731 1.37129 
-1.61632 -4.62903 1.32247 
-1.72142 -4.61379 1.13876 
-1.95199 -4.60151 1.10202 
-2.08034 -4.60151 1.19999 
-2.19504 -4.57849 0.888759 
-2.3183 -4.5732 0.891189 
-2.42287 -4.57003 0.916099 
-2.5504 -4.5694 1.00257 
-2.64787 -4.57415 1.15921 
-2.88431 -4.55329 0.978344 
-3.00995 -4.54525 0.934961 
-3.11405 -4.54936 1.08578 
-3.34754 -4.53517 1.01818 
-3.47792 -4.52891 1.00943 
-3.57279 -4.53485 1.18478 
-3.70594 -4.52251 1.07274 
-3.8032 -4.5277 1.23687 
-3.94131 -4.50715 0.986519 
-4.02983 -4.52799 1.41507 
-4.16812 -4.50799 1.1743 
-4.27114 -4.50201 1.14934 
-4.4102 -4.47785 0.83714 
-4.50143 -4.49187 1.14976 
-4.73067 -4.48592 1.22185 
-4.86631 -4.475 1.13633 
-4.95574 -4.48498 1.37757 
-5.09069 -4.47116 1.24144 
-5.19652 -4.46762 1.261 
-5.3282 -4.45409 1.12723 
-5.42224 -4.46086 1.31646 
6.1757 -4.72892 -2.22502 
6.02435 -4.77035 -1.39693 
5.91206 -4.74313 -1.78073 
5.77801 -4.76752 -1.25913 
5.67794 -4.73496 -1.74431 
5.53327 -4.76628 -1.09522 
5.41031 -4.75494 -1.19743 
5.28677 -4.77563 -0.747603 
5.14751 -4.78501 -0.480487 
5.03668 -4.79335 -0.253009 
4.91314 -4.77628 -0.453457 
4.66705 -4.78469 -0.122037 
4.56381 -4.7756 -0.200363 
4.42914 -4.78416 0.0489969 
4.18293 -4.79195 0.369855 
4.07989 -4.78639 0.352078 
3.94978 -4.78659 0.454134 
3.84324 -4.78814 0.56158 
3.72645 -4.75509 0.0808352 
3.59039 -4.80946 1.12065 
3.46739 -4.79311 0.932218 
3.33857 -4.8355 1.76005 
3.21601 -4.82171 1.61552 
3.10071 -4.84774 2.1513 
2.96768 -4.83443 2.02291 
2.86097 -4.85204 2.40726 
2.73905 -4.83701 2.24072 
2.62527 -4.85519 2.64021 
2.50747 -4.84338 2.52618 
2.39432 -4.84928 2.71363 
2.27247 -4.8412 2.66692 
2.16304 -4.85915 3.05909 
2.03799 -4.84028 2.82893 
1.93608 -4.85049 3.08208 
1.7056 -4.84498 3.1622 
1.582 -4.82984 2.99509 
1.47874 -4.84583 3.34902 
1.35331 -4.84179 3.37453 
1.25434 -4.82921 3.23291 
1.12886 -4.82413 3.24078 
1.02425 -4.81795 3.2137 
0.673415 -4.79554 3.09393 
0.577099 -4.78233 2.93946 
0.446799 -4.78567 3.09598 
0.348358 -4.76221 2.7666 
0.21999 -4.74841 2.62627 
0.121039 -4.74362 2.61884 
-0.0050824 -4.75204 2.8598 
-0.107236 -4.7219 2.418 
-0.230431 -4.72586 2.57991 
-0.334684 -4.70439 2.28909 
-0.458181 -4.68295 2.01365 
-0.56191 -4.6844 2.1174 
-0.689991 -4.66321 1.8496 
-0.923701 -4.65215 1.83669 
-1.02233 -4.64055 1.71172 
-1.1533 -4.63042 1.63666 
-1.25736 -4.61804 1.50245 
-1.38178 -4.62023 1.63473 
-1.48984 -4.59284 1.24493 
-1.61381 -4.59266 1.33611 
-1.71953 -4.58562 1.29516 
-1.94779 -4.56669 1.14245 
-2.08259 -4.55217 0.994785 
-2.1899 -4.54705 0.98804 
-2.31507 -4.54275 1.00918 
-2.41953 -4.53347 0.928698 
-2.54997 -4.5169 0.742416 
-2.65237 -4.51945 0.864136 
-2.88373 -4.5095 0.868661 
-3.01727 -4.48679 0.578964 
-3.11141 -4.51501 1.13678 
-3.24028 -4.50396 1.04443 
-3.34216 -4.50568 1.15148 
-3.4753 -4.49033 0.988349 
-3.57191 -4.49381 1.12172 
-3.80322 -4.486 1.16326 
-3.93157 -4.4842 1.22975 
-4.03364 -4.48212 1.27158 
-4.17071 -4.46323 1.05048 
-4.27061 -4.46179 1.10173 
-4.4015 -4.45184 1.02986 
-4.49944 -4.45402 1.14192 
-4.72854 -4.45095 1.26351 
-4.86116 -4.43956 1.16812 
-4.96075 -4.4395 1.24296 
-5.0883 -4.43234 1.21659 
-5.19835 -4.42302 1.13986 
-5.3274 -4.41482 1.09681 
-5.42432 -4.42076 1.27297 
6.29971 -4.70743 -2.03669 
6.02608 -4.73369 -1.38071 
5.93586 -4.68523 -2.14295 
5.80551 -4.70777 -1.65841 
5.67426 -4.70007 -1.69146 
5.52844 -4.73806 -0.930645 
5.40888 -4.72306 -1.09736 
5.29583 -4.7294 -0.903521 
5.15662 -4.73594 -0.686482 
5.02892 -4.77211 0.0294558 
4.90905 -4.75574 -0.160462 
4.55714 -4.75545 0.100051 
4.42622 -4.75532 0.196654 
4.31105 -4.76207 0.399098 
4.1879 -4.7501 0.286987 
4.07825 -4.75558 0.463786 
3.95191 -4.74711 0.413923 
3.84664 -4.74359 0.433152 
3.59756 -4.76733 1.02798 
3.4599 -4.77726 1.30208 
3.34014 -4.79877 1.761 
3.21315 -4.79172 1.73603 
3.10801 -4.79971 1.9525 
2.96761 -4.80285 2.11225 
2.86288 -4.81569 2.41135 
2.74392 -4.79195 2.09446 
2.6292 -4.80635 2.42795 
2.50981 -4.80079 2.42278 
2.39373 -4.82081 2.8536 
2.27379 -4.80703 2.70803 
2.1688 -4.81312 2.89167 
2.04132 -4.80442 2.83896 
1.93589 -4.81964 3.17948 
1.71071 -4.80592 3.11454 
1.58247 -4.7994 3.09976 
1.47953 -4.81148 3.38462 
1.35532 -4.80386 3.34795 
1.2545 -4.79631 3.29469 
1.13202 -4.78209 3.14377 
1.02594 -4.78406 3.25765 
0.804352 -4.77197 3.21805 
0.676458 -4.7679 3.24507 
0.575256 -4.75376 3.07918 
0.449197 -4.73247 2.8097 
0.349812 -4.73075 2.8554 
0.219955 -4.72321 2.82436 
0.122454 -4.70912 2.65664 
-0.104067 -4.68264 2.3743 
-0.22865 -4.68854 2.56969 
-0.333061 -4.66573 2.25779 
-0.457861 -4.66157 2.28084 
-0.557487 -4.64263 2.03168 
-0.690226 -4.64317 2.14133 
-0.78806 -4.61511 1.73446 
-0.921305 -4.60905 1.73146 
-1.02056 -4.59872 1.62953 
-1.15133 -4.58705 1.52855 
-1.25825 -4.57199 1.35128 
-1.37979 -4.57548 1.50318 
-1.48641 -4.56592 1.42001 
-1.61529 -4.54467 1.15336 
-1.71913 -4.54519 1.24091 
-1.95389 -4.52866 1.13531 
-2.08153 -4.51642 1.02222 
-2.18512 -4.5103 0.995805 
-2.31851 -4.4855 0.671621 
-2.41134 -4.50477 1.07219 
-2.54616 -4.48525 0.839837 
-2.64992 -4.48419 0.900228 
-2.88317 -4.47177 0.864081 
-3.01468 -4.45629 0.698261 
-3.1108 -4.47015 1.00869 
-3.24795 -4.44397 0.66383 
-3.3411 -4.46762 1.13974 
-3.48019 -4.43582 0.700081 
-3.57208 -4.45748 1.14094 
-3.70396 -4.44789 1.07653 
-3.79878 -4.45308 1.23742 
-3.936 -4.43691 1.06423 
-4.03568 -4.43676 1.13709 
-4.17047 -4.42547 1.04581 
-4.26888 -4.42391 1.09371 
-4.40076 -4.41381 1.02059 
-4.49639 -4.42135 1.22224 
-4.73036 -4.41234 1.24519 
-4.85116 -4.41278 1.34433 
-4.95126 -4.41406 1.44214 
-5.08329 -4.40349 1.36113 
-5.19535 -4.38752 1.17237 
-5.33141 -4.37375 1.03955 
-5.41808 -4.38781 1.34633 
6.3061 -4.66749 -2.07676 
6.02625 -4.69837 -1.3405 
5.95423 -4.63399 -2.38362 
5.8002 -4.67516 -1.56643 
5.66186 -4.67701 -1.43098 
5.54264 -4.6853 -1.20009 
5.41192 -4.68416 -1.12133 
5.29752 -4.69199 -0.901981 
5.15815 -4.70445 -0.584946 
5.0276 -4.73675 0.0635254 
4.91101 -4.71306 -0.252561 
4.67793 -4.69759 -0.341108 
4.56969 -4.70212 -0.182539 
4.44446 -4.69339 -0.237094 
4.3088 -4.73016 0.491457 
4.18472 -4.72319 0.465966 
4.08303 -4.71523 0.406655 
3.94961 -4.71788 0.552133 
3.83977 -4.72217 0.707945 
3.72179 -4.69943 0.409113 
3.58705 -4.75013 1.37448 
3.47097 -4.71939 0.937928 
3.34438 -4.76355 1.78568 
3.21345 -4.75943 1.81392 
3.09938 -4.77825 2.2205 
2.97763 -4.75356 1.89126 
2.86548 -4.77675 2.37083 
2.74514 -4.75673 2.12028 
2.62954 -4.77791 2.56825 
2.51261 -4.76061 2.36127 
2.39517 -4.78779 2.9129 
2.27654 -4.76832 2.67047 
2.16781 -4.78239 2.99203 
2.04718 -4.76343 2.75967 
1.94177 -4.76775 2.91261 
1.70987 -4.77001 3.12579 
1.5813 -4.76906 3.20629 
1.48032 -4.7748 3.38018 
1.35767 -4.76377 3.28451 
1.25549 -4.75467 3.2064 
1.13339 -4.74885 3.1991 
1.02998 -4.74444 3.20175 
0.807274 -4.73149 3.14873 
0.676527 -4.71682 2.99711 
0.577714 -4.71435 3.02951 
0.451055 -4.7002 2.88366 
0.351792 -4.69935 2.94405 
0.224506 -4.68401 2.77832 
0.123454 -4.67593 2.71671 
-0.102662 -4.64741 2.40107 
-0.224765 -4.64869 2.5148 
-0.331442 -4.6387 2.4249 
-0.456958 -4.63218 2.40824 
-0.555936 -4.62049 2.28369 
-0.690584 -4.60779 2.16857 
-0.78989 -4.58642 1.87923 
-0.919363 -4.57885 1.84774 
-1.01862 -4.58676 2.05733 
-1.14938 -4.5585 1.6741 
-1.25457 -4.54681 1.55428 
-1.37783 -4.53878 1.51021 
-1.48246 -4.53682 1.55563 
-1.60951 -4.51535 1.28546 
-1.71703 -4.50343 1.16342 
-1.95388 -4.48068 0.954182 
-2.07877 -4.47775 0.99831 
-2.17887 -4.47762 1.07152 
-2.31777 -4.45198 0.739175 
-2.4188 -4.45334 0.838619 
-2.54646 -4.45007 0.87908 
-2.65032 -4.44178 0.816234 
-2.88303 -4.43025 0.795155 
-3.01371 -4.41545 0.64137 
-3.11536 -4.42192 0.828366 
-3.24577 -4.40869 0.701218 
-3.33985 -4.42775 1.09725 
-3.47123 -4.41711 1.01494 
-3.56582 -4.42443 1.21114 
-3.70048 -4.41141 1.0908 
-3.80065 -4.40776 1.10408 
-3.9394 -4.3894 0.895881 
-4.03357 -4.39533 1.06806 
-4.17188 -4.38211 0.946996 
-4.26716 -4.38375 1.0469 
-4.40108 -4.37186 0.945314 
-4.50056 -4.37796 1.12437 
-4.72439 -4.37712 1.27908 
-4.85626 -4.36557 1.1818 
-4.95555 -4.36894 1.31417 
-5.09202 -4.35045 1.10206 
-5.1911 -4.35498 1.25419 
-5.32027 -4.344 1.16451 
-5.41727 -4.35024 1.34413 
6.05924 -4.63287 -1.83693 
5.93075 -4.62369 -1.89646 
5.79595 -4.64407 -1.45019 
5.69639 -4.60971 -1.95827 
5.54718 -4.64556 -1.23881 
5.40705 -4.65642 -0.950044 
5.28536 -4.67506 -0.54288 
5.16933 -4.64406 -0.981704 
5.03601 -4.69206 -0.0681245 
4.90227 -4.69162 0.0245155 
4.56194 -4.68254 0.125277 
4.43144 -4.67888 0.160882 
4.32323 -4.67617 0.196053 
4.1799 -4.69663 0.65009 
4.06968 -4.69848 0.764014 
3.95517 -4.6762 0.472137 
3.83916 -4.68818 0.76206 
3.60005 -4.69663 1.08432 
3.47069 -4.6896 1.0621 
3.34904 -4.72085 1.68308 
3.21555 -4.72359 1.82948 
3.10456 -4.74033 2.19638 
2.97955 -4.72052 1.95427 
2.86798 -4.74074 2.38057 
2.74676 -4.71929 2.10776 
2.63361 -4.73759 2.50284 
2.51352 -4.72305 2.34629 
2.39786 -4.74457 2.79797 
2.27681 -4.73132 2.66395 
2.17288 -4.73809 2.85665 
2.04563 -4.72867 2.7923 
1.93824 -4.74689 3.18179 
1.71243 -4.73315 3.11816 
1.5853 -4.73142 3.18411 
1.48381 -4.73569 3.33255 
1.36059 -4.71907 3.1432 
1.2538 -4.72171 3.268 
1.13218 -4.71031 3.16591 
1.02988 -4.71327 3.29297 
0.678886 -4.68911 3.14652 
0.580895 -4.68605 3.16816 
0.453111 -4.6647 2.90204 
0.354318 -4.66526 2.98556 
0.225734 -4.65828 2.9637 
0.125697 -4.64779 2.86101 
-0.105976 -4.61637 2.50196 
-0.224177 -4.61806 2.61939 
-0.329595 -4.59144 2.24715 
-0.454368 -4.60612 2.58962 
-0.554202 -4.57864 2.19871 
-0.68771 -4.56929 2.14025 
-0.918574 -4.54159 1.844 
-1.01743 -4.53313 1.77468 
-1.14707 -4.52988 1.81682 
-1.25199 -4.51362 1.61988 
-1.37614 -4.51042 1.65891 
-1.48291 -4.4839 1.28946 
-1.60035 -4.50831 1.7914 
-1.71294 -4.47196 1.25967 
-1.94682 -4.47481 1.48358 
-2.07645 -4.44861 1.13672 
-2.18217 -4.43828 1.04088 
-2.31888 -4.4165 0.774237 
-2.41398 -4.4249 0.98822 
-2.54789 -4.40632 0.773761 
-2.64933 -4.40435 0.816422 
-2.8805 -4.39861 0.892806 
-3.01005 -4.38559 0.769407 
-3.11659 -4.37754 0.712898 
-3.23895 -4.38451 0.923096 
-3.34023 -4.3816 0.949795 
-3.47627 -4.36328 0.741446 
-3.56815 -4.37566 1.02038 
-3.70073 -4.36748 0.981405 
-3.79708 -4.38185 1.29743 
-3.92925 -4.3681 1.16362 
-4.03265 -4.35887 1.08478 
-4.18331 -4.31926 0.526276 
-4.26439 -4.35294 1.15849 
-4.4007 -4.33258 0.915637 
-4.50548 -4.33226 0.989016 
-4.72529 -4.33833 1.25734 
-4.85217 -4.33074 1.22409 
-4.95269 -4.33164 1.31485 
-5.08075 -4.32306 1.26579 
-5.18613 -4.31741 1.24919 
-5.31983 -4.30709 1.1747 
-5.41841 -4.30971 1.2933 
6.03427 -4.61789 -1.43313 
5.92845 -4.58831 -1.85301 
5.78935 -4.61478 -1.30316 
5.52981 -4.63602 -0.751562 
5.42975 -4.59794 -1.31917 
5.30109 -4.6173 -0.896861 
5.15622 -4.629 -0.59161 
5.04088 -4.64742 -0.194956 
4.9256 -4.61465 -0.661695 
4.68047 -4.62717 -0.267815 
4.55698 -4.65418 0.279633 
4.43767 -4.63629 0.0670487 
4.31066 -4.66145 0.58591 
4.18729 -4.64951 0.476596 
4.08274 -4.64691 0.510727 
3.95133 -4.64596 0.592745 
3.84076 -4.64809 0.71118 
3.73434 -4.61654 0.258445 
3.58971 -4.67875 1.41555 
3.46946 -4.65499 1.10444 
3.34241 -4.69301 1.84041 
3.21902 -4.68239 1.75336 
3.10566 -4.69515 2.0532 
2.97663 -4.69585 2.16129 
2.87813 -4.68833 2.10798 
2.74765 -4.68809 2.20128 
2.63773 -4.70045 2.4919 
2.51711 -4.68792 2.37055 
2.40082 -4.70443 2.73575 
2.28044 -4.69387 2.64753 
2.17747 -4.69557 2.75309 
2.04894 -4.68908 2.73971 
1.94082 -4.70622 3.10943 
1.71339 -4.70447 3.24974 
1.58792 -4.68778 3.06191 
1.48786 -4.69184 3.20524 
1.36191 -4.68593 3.1996 
1.25665 -4.68491 3.26104 
1.13508 -4.67213 3.13634 
1.03114 -4.67677 3.29224 
0.810288 -4.66679 3.28886 
0.680306 -4.6457 3.03018 
0.581851 -4.63768 2.96846 
0.45258 -4.63241 2.97621 
0.355165 -4.62534 2.92987 
0.226814 -4.61225 2.80492 
0.129759 -4.56361 2.05705 
-0.100677 -4.57371 2.39956 
-0.223921 -4.57432 2.50207 
-0.328732 -4.56593 2.43882 
-0.454106 -4.56524 2.52087 
-0.552718 -4.53928 2.15684 
-0.684573 -4.53884 2.24795 
-0.78145 -4.51469 1.91305 
-0.915812 -4.51127 1.95577 
-1.01841 -4.49481 1.75487 
-1.14654 -4.48746 1.72668 
-1.24925 -4.47712 1.62906 
-1.37371 -4.474 1.66962 
-1.48079 -4.45928 1.50136 
-1.60451 -4.44604 1.37057 
-1.71233 -4.43501 1.26506 
-1.94983 -4.40325 0.907089 
-2.0739 -4.41001 1.11388 
-2.18654 -4.38026 0.696258 
-2.31141 -4.38781 0.917128 
-2.41373 -4.38036 0.868056 
-2.5497 -4.36109 0.644612 
-2.64999 -4.3625 0.743483 
-2.88153 -4.34895 0.688203 
-3.01019 -4.34341 0.691004 
-3.10898 -4.35062 0.88661 
-3.2387 -4.33975 0.800221 
-3.33606 -4.35389 1.11163 
-3.46936 -4.33705 0.927481 
-3.56259 -4.34779 1.17843 
-3.69681 -4.33287 1.02711 
-3.80312 -4.32711 1.00954 
-3.93378 -4.32069 0.9991 
-4.03855 -4.30877 0.876451 
-4.16572 -4.30939 0.982262 
-4.26347 -4.31609 1.16836 
-4.39512 -4.30185 1.02683 
-4.4995 -4.29814 1.04247 
-4.72988 -4.29597 1.17829 
-4.84947 -4.29588 1.26644 
-4.9516 -4.29207 1.27861 
-5.0798 -4.28937 1.3292 
-5.18143 -4.28497 1.33113 
-5.31378 -4.27573 1.27444 
-5.41296 -4.27784 1.38431 
5.95057 -4.52823 -2.24258 
5.66534 -4.56822 -1.36012 
5.56732 -4.5559 -1.4941 
5.41657 -4.57383 -1.08141 
5.29663 -4.58853 -0.745711 
5.158 -4.59443 -0.543871 
5.04204 -4.60974 -0.20104 
4.9185 -4.59784 -0.30887 
4.56257 -4.61243 0.200099 
4.44791 -4.58168 -0.23048 
4.28801 -4.65601 1.13506 
4.18782 -4.61489 0.519721 
4.09268 -4.5989 0.322107 
3.95574 -4.60348 0.500816 
3.84614 -4.61204 0.725733 
3.59895 -4.6308 1.22423 
3.47419 -4.61579 1.06511 
3.3505 -4.65146 1.75546 
3.22528 -4.64109 1.67455 
3.10281 -4.66554 2.17563 
2.99011 -4.6396 1.82429 
2.87596 -4.65923 2.23843 
2.74946 -4.65019 2.18089 
2.63546 -4.67374 2.66068 
2.52079 -4.65246 2.389 
2.40369 -4.66347 2.66069 
2.2821 -4.66655 2.80277 
2.17354 -4.67261 2.98518 
2.05077 -4.65481 2.77789 
1.94616 -4.66003 2.94318 
1.71746 -4.66212 3.14849 
1.58917 -4.65329 3.09565 
1.48849 -4.65528 3.20396 
1.36413 -4.64659 3.15067 
1.25989 -4.64605 3.21928 
1.1402 -4.63568 3.13424 
1.03443 -4.6363 3.22335 
0.812989 -4.62302 3.16531 
0.681927 -4.62111 3.23082 
0.583393 -4.60335 3.0061 
0.454011 -4.59561 2.97262 
0.358121 -4.57681 2.72848 
0.228283 -4.58398 2.94555 
0.128131 -4.58541 3.04403 
0.00521794 -4.55821 2.67911 
-0.102645 -4.55631 2.72762 
-0.220424 -4.55374 2.77207 
-0.327243 -4.5328 2.50036 
-0.45166 -4.51446 2.2852 
-0.549329 -4.50064 2.12603 
-0.680454 -4.50049 2.22123 
-0.916132 -4.46468 1.79586 
-1.01743 -4.46128 1.81421 
-1.14252 -4.47473 2.13316 
-1.24773 -4.43717 1.58115 
-1.37188 -4.43997 1.72072 
-1.48098 -4.41643 1.40701 
-1.607 -4.40712 1.34467 
-1.71163 -4.40001 1.30326 
-1.8387 -4.39474 1.30954 
-1.94212 -4.36995 0.970516 
-2.07756 -4.36423 0.975539 
-2.18174 -4.34916 0.80019 
-2.3091 -4.35081 0.922854 
-2.41484 -4.33648 0.761115 
-2.55024 -4.32255 0.628327 
-2.64393 -4.33651 0.93242 
-2.87895 -4.31028 0.667407 
-3.00758 -4.30717 0.7111 
-3.10793 -4.31399 0.900391 
-3.23162 -4.30724 0.879309 
-3.33892 -4.30687 0.953097 
-3.46971 -4.29557 0.860993 
-3.5617 -4.3069 1.11974 
-3.7968 -4.29 1.01142 
-3.93801 -4.27056 0.790554 
-4.03206 -4.27702 0.969041 
-4.16119 -4.27364 1.00873 
-4.27005 -4.26147 0.885634 
-4.40508 -4.24343 0.683587 
-4.49415 -4.26617 1.13174 
-4.62506 -4.25743 1.08273 
-4.72445 -4.25923 1.18703 
-4.85102 -4.25256 1.16966 
-4.94019 -4.26993 1.52766 
-5.07879 -4.25042 1.30372 
-5.18492 -4.24124 1.22888 
-5.31689 -4.23292 1.1876 
-5.4129 -4.23819 1.34779 
6.07262 -4.5054 -2.08022 
5.95039 -4.4926 -2.20351 
5.80761 -4.52521 -1.55382 
5.70197 -4.50055 -1.88715 
5.5417 -4.54931 -0.955085 
5.40899 -4.54875 -0.866253 
5.30832 -4.53912 -0.952565 
5.18034 -4.5298 -1.01351 
5.04888 -4.56606 -0.311272 
4.92027 -4.56183 -0.286737 
4.57055 -4.57236 0.14766 
4.43511 -4.56667 0.152866 
4.33672 -4.55708 0.0656678 
4.19136 -4.57741 0.512575 
4.08939 -4.5715 0.489405 
3.96917 -4.54953 0.211738 
3.84597 -4.57939 0.801199 
3.59331 -4.60307 1.38338 
3.48062 -4.57342 0.971948 
3.35379 -4.61464 1.75378 
3.22861 -4.59942 1.59238 
3.11068 -4.62678 2.13626 
2.98869 -4.61451 2.02181 
2.86951 -4.63816 2.50485 
2.75317 -4.60965 2.11506 
2.63904 -4.63554 2.63168 
2.51391 -4.63193 2.66412 
2.40782 -4.62389 2.60861 
2.28826 -4.61822 2.60244 
2.17657 -4.63309 2.93342 
2.04952 -4.62167 2.83694 
1.94773 -4.62796 3.01729 
1.72076 -4.61728 3.00711 
1.59258 -4.6114 3.00399 
1.49086 -4.61844 3.19689 
1.36518 -4.61633 3.25483 
1.26256 -4.62283 3.43927 
1.14259 -4.60805 3.28157 
1.03503 -4.60263 3.27076 
0.81485 -4.58213 3.09191 
0.684941 -4.57803 3.11963 
0.583868 -4.56417 2.96328 
0.457054 -4.5637 3.04939 
0.357632 -4.55662 3.00507 
0.229576 -4.54622 2.92638 
0.129393 -4.55454 3.13946 
0.00588987 -4.53091 2.83669 
-0.0999066 -4.50753 2.52489 
-0.221362 -4.51214 2.69193 
-0.326098 -4.50279 2.61348 
-0.450664 -4.48263 2.36931 
-0.550161 -4.47324 2.28647 
-0.679779 -4.46264 2.20565 
-0.910428 -4.45659 2.27578 
-1.0127 -4.4289 1.88935 
-1.13888 -4.44532 2.25714 
-1.24423 -4.41227 1.78361 
-1.36999 -4.38922 1.49219 
-1.47824 -4.37799 1.38494 
-1.60384 -4.37947 1.50284 
-1.70905 -4.36033 1.26154 
-1.93598 -4.34433 1.1628 
-2.07286 -4.34123 1.21267 
-2.17869 -4.31217 0.806188 
-2.30875 -4.31267 0.911049 
-2.40882 -4.31032 0.946079 
-2.54631 -4.28762 0.669251 
-2.64348 -4.28885 0.761804 
-2.8749 -4.2783 0.757615 
-3.00313 -4.27563 0.80817 
-3.10532 -4.27579 0.886792 
-3.2322 -4.27049 0.892512 
-3.34059 -4.26463 0.875177 
-3.46047 -4.2712 1.0739 
-3.56523 -4.25654 0.907007 
-3.69786 -4.25493 0.978525 
-3.80138 -4.24465 0.883842 
-3.92525 -4.25181 1.09538 
-4.03145 -4.24266 1.02154 
-4.16404 -4.22576 0.837903 
-4.25908 -4.23728 1.10087 
-4.39578 -4.22379 0.977302 
-4.49536 -4.22503 1.07191 
-4.62124 -4.22092 1.09679 
-4.71898 -4.22801 1.28789 
-4.84553 -4.22114 1.26726 
-4.94419 -4.22342 1.3787 
-5.07418 -4.21641 1.35821 
-5.17924 -4.21103 1.34654 
-5.31119 -4.19855 1.23618 
-5.40588 -4.20756 1.45712 
-5.5244 -4.21176 1.61531 
-5.75406 -4.20652 1.69866 
6.06144 -4.48366 -1.80357 
5.93769 -4.4697 -1.94417 
5.68739 -4.4763 -1.65038 
5.53873 -4.51448 -0.907184 
5.44681 -4.47256 -1.53539 
5.2991 -4.51718 -0.685871 
5.17346 -4.50379 -0.81562 
5.0505 -4.52909 -0.304974 
4.92685 -4.51634 -0.425542 
4.68943 -4.50369 -0.460693 
4.57612 -4.52199 -0.0734505 
4.4416 -4.52054 0.0017208 
4.30357 -4.56728 0.879351 
4.19885 -4.53105 0.355107 
4.08969 -4.5358 0.514364 
3.96194 -4.52951 0.504104 
3.8645 -4.518 0.384765 
3.73777 -4.5042 0.249069 
3.60413 -4.55307 1.15893 
3.4707 -4.55265 1.25037 
