ply
format ascii 1.0
element vertex 1794
property float x
property float y
property float z
end_header
2.1237 1.45363 -3.16075 
1.98043 1.42606 -2.83004 
1.87684 1.43466 -2.85957 
1.73836 1.42938 -2.74103 
1.63087 1.4128 -2.53146 
1.50208 1.44379 -2.75916 
1.39003 1.42389 -2.51619 
1.2548 1.42928 -2.49968 
1.15069 1.44281 -2.57522 
1.02107 1.47166 -2.78241 
0.910626 1.44921 -2.5161 
0.780402 1.48944 -2.83007 
0.676957 1.50685 -2.94251 
0.536828 1.47771 -2.5985 
0.434224 1.49634 -2.72286 
0.300405 1.5008 -2.69823 
0.195621 1.50724 -2.70678 
-0.046134 1.49599 -2.48059 
-0.180353 1.50863 -2.53281 
-0.289049 1.51414 -2.53056 
-0.417551 1.52438 -2.56308 
-0.526832 1.51937 -2.46146 
-0.66203 1.52524 -2.4495 
-0.765843 1.51907 -2.33969 
-1.01 1.56291 -2.63089 
-1.14233 1.60125 -2.92589 
-1.24572 1.5855 -2.72621 
-1.37578 1.56716 -2.4888 
-1.48593 1.58503 -2.60217 
-1.61772 1.55719 -2.2745 
-1.72516 1.59609 -2.58721 
-1.8616 1.62608 -2.80156 
-1.97064 1.6366 -2.84628 
-2.10382 1.63888 -2.80146 
-2.21379 1.65581 -2.90607 
-2.34796 1.68914 -3.15301 
-2.45157 1.66371 -2.86199 
-2.69237 1.69332 -3.02078 
-2.83069 1.72276 -3.22905 
-2.94214 1.74564 -3.38893 
-3.0804 1.74978 -3.35903 
-3.19059 1.78205 -3.60784 
-3.32449 1.77997 -3.52155 
-3.42785 1.77994 -3.46983 
-3.82276 1.84271 -3.86397 
-4.07707 1.88764 -4.16014 
-4.32545 1.9112 -4.25819 
-4.82461 1.96101 -4.47825 
-5.065 1.97443 -4.48475 
-5.33016 2.02879 -4.86424 
-5.57245 2.03884 -4.83809 
-5.84823 2.10942 -5.36503 
-5.97039 2.14631 -5.65144 
-6.1104 2.15779 -5.68964 
-6.22031 2.16372 -5.69069 
-6.34611 2.15485 -5.54442 
-6.46681 2.17882 -5.70981 
-6.61431 2.20488 -5.8816 
-6.73796 2.24169 -6.16647 
-6.88552 2.26556 -6.31761 
-6.98107 2.24434 -6.07012 
-7.14699 2.30969 -6.60264 
-7.2735 2.34281 -6.85132 
-7.42545 2.3761 -7.08893 
-7.53482 2.37694 -7.04221 
-7.69865 2.42369 -7.40066 
-7.7725 2.36283 -6.79075 
-7.94576 2.43845 -7.4163 
-8.06888 2.46599 -7.61411 
5.22982 1.61971 -5.89435 
4.97706 1.61919 -5.76425 
4.84661 1.57816 -5.31464 
4.73935 1.64774 -5.91448 
4.63368 1.65913 -5.96898 
4.44475 1.53307 -4.69239 
4.3637 1.59845 -5.26587 
4.18566 1.47714 -4.03921 
4.07956 1.48828 -4.09121 
3.93506 1.45739 -3.72975 
3.82577 1.45583 -3.66089 
3.68807 1.4525 -3.56146 
3.59103 1.49567 -3.91841 
3.44225 1.43741 -3.29797 
3.35062 1.51571 -3.98732 
3.19383 1.44237 -3.22137 
3.10475 1.50448 -3.76014 
2.96202 1.47932 -3.45319 
2.85589 1.48486 -3.45256 
2.71374 1.45933 -3.14251 
2.6019 1.45605 -3.05631 
2.4726 1.45894 -3.01929 
2.36611 1.47193 -3.08835 
2.22827 1.46395 -2.94513 
2.125 1.49256 -3.16245 
1.98202 1.46386 -2.82216 
1.87767 1.4745 -2.87023 
1.74157 1.47545 -2.81166 
1.63545 1.47819 -2.78469 
1.50461 1.48368 -2.77129 
1.40057 1.50752 -2.94343 
1.2598 1.48281 -2.64172 
1.15667 1.50989 -2.84462 
1.01186 1.44084 -2.12472 
0.915657 1.51424 -2.76591 
0.779853 1.52083 -2.76031 
0.67778 1.51462 -2.65131 
0.538691 1.50123 -2.45661 
0.437722 1.55002 -2.8644 
0.297498 1.51641 -2.47933 
0.197381 1.55192 -2.7629 
0.0576052 1.49691 -2.17724 
-0.0476381 1.50754 -2.22475 
-0.177409 1.56777 -2.72558 
-0.287493 1.52555 -2.27462 
-0.416703 1.54345 -2.37846 
-0.524207 1.55593 -2.44219 
-0.658758 1.57321 -2.53755 
-0.76235 1.57491 -2.5021 
-0.898885 1.56565 -2.34729 
-1.00568 1.57347 -2.36763 
-1.13924 1.63729 -2.90026 
-1.24349 1.63359 -2.81378 
-1.37538 1.60663 -2.49523 
-1.48639 1.65647 -2.90777 
-1.61416 1.59229 -2.24192 
-1.72449 1.64996 -2.72841 
-1.86133 1.64557 -2.61913 
-1.96913 1.69017 -2.98422 
-2.09866 1.66553 -2.68859 
-2.21299 1.71413 -3.08787 
-2.34001 1.68449 -2.74648 
-2.45002 1.68922 -2.73624 
-2.58277 1.69428 -2.71773 
-2.68563 1.69724 -2.69433 
-2.83161 1.77084 -3.31263 
-2.94088 1.78092 -3.35286 
-3.07331 1.76706 -3.15692 
-3.31424 1.78732 -3.22723 
-3.57112 1.84836 -3.67249 
-4.84332 2.05557 -4.9845 
-5.08266 2.05857 -4.89355 
-5.32861 2.06756 -4.85557 
-5.57118 2.07952 -4.84701 
-5.85468 2.17197 -5.57375 
-6.35073 2.20135 -5.6026 
-6.60712 2.23311 -5.77301 
-6.72169 2.2504 -5.87827 
-6.8961 2.33249 -6.56203 
-7.00443 2.33766 -6.55657 
-7.14654 2.35102 -6.61121 
-7.26859 2.37952 -6.81799 
-7.40535 2.38121 -6.76572 
-7.55355 2.45509 -7.38547 
-7.67861 2.43317 -7.11737 
-7.785 2.42928 -7.0279 
-7.93921 2.46977 -7.33114 
-8.04908 2.47591 -7.33404 
-8.19991 2.50196 -7.50343 
5.68836 1.79674 -7.40763 
4.85121 1.62096 -5.34917 
4.68213 1.54877 -4.59013 
4.44343 1.55947 -4.5723 
4.33975 1.56664 -4.58812 
3.94479 1.53154 -4.06436 
3.82764 1.49738 -3.68679 
3.70635 1.57063 -4.31214 
3.59053 1.52321 -3.81118 
3.45354 1.52572 -3.76687 
3.34706 1.52156 -3.67529 
3.1031 1.52801 -3.6149 
2.96677 1.53437 -3.60702 
2.84452 1.47327 -2.97481 
2.71397 1.49393 -3.10347 
2.60555 1.50262 -3.13111 
2.46665 1.47539 -2.80755 
2.35653 1.4769 -2.76724 
2.12931 1.54818 -3.3217 
1.98124 1.49839 -2.78251 
1.88363 1.51545 -2.89379 
1.744 1.50517 -2.72845 
1.63991 1.5158 -2.77638 
1.50995 1.53947 -2.93354 
1.39594 1.52134 -2.70738 
1.26391 1.51907 -2.62082 
1.15894 1.5551 -2.90598 
1.02701 1.56788 -2.9602 
0.921517 1.56897 -2.91813 
0.783026 1.54758 -2.6493 
0.681408 1.58304 -2.93079 
0.540235 1.51666 -2.23975 
0.435192 1.54424 -2.44575 
0.200432 1.5893 -2.75104 
0.058253 1.54228 -2.24062 
-0.0429832 1.59507 -2.68442 
-0.171795 1.61055 -2.7654 
-0.283435 1.59334 -2.54902 
-0.414904 1.58716 -2.42608 
-0.522916 1.60065 -2.49877 
-0.762338 1.60861 -2.45452 
-0.898082 1.62548 -2.54503 
-1.00251 1.65805 -2.79807 
-1.13708 1.66784 -2.82299 
-1.24285 1.65828 -2.68103 
-1.37559 1.64538 -2.49445 
-1.48456 1.67785 -2.74429 
-1.72098 1.67945 -2.64196 
-1.86038 1.69573 -2.7252 
-1.96375 1.70328 -2.74457 
-2.10093 1.72587 -2.88794 
-2.20245 1.70001 -2.59553 
-2.34227 1.73001 -2.80693 
-2.45239 1.7463 -2.90471 
-2.68938 1.76301 -2.94351 
-2.82342 1.78436 -3.07675 
-2.93248 1.7948 -3.12033 
-3.06586 1.77645 -2.88241 
-6.32566 2.19525 -5.18284 
-6.86542 2.31119 -5.99963 
-6.99161 2.3557 -6.35351 
-7.17885 2.46004 -7.2371 
-7.24891 2.38476 -6.49766 
-7.383 2.38488 -6.4321 
-7.52546 2.44592 -6.93258 
-7.68617 2.49102 -7.2748 
-7.79117 2.49032 -7.21604 
-8.07784 2.56261 -7.75008 
5.39961 1.75285 -6.48303 
5.12524 1.70593 -5.90988 
4.99448 1.72642 -6.0366 
4.86727 1.68735 -5.60933 
4.69623 1.60565 -4.76275 
4.48397 1.6979 -5.51858 
4.33887 1.59899 -4.52423 
4.20919 1.62918 -4.74188 
4.10451 1.63568 -4.7508 
3.92478 1.4949 -3.34873 
3.83306 1.55451 -3.85955 
3.68591 1.50457 -3.32099 
3.59823 1.60149 -4.1819 
3.46702 1.59868 -4.0909 
3.33228 1.50119 -3.11485 
3.20255 1.52986 -3.31822 
3.10219 1.549 -3.44723 
2.95493 1.51937 -3.09807 
2.86508 1.59268 -3.73764 
2.72478 1.57223 -3.47759 
2.61632 1.57295 -3.43072 
2.4747 1.54651 -3.11407 
2.36339 1.53497 -2.95144 
2.22925 1.54324 -2.96227 
2.12674 1.56607 -3.1246 
1.98217 1.54036 -2.81328 
1.88253 1.54823 -2.83755 
1.74967 1.56272 -2.90699 
1.64297 1.55552 -2.78707 
1.50599 1.55585 -2.72249 
1.40571 1.60267 -3.10973 
1.16092 1.59706 -2.93637 
1.0225 1.54723 -2.40303 
0.927206 1.63162 -3.14331 
0.791952 1.62877 -3.04983 
0.683716 1.64255 -3.12488 
0.542851 1.59248 -2.58799 
0.43909 1.61203 -2.71911 
0.19921 1.59946 -2.48313 
0.0654574 1.62032 -2.61166 
-0.0418919 1.59994 -2.36835 
-0.171309 1.60581 -2.35906 
-0.280052 1.654 -2.75493 
-0.412449 1.65472 -2.69618 
-0.521696 1.63015 -2.41287 
-0.760341 1.65431 -2.52011 
-0.896533 1.66411 -2.54414 
-0.999481 1.66909 -2.53971 
-1.13527 1.71693 -2.91888 
-1.24354 1.69715 -2.68069 
-1.37631 1.70565 -2.69429 
-1.4834 1.72535 -2.82513 
-1.61212 1.6813 -2.35031 
-1.72045 1.72045 -2.66196 
-1.85766 1.73824 -2.76006 
-1.95952 1.72822 -2.6161 
-2.09629 1.74362 -2.69208 
-2.20462 1.7757 -2.93775 
-2.34141 1.78351 -2.9429 
-2.45035 1.78629 -2.91488 
-2.5768 1.77275 -2.72588 
-2.69292 1.8257 -3.16241 
-6.86839 2.35869 -6.06599 
-7.12942 2.40903 -6.40628 
-7.23946 2.41169 -6.3765 
-7.42385 2.50652 -7.16994 
-7.53086 2.4985 -7.04206 
-7.80022 2.54805 -7.37072 
-7.93726 2.55514 -7.36885 
-8.08351 2.61791 -7.88214 
5.71338 1.91163 -7.74523 
4.98139 1.73537 -5.74526 
4.86439 1.71908 -5.5361 
4.70481 1.65621 -4.87272 
4.48483 1.73809 -5.52607 
4.36289 1.70685 -5.1754 
4.20138 1.62786 -4.36099 
4.08608 1.60094 -4.05378 
3.96033 1.66484 -4.58622 
3.83347 1.59463 -3.87067 
3.68943 1.5514 -3.3975 
3.58949 1.59106 -3.71723 
3.46386 1.60906 -3.82269 
3.33311 1.53541 -3.07315 
3.20905 1.59291 -3.54687 
3.09834 1.55602 -3.14912 
2.96207 1.57032 -3.21497 
2.8518 1.56139 -3.07758 
2.71585 1.56688 -3.06163 
2.60655 1.57201 -3.05539 
2.476 1.58181 -3.0822 
2.36974 1.58892 -3.09599 
2.23795 1.60489 -3.17948 
2.13463 1.61149 -3.18991 
1.98508 1.58409 -2.86128 
1.88135 1.58792 -2.84572 
1.74974 1.59993 -2.89258 
1.6404 1.5936 -2.7797 
1.51246 1.61333 -2.90014 
1.4066 1.63506 -3.05009 
1.26975 1.61697 -2.81424 
1.16184 1.62533 -2.83874 
1.02675 1.61575 -2.68297 
0.923219 1.64297 -2.8851 
0.79161 1.64694 -2.85702 
0.681733 1.64882 -2.8203 
0.545779 1.64519 -2.71946 
0.440029 1.631 -2.53519 
0.302364 1.62965 -2.45468 
0.201635 1.66821 -2.76365 
0.0706853 1.65583 -2.58382 
-0.0417951 1.67691 -2.72445 
-0.169864 1.64443 -2.35895 
-0.277817 1.7037 -2.85713 
-0.410845 1.69333 -2.69495 
-0.520892 1.66455 -2.37276 
-0.655921 1.69518 -2.59108 
-0.759698 1.7044 -2.62554 
-0.895002 1.73181 -2.81378 
-0.998047 1.73501 -2.79261 
-1.13221 1.73496 -2.72588 
-1.24281 1.73925 -2.71108 
-1.37126 1.73465 -2.60486 
-1.47823 1.75366 -2.72884 
-1.71861 1.75987 -2.66779 
-1.85568 1.77198 -2.71269 
-1.95598 1.75351 -2.49135 
-2.09404 1.77784 -2.64941 
-2.202 1.79522 -2.7578 
-2.33568 1.77462 -2.50005 
-2.44858 1.85087 -3.15363 
-2.68441 1.80824 -2.64035 
-2.81639 1.82632 -2.74333 
-2.92862 1.8662 -3.05889 
-3.04185 1.7574 -1.9906 
-6.87866 2.42649 -6.31715 
-7.1508 2.49032 -6.7763 
-7.41202 2.52671 -6.98555 
-7.51131 2.50505 -6.73478 
-7.64769 2.50577 -6.67391 
-7.79691 2.58749 -7.36044 
-7.93486 2.59753 -7.3855 
-8.0911 2.67431 -8.02255 
5.81526 1.93112 -7.60449 
5.13747 1.80658 -6.1163 
4.86377 1.74737 -5.43263 
4.71939 1.7316 -5.21537 
4.61544 1.75801 -5.40917 
4.46626 1.71488 -4.93584 
4.35813 1.72379 -4.96529 
4.20166 1.65976 -4.29451 
4.10524 1.70252 -4.64369 
3.9323 1.58347 -3.45445 
3.85018 1.69734 -4.47016 
3.71309 1.68548 -4.29273 
3.58948 1.62012 -3.6257 
3.45221 1.58915 -3.27094 
3.34955 1.61602 -3.46967 
3.11382 1.65579 -3.72254 
2.97124 1.63298 -3.44079 
2.85976 1.62149 -3.27935 
2.7241 1.6276 -3.26933 
2.61562 1.63238 -3.26023 
2.47685 1.61916 -3.06934 
2.36951 1.61966 -3.02112 
2.13542 1.65104 -3.19688 
1.98907 1.62674 -2.89947 
1.88808 1.64408 -3.01063 
1.75113 1.62673 -2.78225 
1.64117 1.62724 -2.73277 
1.51236 1.65559 -2.93237 
1.40979 1.68165 -3.12351 
1.26779 1.64162 -2.6823 
1.16192 1.64886 -2.6973 
1.02952 1.66029 -2.73807 
0.926713 1.71229 -3.16977 
0.793277 1.70109 -3.00015 
0.682768 1.68777 -2.82219 
0.546445 1.67362 -2.6237 
0.442976 1.65019 -2.3554 
0.307736 1.68815 -2.64085 
0.202304 1.66626 -2.38583 
0.0704605 1.66538 -2.31268 
-0.0412308 1.69812 -2.5614 
-0.170304 1.69722 -2.48935 
-0.274094 1.72961 -2.73865 
-0.409525 1.73218 -2.69577 
-0.517131 1.7646 -2.94338 
-0.65378 1.74162 -2.66284 
-0.75895 1.77951 -2.96249 
-0.895543 1.75713 -2.68756 
-0.997927 1.75391 -2.60722 
-1.13016 1.76772 -2.67004 
-1.24335 1.79878 -2.90239 
-1.37046 1.78613 -2.7223 
-1.47533 1.78175 -2.62995 
-1.60637 1.75992 -2.36285 
-1.71483 1.79617 -2.64561 
-1.85574 1.80038 -2.61512 
-1.96245 1.84553 -2.98132 
-2.09711 1.8493 -2.9498 
-2.20244 1.85401 -2.9416 
-2.33806 1.8737 -3.05728 
-2.44153 1.86944 -2.96674 
-2.67139 1.79384 -2.15194 
-2.91463 1.83181 -2.38416 
-3.59725 1.72203 -1.02863 
-4.07268 1.74791 -1.03391 
-7.12302 2.48423 -6.35776 
-7.38303 2.51338 -6.49965 
-8.05658 2.66257 -7.55084 
6.0942 2.00249 -8.03123 
4.73059 1.79568 -5.44967 
4.60691 1.76567 -5.11145 
4.34636 1.72263 -4.58561 
4.20423 1.69657 -4.27484 
4.11577 1.77341 -4.94203 
3.95913 1.71305 -4.30692 
3.8436 1.69594 -4.09192 
3.70584 1.68367 -3.91082 
3.59823 1.69077 -3.92364 
3.47344 1.72777 -4.2046 
3.3681 1.74927 -4.35164 
3.11765 1.71445 -3.90666 
2.97612 1.68644 -3.57811 
2.86686 1.69793 -3.63069 
2.72368 1.66484 -3.25435 
2.6249 1.69548 -3.48921 
2.48236 1.68076 -3.28302 
2.37994 1.68649 -3.28564 
2.1354 1.68771 -3.17676 
1.99139 1.65656 -2.8179 
1.88619 1.66058 -2.80345 
1.76475 1.72248 -3.31618 
1.65186 1.70439 -3.09342 
1.51931 1.71252 -3.1034 
1.4087 1.7053 -2.98228 
1.27327 1.70767 -2.93761 
1.1668 1.71371 -2.94116 
1.03687 1.71936 -2.92949 
0.927188 1.752 -3.17747 
0.794558 1.7499 -3.09282 
0.682422 1.71839 -2.74619 
0.546429 1.70193 -2.52714 
0.445 1.72205 -2.66328 
0.306747 1.70825 -2.46764 
0.204014 1.71502 -2.47973 
0.0729246 1.72594 -2.51629 
-0.039348 1.70604 -2.277 
-0.170134 1.73391 -2.47033 
-0.272738 1.76641 -2.72046 
-0.409874 1.75455 -2.54328 
-0.515817 1.74006 -2.35714 
-0.650794 1.72787 -2.17793 
-0.756071 1.76859 -2.50274 
-0.892443 1.78045 -2.54533 
-0.993577 1.79618 -2.64106 
-1.12964 1.80838 -2.68691 
-1.24029 1.83253 -2.85586 
-1.36776 1.81706 -2.64997 
-1.47172 1.78847 -2.33431 
-1.71022 1.79024 -2.23325 
-1.8552 1.86467 -2.85031 
-1.96149 1.87697 -2.91175 
-2.09347 1.86675 -2.75224 
-2.19896 1.87567 -2.78278 
-2.4345 1.87725 -2.68136 
-3.58809 1.72449 -0.699808 
-3.71893 1.73506 -0.73311 
-3.8266 1.74603 -0.781509 
-3.9619 1.76726 -0.911175 
-4.05636 1.73701 -0.584819 
-4.1708 1.69783 -0.165926 
-4.53146 1.7786 -0.73526 
-4.754 1.74273 -0.293608 
-5.00811 1.80395 -0.734598 
-5.23236 1.78336 -0.433544 
-7.38357 2.55488 -6.50934 
-8.08642 2.75482 -8.01205 
-8.35739 2.7957 -8.2565 
6.09889 2.04495 -8.0549 
5.80891 1.98672 -7.37598 
4.96758 1.80316 -5.27142 
4.64467 1.89451 -5.95551 
4.45523 1.75533 -4.57935 
4.37314 1.83352 -5.26014 
4.10764 1.78159 -4.65126 
3.95982 1.73993 -4.1946 
3.83794 1.69907 -3.75818 
3.71639 1.76332 -4.29102 
3.59914 1.73039 -3.92987 
3.46677 1.733 -3.88914 
3.33874 1.65553 -3.11194 
3.20527 1.65549 -3.04619 
3.11519 1.72663 -3.65802 
2.97526 1.70959 -3.43226 
2.86422 1.71158 -3.39614 
2.73313 1.73942 -3.5886 
2.62611 1.73472 -3.49283 
2.48777 1.72189 -3.30664 
2.38181 1.72395 -3.27371 
2.23724 1.68516 -2.84504 
2.1347 1.71152 -3.03786 
1.99697 1.69998 -2.86386 
1.89436 1.73165 -3.1056 
1.75747 1.72081 -2.93844 
1.64664 1.7022 -2.71251 
1.51764 1.72797 -2.88679 
1.4148 1.76871 -3.212 
1.28046 1.75754 -3.04315 
1.17203 1.75662 -2.98142 
1.03627 1.75997 -2.94564 
0.930169 1.77605 -3.04192 
0.795126 1.76565 -2.8797 
0.687183 1.76571 -2.82723 
0.549501 1.74716 -2.58862 
0.442946 1.72352 -2.31828 
0.308652 1.75408 -2.53419 
0.204353 1.77291 -2.65663 
0.0737559 1.75341 -2.41261 
-0.0315417 1.80328 -2.82079 
-0.165066 1.79032 -2.63572 
-0.270871 1.79101 -2.59013 
-0.407782 1.78051 -2.42607 
-0.512357 1.81754 -2.71618 
-0.649291 1.79317 -2.42415 
-0.755497 1.82122 -2.63065 
-0.888185 1.83297 -2.67384 
-0.994918 1.83533 -2.64316 
-1.12993 1.86486 -2.8492 
-1.23607 1.86243 -2.77455 
-1.36401 1.82022 -2.32241 
-1.47299 1.84523 -2.49955 
-1.60532 1.83557 -2.34544 
-1.70844 1.82282 -2.17711 
-1.84832 1.85822 -2.43488 
-1.95201 1.85443 -2.34891 
-3.11448 1.7445 -0.763322 
-3.24134 1.73555 -0.618414 
-3.46551 1.70843 -0.257903 
-3.57979 1.73899 -0.483594 
-3.72288 1.79859 -0.962858 
-3.82101 1.77673 -0.712945 
-3.95606 1.79588 -0.823119 
-4.05844 1.78057 -0.631532 
-4.17492 1.75911 -0.376263 
-4.28432 1.76432 -0.370472 
-4.39386 1.72165 0.0770111 
-4.51521 1.77386 -0.344841 
-4.65569 1.8019 -0.534269 
-4.77087 1.83964 -0.825665 
-4.8962 1.82217 -0.60286 
-4.99315 1.81251 -0.465952 
-5.12236 1.81338 -0.410408 
-5.2286 1.81921 -0.411877 
-5.32934 1.77082 0.0841405 
-5.47131 1.85009 -0.577183 
-7.92096 2.703 -7.23783 
6.00214 2.10465 -8.18735 
4.97737 1.86393 -5.47319 
4.8955 1.92152 -5.96266 
4.74663 1.90381 -5.72706 
4.64087 1.91303 -5.76015 
4.47581 1.85271 -5.1248 
4.38648 1.89804 -5.49792 
4.10515 1.81536 -4.60014 
3.9734 1.82458 -4.62042 
3.71804 1.80225 -4.29021 
3.59265 1.72452 -3.51425 
3.47766 1.82191 -4.35339 
3.35692 1.74485 -3.58583 
3.10905 1.75212 -3.53135 
2.97819 1.76516 -3.58723 
2.86689 1.76614 -3.54175 
2.73752 1.77139 -3.52672 
2.62785 1.77459 -3.50245 
2.48884 1.74061 -3.12199 
2.39238 1.78744 -3.5053 
2.13303 1.73096 -2.85904 
2.00553 1.76624 -3.12097 
1.89643 1.76971 -3.09947 
1.76973 1.8073 -3.38309 
1.65914 1.78036 -3.08123 
1.52437 1.78814 -3.08671 
1.40842 1.76024 -2.77343 
1.27704 1.77115 -2.80932 
1.17726 1.81441 -3.15828 
1.03247 1.75529 -2.54369 
0.932451 1.80918 -2.99026 
0.79877 1.79971 -2.83765 
0.691179 1.78756 -2.67323 
0.553416 1.78996 -2.62776 
0.453144 1.84703 -3.10341 
0.312122 1.80345 -2.63353 
0.20564 1.81221 -2.66191 
0.0760265 1.82047 -2.67431 
-0.0278383 1.83739 -2.779 
-0.16488 1.82028 -2.55447 
-0.267649 1.82906 -2.58479 
-0.406072 1.84917 -2.70186 
-0.510001 1.87979 -2.93252 
-0.645338 1.84969 -2.58937 
-0.753185 1.87972 -2.81259 
-0.883441 1.88941 -2.83779 
-0.993318 1.90619 -2.93824 
-1.1274 1.87379 -2.57456 
-1.23461 1.90791 -2.83574 
-1.36508 1.89811 -2.68156 
-1.46555 1.81786 -1.89433 
-1.60389 1.87101 -2.3152 
-1.70971 1.88575 -2.39887 
-1.84805 1.93357 -2.77078 
-1.95318 1.92753 -2.6636 
-2.07988 1.89653 -2.31632 
-3.00328 1.76812 -0.682133 
-3.10165 1.7367 -0.344896 
-3.23994 1.77187 -0.600453 
-3.34296 1.76149 -0.454354 
-3.47623 1.78053 -0.564047 
-3.58252 1.79908 -0.682399 
-3.71901 1.82413 -0.845766 
-3.81838 1.81416 -0.705235 
-3.94862 1.81548 -0.653381 
-4.05437 1.81069 -0.557402 
-4.18527 1.83033 -0.673738 
-4.28626 1.81721 -0.503454 
-4.51838 1.82256 -0.438576 
-4.63958 1.80006 -0.172112 
-4.76429 1.86369 -0.696051 
-4.89468 1.85712 -0.571544 
-4.99526 1.85791 -0.529316 
-5.12166 1.85207 -0.413467 
-5.21759 1.839 -0.246103 
-5.46129 1.87195 -0.429352 
-5.59064 1.86969 -0.345019 
-5.71488 1.91914 -0.738705 
6.08525 2.09088 -7.73304 
5.84594 2.12555 -7.93422 
4.97598 1.89429 -5.3896 
4.89682 1.96378 -5.98808 
4.39649 1.96013 -5.7104 
4.20023 1.78848 -4.04091 
4.11974 1.89282 -4.95817 
3.97646 1.87565 -4.73081 
3.83516 1.74558 -3.46939 
3.71616 1.82354 -4.12602 
3.61418 1.84424 -4.266 
3.46812 1.80352 -3.82129 
3.36635 1.8237 -3.95658 
3.21846 1.77581 -3.44535 
2.9858 1.83589 -3.88246 
2.87174 1.81551 -3.63992 
2.73513 1.78406 -3.2849 
2.63522 1.85503 -3.88674 
2.49365 1.80176 -3.3291 
2.38662 1.79262 -3.19302 
2.24254 1.76296 -2.85068 
2.00794 1.81151 -3.18117 
1.90033 1.80147 -3.03654 
1.76657 1.81171 -3.065 
1.6577 1.80619 -2.96121 
1.52788 1.83357 -3.14879 
1.40983 1.799 -2.77408 
1.17467 1.83015 -2.94468 
1.0389 1.78628 -2.47605 
0.937874 1.83805 -2.9013 
0.801517 1.8122 -2.59766 
0.694399 1.84814 -2.87477 
0.553008 1.81595 -2.51042 
0.451332 1.84645 -2.74038 
0.20684 1.8431 -2.59 
0.0746814 1.83102 -2.41463 
-0.0269792 1.859 -2.62142 
-0.160348 1.86003 -2.56554 
-0.267513 1.86456 -2.55471 
-0.405426 1.89331 -2.75083 
-0.505445 1.86707 -2.4612 
-0.641633 1.89907 -2.68803 
-0.750893 1.90333 -2.67358 
-0.881484 1.91478 -2.7146 
-0.990115 1.91236 -2.63924 
-1.12389 1.92263 -2.66789 
-1.23204 1.95202 -2.88449 
-1.35959 1.88347 -2.19345 
-1.5982 1.87913 -2.03676 
-1.69425 1.79232 -1.19372 
-1.8433 1.94303 -2.50269 
-1.94351 1.91937 -2.23663 
-2.53016 1.77498 -0.625173 
-2.76812 1.79228 -0.667204 
-2.87065 1.78126 -0.515969 
-2.99511 1.77598 -0.406488 
-3.09594 1.76293 -0.237416 
-3.22992 1.77919 -0.320877 
-3.44678 1.73799 0.163252 
-3.57329 1.81337 -0.465989 
-3.70723 1.83556 -0.603812 
-3.82013 1.86188 -0.789781 
-3.94963 1.86559 -0.760262 
-4.03456 1.80654 -0.177095 
-4.1729 1.83287 -0.350727 
-4.28686 1.85214 -0.471602 
-4.401 1.82264 -0.145094 
-4.51905 1.86103 -0.439183 
-4.63191 1.82321 -0.0369872 
-4.75965 1.88717 -0.56091 
-4.89594 1.91084 -0.711116 
-4.9787 1.86296 -0.231394 
-5.1388 1.93946 -0.854406 
-5.20798 1.86114 -0.102204 
-5.33546 1.86134 -0.041493 
-5.46215 1.91164 -0.440645 
-5.57241 1.8759 -0.0587107 
-5.70779 1.94777 -0.65141 
-5.81132 1.89568 -0.122933 
5.47554 2.16247 -7.72446 
5.2414 1.95825 -5.74354 
5.01198 2.01012 -6.10599 
4.89181 1.9926 -5.88727 
4.72804 1.93977 -5.32453 
4.61154 1.90502 -4.95012 
4.47718 1.92342 -5.0529 
4.38655 1.96927 -5.42785 
4.21296 1.86896 -4.42631 
4.11965 1.93303 -4.96647 
3.96659 1.87222 -4.33601 
3.86854 1.90367 -4.57579 
3.71926 1.85969 -4.1009 
3.61729 1.89989 -4.41869 
3.46853 1.83389 -3.74284 
3.36745 1.87134 -4.03594 
3.22718 1.82335 -3.5288 
3.10436 1.78568 -3.12454 
2.9779 1.8205 -3.38121 
2.87294 1.84586 -3.56193 
2.73858 1.82793 -3.33244 
2.63259 1.86086 -3.58182 
2.49096 1.81897 -3.12977 
2.38601 1.82985 -3.17806 
2.25237 1.83098 -3.12318 
2.14692 1.85687 -3.30839 
2.01495 1.86594 -3.32693 
1.90907 1.89475 -3.53865 
1.76316 1.83416 -2.91359 
1.66031 1.86701 -3.16371 
1.52155 1.83144 -2.7708 
1.42299 1.88826 -3.24212 
1.28379 1.85434 -2.86412 
1.17241 1.85062 -2.77572 
1.0415 1.85493 -2.75124 
0.936836 1.85695 -2.71862 
0.800858 1.8622 -2.70026 
0.691471 1.86226 -2.64736 
0.558513 1.8591 -2.55354 
0.44992 1.87745 -2.66825 
0.313138 1.85353 -2.38277 
0.209804 1.87847 -2.56034 
0.0782322 1.91021 -2.7863 
-0.0285033 1.87304 -2.39434 
-0.159234 1.89719 -2.55127 
-0.267806 1.9191 -2.69849 
-0.399171 1.92333 -2.67304 
-0.504948 1.91242 -2.52158 
-0.640106 1.93072 -2.62289 
-0.747303 1.95611 -2.80266 
-0.881913 1.93936 -2.58376 
-0.990215 1.9309 -2.45344 
-1.1232 1.98793 -2.90989 
-1.23057 1.98111 -2.79503 
-1.35621 1.90148 -2.00554 
-1.59601 1.94426 -2.27947 
-2.39591 1.78162 -0.401249 
-2.51122 1.741 0.0265776 
-2.63216 1.81046 -0.549387 
-2.76069 1.80024 -0.393114 
-3.00934 1.87666 -0.970251 
-3.10605 1.84349 -0.619629 
-3.22561 1.80204 -0.182118 
-3.33565 1.83328 -0.413895 
-3.46126 1.814 -0.176134 
-3.57576 1.86034 -0.543837 
-3.69524 1.83217 -0.227728 
-3.79912 1.8432 -0.277812 
-3.95081 1.91619 -0.870981 
-4.04442 1.87642 -0.461417 
-4.16546 1.86209 -0.27113 
-4.29001 1.90239 -0.578748 
-4.39725 1.85619 -0.103738 
-4.49144 1.83909 0.0987594 
-4.66339 1.95158 -0.845672 
-4.75176 1.91032 -0.425124 
-4.88662 1.92833 -0.523786 
-4.99358 1.93592 -0.540775 
-5.11012 1.913 -0.274145 
-5.22672 1.94113 -0.474265 
-5.46124 1.9548 -0.48442 
-5.69159 1.9574 -0.395348 
-5.80832 1.93346 -0.119188 
-5.9224 1.9571 -0.279511 
5.75976 2.24501 -8.24953 
5.2594 2.03354 -6.0787 
5.04505 2.12397 -6.79876 
4.652 2.05143 -5.94646 
4.4583 1.9001 -4.47281 
4.2241 1.92879 -4.62042 
3.97825 1.94623 -4.65985 
3.86105 1.90687 -4.24406 
3.71906 1.88287 -3.9562 
3.61085 1.89114 -3.97895 
3.4651 1.83836 -3.42684 
3.36584 1.87482 -3.7109 
3.22795 1.85601 -3.47239 
3.11726 1.86509 -3.50123 
2.98157 1.87155 -3.49404 
2.87325 1.8685 -3.41351 
2.74848 1.9083 -3.71563 
2.63117 1.87589 -3.36306 
2.50003 1.88663 -3.39709 
2.394 1.90389 -3.50284 
2.25295 1.883 -3.24373 
2.14801 1.88134 -3.1775 
2.01448 1.89527 -3.23946 
1.90339 1.89026 -3.13966 
1.76608 1.86936 -2.8823 
1.66879 1.92314 -3.32514 
1.52836 1.89267 -2.97897 
1.41172 1.86365 -2.65758 
1.28036 1.86389 -2.59577 
1.17538 1.88794 -2.76386 
1.04333 1.88074 -2.6339 
0.936682 1.90113 -2.7678 
0.80209 1.93381 -3.00014 
0.688895 1.90455 -2.67826 
0.558668 1.89082 -2.48959 
0.451436 1.89558 -2.48067 
0.320095 1.9086 -2.53537 
0.212729 1.91933 -2.58084 
0.0784509 1.91465 -2.47274 
-0.0240289 1.93367 -2.59613 
-0.157197 1.93446 -2.53847 
-0.267081 1.97477 -2.8523 
-0.397537 1.95207 -2.58175 
-0.504978 1.94487 -2.46373 
-0.641961 1.97886 -2.70679 
-0.743458 1.97049 -2.58095 
-0.879628 1.9695 -2.50559 
-0.98455 1.98621 -2.60671 
-1.12165 2.0084 -2.74212 
-1.22868 2.00557 -2.66409 
-1.35563 1.93937 -1.99865 
-1.58515 1.88355 -1.3777 
-1.68679 1.83136 -0.852293 
-1.93677 1.90886 -1.43684 
-2.28513 1.80416 -0.312293 
-2.50506 1.75689 0.226102 
-2.61277 1.78374 0.033935 
-2.75938 1.84644 -0.466185 
-2.87024 1.87248 -0.64941 
-3.0071 1.91997 -1.01558 
-3.10012 1.85902 -0.414461 
-3.22469 1.85695 -0.334699 
-3.32304 1.83467 -0.0835706 
-3.45512 1.84339 -0.0985452 
-3.56109 1.85841 -0.183689 
-3.70997 1.92013 -0.673724 
-3.7978 1.88071 -0.2714 
-3.94135 1.92472 -0.602511 
-4.04369 1.91509 -0.464724 
-4.16692 1.90642 -0.325471 
-4.26518 1.88657 -0.0964878 
-4.39223 1.88655 -0.034155 
-4.51223 1.92457 -0.322183 
-4.64289 1.93886 -0.388661 
-4.7439 1.93635 -0.316338 
-4.8881 1.97395 -0.588697 
-4.98453 1.95744 -0.391075 
-5.1082 1.95521 -0.310289 
-5.22647 1.98401 -0.515029 
-5.45024 1.9715 -0.291572 
-5.57171 1.95866 -0.11504 
-5.68325 1.98285 -0.281075 
-5.80887 1.97345 -0.133926 
-5.92088 1.99886 -0.310893 
-6.1379 1.96909 0.0666901 
5.83807 2.22151 -7.70821 
5.73442 2.23259 -7.75855 
5.44759 2.16499 -7.00498 
4.97395 1.99193 -5.20219 
4.77044 2.09487 -6.03905 
4.63935 2.05066 -5.57354 
4.50188 2.06504 -5.6375 
4.39371 2.058 -5.52099 
4.22862 1.97542 -4.69028 
4.12052 2.00055 -4.86617 
3.95946 1.90265 -3.89817 
3.86735 1.96399 -4.41099 
3.7221 1.94047 -4.12662 
3.60778 1.91211 -3.81333 
3.47137 1.91192 -3.74532 
3.36678 1.90548 -3.636 
3.12014 1.9019 -3.48364 
2.98546 1.91176 -3.5078 
2.88371 1.92952 -3.61984 
2.74601 1.91897 -3.45702 
2.63947 1.96221 -3.79825 
2.49455 1.89588 -3.12493 
2.39639 1.94495 -3.52325 
2.15507 1.94784 -3.43226 
2.00796 1.89852 -2.91243 
1.89942 1.88774 -2.76165 
1.77498 1.94031 -3.17898 
1.66548 1.93615 -3.08793 
1.53246 1.94949 -3.14455 
1.41482 1.91455 -2.76973 
1.28557 1.93286 -2.8733 
1.18058 1.93904 -2.87841 
1.04527 1.91322 -2.57787 
0.937417 1.96398 -2.98681 
0.802418 1.95148 -2.80754 
0.692479 1.93758 -2.62774 
0.558697 1.9251 -2.44917 
0.455017 1.93436 -2.48287 
0.322087 1.9468 -2.53133 
0.212897 1.95431 -2.54644 
0.0798893 1.9484 -2.42802 
-0.023336 1.9674 -2.55044 
-0.155923 1.99688 -2.75388 
-0.264755 1.99166 -2.65346 
-0.398362 2.00258 -2.68776 
-0.504142 1.98662 -2.49118 
-0.743448 2.01706 -2.65139 
-0.985756 2.01278 -2.49449 
-1.22898 2.05661 -2.77448 
-2.04589 1.84312 -0.435739 
-2.15488 1.84023 -0.356298 
-2.26906 1.79037 0.152565 
-2.38074 1.84125 -0.255493 
-2.49656 1.77658 0.3889 
-2.61034 1.81322 0.111218 
-2.76116 1.90494 -0.649117 
-2.85572 1.86579 -0.247086 
-2.98962 1.88303 -0.338543 
-3.08698 1.87044 -0.17666 
-3.22333 1.88477 -0.24041 
-3.32395 1.87942 -0.142766 
-3.45014 1.87218 -0.0153494 
-3.55614 1.88775 -0.105291 
-3.68283 1.87712 0.0531443 
-3.80976 1.9503 -0.550283 
-3.94113 1.96186 -0.591234 
-4.03021 1.92079 -0.174419 
-4.16757 1.94173 -0.297777 
-4.27329 1.94754 -0.299038 
-4.39669 1.93782 -0.150457 
-4.50509 1.95814 -0.282375 
-4.63431 1.96274 -0.261167 
-4.75114 1.99148 -0.465415 
-4.88578 2.00184 -0.493935 
-4.9849 1.99878 -0.41772 
-5.10099 1.98073 -0.196944 
-5.20696 1.98294 -0.16539 
-5.45604 2.02481 -0.424428 
-5.57283 1.99847 -0.128002 
-5.68623 2.02894 -0.349673 
-5.81493 2.0292 -0.289181 
-5.91235 2.01939 -0.152403 
-6.05297 2.04223 -0.291456 
-6.14415 2.02279 -0.0702049 
5.84384 2.2669 -7.75919 
5.71304 2.22701 -7.33434 
5.5803 2.25138 -7.4909 
5.01103 2.10898 -5.92453 
4.87631 2.0641 -5.4525 
4.72997 2.04044 -5.16716 
4.66372 2.14134 -6.04953 
4.46471 1.99279 -4.60676 
4.39624 2.0936 -5.4872 
4.21472 1.96605 -4.2432 
4.12702 2.0477 -4.94079 
3.98329 2.03133 -4.72268 
3.87678 2.03596 -4.71303 
3.73332 2.02268 -4.52315 
3.62174 2.00517 -4.31032 
3.48854 2.01388 -4.32469 
3.37618 1.98957 -4.04992 
3.22445 1.91733 -3.3216 
3.12634 1.96666 -3.72111 
2.98065 1.92655 -3.28687 
2.88079 1.95386 -3.48594 
2.7522 1.98255 -3.68368 
2.63513 1.95337 -3.36234 
2.50293 1.95463 -3.3097 
2.39733 1.96913 -3.38987 
2.25392 1.94766 -3.12566 
2.14971 1.95115 -3.10675 
2.01456 1.96234 -3.14261 
1.90897 1.97151 -3.17449 
1.77314 1.96137 -3.01658 
1.66698 1.96868 -3.03139 
1.53088 1.97105 -2.98678 
1.42471 1.99238 -3.12857 
1.18193 1.9675 -2.78524 
1.04504 1.9592 -2.64354 
0.94406 2.02193 -3.16308 
0.80379 1.97498 -2.66941 
0.697491 1.97686 -2.6348 
0.562595 1.98225 -2.61812 
0.456131 1.98728 -2.61208 
0.322426 1.97889 -2.47104 
0.213 1.99138 -2.53107 
0.0864854 2.00686 -2.60995 
-0.019319 2.03014 -2.76954 
-0.155641 2.03387 -2.7372 
-0.262401 2.0358 -2.70283 
-0.396775 2.02656 -2.55377 
-0.499288 2.03559 -2.58579 
-0.63805 2.04543 -2.60752 
-0.741655 2.06682 -2.75108 
-0.878855 2.04868 -2.51998 
-0.981314 2.04872 -2.47052 
-1.11686 2.06485 -2.55083 
-1.22489 2.05327 -2.39339 
-1.68218 1.88051 -0.604929 
-1.81679 1.89797 -0.697749 
-1.92123 1.91134 -0.76821 
-2.04898 1.88074 -0.428621 
-2.14599 1.85833 -0.178267 
-2.28036 1.87133 -0.230798 
-2.38096 1.8743 -0.208762 
-2.50149 1.84285 0.134949 
-2.62423 1.90074 -0.330114 
-2.74081 1.87743 -0.0620347 
-2.86252 1.93995 -0.569645 
-2.98976 1.92045 -0.330897 
-3.09148 1.92951 -0.363564 
-3.21616 1.90489 -0.0796527 
-3.32013 1.91072 -0.0818924 
-3.45843 1.9411 -0.29001 
-3.56756 1.96988 -0.497809 
-3.7061 1.98184 -0.538773 
-3.81146 2.00563 -0.703139 
-3.94018 2.00277 -0.614616 
-4.03776 1.98521 -0.40785 
-4.16311 1.9697 -0.206258 
-4.26072 1.96627 -0.127556 
-4.39543 1.9824 -0.208222 
-4.49826 1.97909 -0.128164 
-4.63179 2.00618 -0.308692 
-4.74587 2.02643 -0.436739 
-4.88028 2.03401 -0.440008 
-4.97452 2.02135 -0.279268 
-5.10983 2.04013 -0.383638 
-5.20754 2.019 -0.144512 
-5.33185 2.0156 -0.0530904 
-5.44831 2.05222 -0.328409 
-5.57171 2.04028 -0.159995 
-5.68153 2.05777 -0.265037 
-5.80889 2.06334 -0.253466 
-5.9099 2.05907 -0.16553 
-6.04785 2.07767 -0.266934 
-6.14748 2.07448 -0.189504 
-6.37271 2.0667 -0.00913511 
-8.42709 3.00098 -7.47854 
5.73485 2.30112 -7.65345 
5.63479 2.3924 -8.43003 
5.47331 2.29675 -7.4875 
4.99605 2.10875 -5.55773 
4.88439 2.11608 -5.56996 
4.75317 2.12875 -5.62094 
4.66065 2.16533 -5.90678 
4.37913 2.07966 -4.99642 
4.23469 2.07407 -4.87599 
4.12345 2.06738 -4.76167 
3.98312 2.05951 -4.62269 
3.87067 2.05528 -4.53004 
3.73302 2.04388 -4.36043 
3.63111 2.06078 -4.4638 
3.47875 1.99211 -3.7695 
3.37255 2.0017 -3.80471 
3.12834 2.00506 -3.71689 
2.98895 1.99665 -3.57336 
2.88952 2.0383 -3.90168 
2.74951 2.00093 -3.49616 
2.64 2.01503 -3.57054 
2.49694 1.96839 -3.07978 
2.40434 2.03016 -3.59317 
2.1527 1.99953 -3.19449 
2.00491 1.95017 -2.67672 
1.91332 2.00756 -3.15105 
1.77548 2.00578 -3.06817 
1.66674 2.00952 -3.04937 
1.53309 2.01515 -3.03547 
1.42517 2.01068 -2.94275 
1.28997 1.99671 -2.75094 
1.18568 2.03215 -3.02075 
1.04754 2.01117 -2.76415 
0.943418 2.02543 -2.84261 
0.8089 2.04803 -2.98171 
0.700507 2.03486 -2.81008 
0.568182 2.03472 -2.74464 
0.455576 2.0325 -2.67 
0.218224 2.03644 -2.59051 
0.0919421 2.05923 -2.73533 
-0.0185608 2.0695 -2.77455 
-0.153515 2.09982 -2.9831 
-0.259721 2.08862 -2.83035 
-0.393742 2.07865 -2.67525 
-0.498729 2.08009 -2.63732 
-0.741241 2.11573 -2.84185 
-0.876931 2.08214 -2.47238 
-0.981774 2.11688 -2.73551 
-1.6732 1.86269 -0.102304 
-1.80915 1.90328 -0.4032 
-1.9143 1.92271 -0.527837 
-2.03499 1.86742 0.0305837 
-2.14144 1.89401 -0.158099 
-2.27561 1.90306 -0.174753 
-2.37561 1.89094 -0.0166418 
-2.49914 1.87819 0.158587 
-2.61196 1.90021 0.0143899 
-2.75062 1.94954 -0.364201 
-2.84758 1.927 -0.113362 
-2.9918 1.96938 -0.426447 
-3.08898 1.96245 -0.316516 
-3.21452 1.95049 -0.147461 
-3.31884 1.95416 -0.12993 
-3.45357 1.97473 -0.250457 
-3.55671 1.97241 -0.179375 
-3.68787 1.97691 -0.156241 
-3.80418 2.0273 -0.555253 
-3.93348 2.02492 -0.470941 
-4.02511 2.00131 -0.212973 
-4.15691 1.99796 -0.11859 
-4.26341 2.01984 -0.264689 
-4.4971 2.01879 -0.141579 
-4.62803 2.03056 -0.184341 
-4.74705 2.06905 -0.474437 
-4.88004 2.07996 -0.50841 
-4.98114 2.07296 -0.395891 
-5.10354 2.06808 -0.292262 
-5.19676 2.03966 0.0100114 
-5.43328 2.06408 -0.0957874 
-5.55985 2.06377 -0.0313895 
-5.68147 2.09875 -0.288509 
-5.79419 2.07392 -0.00917392 
-5.92378 2.12751 -0.430592 
-6.03537 2.09456 -0.0784521 
-6.11382 2.05326 0.333079 
-6.37406 2.1121 -0.0722219 
5.77671 2.43138 -8.48647 
5.50142 2.3898 -7.97895 
5.25071 2.14272 -5.63127 
5.01001 2.16981 -5.7592 
4.66806 2.21685 -6.01805 
4.49561 2.14509 -5.2881 
4.39756 2.18058 -5.56053 
4.1244 2.09386 -4.64709 
3.99361 2.12778 -4.88967 
3.87933 2.12647 -4.82265 
3.74072 2.11388 -4.64223 
3.62701 2.07243 -4.2137 
3.49691 2.11232 -4.51034 
3.37707 2.05585 -3.94353 
3.14153 2.10302 -4.2548 
2.99553 2.05846 -3.78268 
2.87633 2.00128 -3.20979 
2.74933 2.03697 -3.47006 
2.64612 2.08709 -3.87181 
2.51182 2.05869 -3.55096 
2.39915 2.03875 -3.31682 
2.25759 2.03365 -3.20238 
2.16117 2.10524 -3.80097 
2.01955 2.04066 -3.15049 
1.91436 2.0369 -3.0657 
1.77942 2.05029 -3.12115 
1.6685 2.05819 -3.13867 
1.53886 2.05575 -3.05403 
1.42568 2.04226 -2.8777 
1.29381 2.04552 -2.84325 
1.19295 2.09387 -3.23027 
1.05296 2.05674 -2.82792 
0.941303 2.03409 -2.56969 
0.809717 2.05433 -2.68847 
0.702366 2.07712 -2.84189 
0.567271 2.05663 -2.59187 
0.461847 2.08139 -2.76406 
0.324888 2.0498 -2.41305 
0.225183 2.07603 -2.60116 
0.0876975 2.07295 -2.50689 
-0.0157029 2.11762 -2.85937 
-0.152564 2.12578 -2.86668 
-0.255441 2.14026 -2.94743 
-0.396108 2.11002 -2.60675 
-0.495586 2.13704 -2.80212 
-0.63157 2.11115 -2.50293 
-0.740879 2.13482 -2.66334 
-0.873002 2.0903 -2.19805 
-0.9794 2.09205 -2.16229 
-1.1121 2.1114 -2.27241 
-1.68398 1.97184 -0.737418 
-1.79865 1.90025 -0.0365982 
-1.90976 1.93217 -0.270447 
-2.04151 1.9383 -0.261796 
-2.13493 1.90144 0.115694 
-2.26772 1.92112 0.00265971 
-2.38136 1.95281 -0.227852 
-2.49266 1.89529 0.344531 
-2.59939 1.90384 0.319189 
-2.73608 1.94376 0.025626 
-2.86097 2.02184 -0.617631 
-2.97632 1.96435 -0.043453 
-3.07934 1.9691 -0.0362598 
-3.20744 1.97224 -0.00249077 
-3.3147 1.99231 -0.13139 
-3.44093 1.98145 0.0277647 
-3.54884 1.9968 -0.0582984 
-3.68952 2.02369 -0.232394 
-3.79042 2.01968 -0.147369 
-3.93317 2.06941 -0.526394 
-4.02817 2.04753 -0.28304 
-4.15669 2.03887 -0.142627 
-4.26047 2.04973 -0.19016 
-4.50435 2.08399 -0.380625 
-4.63399 2.08592 -0.335105 
-4.75064 2.11272 -0.52016 
-4.86617 2.08636 -0.226454 
-4.97298 2.09857 -0.284691 
-5.09387 2.08464 -0.100411 
-5.20119 2.0962 -0.152521 
-5.43124 2.10072 -0.0815697 
-5.54783 2.07687 0.19008 
-5.6667 2.11112 -0.0609999 
-5.80699 2.13278 -0.188164 
-5.92017 2.1596 -0.375 
-6.03112 2.12479 -0.00731873 
-6.13511 2.13142 -0.0165031 
-6.36137 2.12487 0.152406 
-6.50612 2.15713 -0.0681483 
-6.60574 2.15573 -0.00709344 
5.87731 2.44152 -8.26369 
5.7528 2.41592 -7.97365 
5.00524 2.1937 -5.61653 
4.91763 2.25606 -6.13468 
4.65783 2.22882 -5.76471 
4.49499 2.17696 -5.22022 
4.39698 2.21525 -5.51702 
4.22106 2.09717 -4.37113 
4.11075 2.08582 -4.21596 
3.97453 2.09012 -4.18886 
3.86386 2.08971 -4.13184 
3.72274 2.06952 -3.88238 
3.63493 2.1382 -4.45723 
3.48227 2.06229 -3.7014 
3.38517 2.13236 -4.2843 
3.23796 2.06657 -3.62198 
3.13373 2.07207 -3.62114 
2.98471 2.03669 -3.23137 
2.88344 2.08535 -3.61979 
2.75354 2.0793 -3.50269 
2.65047 2.13538 -3.95693 
2.50961 2.07355 -3.33334 
2.4071 2.12408 -3.73797 
2.25217 2.0388 -2.89685 
2.15613 2.08487 -3.26451 
2.01886 2.05654 -2.94361 
1.921 2.10717 -3.35138 
1.78345 2.09678 -3.1916 
1.67291 2.11271 -3.28146 
1.54032 2.10094 -3.11162 
1.43076 2.10154 -3.06414 
1.30153 2.1126 -3.10113 
1.19046 2.10429 -2.97281 
1.05777 2.12569 -3.10103 
0.94425 2.07139 -2.55822 
0.812783 2.12477 -2.97448 
0.702624 2.08827 -2.59319 
0.569184 2.10334 -2.66421 
0.462211 2.11783 -2.74268 
0.325099 2.07693 -2.30888 
0.221655 2.10696 -2.52882 
0.0866003 2.10587 -2.45377 
-0.0137826 2.16695 -2.95423 
-0.150849 2.16923 -2.90842 
-0.253903 2.16374 -2.80928 
-0.389927 2.14754 -2.59794 
-0.492753 2.17043 -2.75397 
-0.633863 2.14014 -2.41354 
-0.739729 2.15906 -2.53242 
-0.869171 2.18021 -2.65993 
-1.65652 1.87297 0.482304 
-1.7962 1.92602 0.0730946 
-1.89934 1.92337 0.146776 
-2.03015 1.94183 0.0441684 
-2.13767 1.95594 -0.0306774 
-2.26307 1.94765 0.104548 
-2.37919 1.99032 -0.22276 
-2.49434 1.94378 0.251247 
-2.59625 1.94046 0.330374 
-2.73456 1.9763 0.0752191 
-2.82833 1.94917 0.364455 
-2.97695 2.00526 -0.0677501 
-3.09033 2.05062 -0.420597 
-3.20769 2.01861 -0.0760293 
-3.32205 2.05779 -0.372916 
-3.44069 2.02384 -0.0102338 
-3.55069 2.052 -0.210103 
-3.67956 2.03934 -0.0338845 
-3.79858 2.08502 -0.386918 
-3.93235 2.11174 -0.562276 
-4.01791 2.06867 -0.133725 
-4.14839 2.06656 -0.0515881 
-4.2583 2.0834 -0.14967 
-4.37615 2.06152 0.104069 
-4.49493 2.10324 -0.213449 
-4.60336 2.06239 0.206316 
-4.73812 2.12721 -0.311112 
-4.86447 2.12179 -0.201133 
-4.98139 2.15823 -0.472015 
-5.08931 2.11726 -0.0514568 
-5.19632 2.12562 -0.0747172 
-5.42177 2.12054 0.08021 
-5.55859 2.13906 -0.0200132 
-5.67186 2.1665 -0.211733 
-5.80517 2.17073 -0.18514 
-5.92266 2.20877 -0.470199 
-6.01884 2.14206 0.176157 
-6.10805 2.12002 0.417541 
-6.37844 2.19671 -0.140777 
-6.50183 2.19116 -0.031093 
-6.60523 2.19812 -0.0434825 
6.08601 2.38492 -7.49625 
5.84039 2.40981 -7.60117 
5.76358 2.48224 -8.21325 
5.01439 2.25061 -5.77728 
4.77438 2.2886 -6.00225 
4.6822 2.32353 -6.27084 
4.48771 2.18237 -4.91235 
4.38316 2.2047 -5.06215 
4.22151 2.13232 -4.33578 
4.13248 2.20559 -4.94948 
3.96836 2.08898 -3.82554 
3.88601 2.19684 -4.75246 
3.73903 2.16417 -4.38895 
3.63125 2.15268 -4.23407 
3.49423 2.14441 -4.09398 
3.3871 2.16638 -4.2393 
3.24621 2.12705 -3.81901 
3.14066 2.1405 -3.88873 
3.00799 2.17611 -4.14392 
2.88589 2.11029 -3.49527 
2.75261 2.10182 -3.35519 
2.64803 2.15464 -3.77815 
2.51554 2.11941 -3.39867 
2.39939 2.09958 -3.16496 
2.25664 2.08788 -2.99135 
2.1677 2.14297 -3.44216 
2.0258 2.11719 -3.14281 
1.91083 2.1014 -2.94594 
1.77868 2.11679 -3.02013 
1.66761 2.1077 -2.88514 
1.53202 2.08231 -2.59221 
1.43026 2.135 -3.01538 
1.29468 2.10497 -2.68088 
1.19499 2.14976 -3.03428 
1.05517 2.12771 -2.76923 
0.949905 2.12907 -2.73065 
0.81095 2.1333 -2.70163 
0.708375 2.14796 -2.78353 
0.571647 2.13969 -2.64345 
0.466187 2.14818 -2.66869 
0.32728 2.13222 -2.4587 
0.217932 2.12871 -2.37445 
0.0918843 2.16711 -2.65785 
-0.0112882 2.1977 -2.88221 
-0.146899 2.21692 -2.98901 
-0.254329 2.18054 -2.6112 
-0.387087 2.19296 -2.65843 
-0.491641 2.23453 -2.98053 
-0.63173 2.17903 -2.41557 
-0.738462 2.17498 -2.32774 
-0.864956 2.1589 -2.12256 
-1.32681 1.95972 -0.114433 
-1.56245 1.95949 0.00139923 
-1.66173 1.95173 0.118878 
-1.79799 1.97926 -0.0620522 
-1.90693 2.01508 -0.330507 
-2.02852 1.98476 -5.39887e-05 
-2.14181 2.02507 -0.306585 
-2.25504 1.97069 0.235535 
-2.49677 1.99419 0.141622 
-2.60888 2.02676 -0.0960871 
-2.72745 1.99206 0.272241 
-2.8453 2.04592 -0.153609 
-2.97813 2.05117 -0.136494 
-3.08086 2.06215 -0.185241 
-3.20769 2.05911 -0.0967571 
-3.30605 2.04333 0.0922344 
-3.42953 2.03004 0.2711 
-3.54383 2.0652 0.0111898 
-3.69176 2.12312 -0.436513 
-3.78677 2.11325 -0.302096 
-3.91484 2.10251 -0.143892 
-4.01508 2.10045 -0.0769958 
-4.14309 2.09074 0.0719075 
-4.25744 2.13125 -0.235903 
-4.37539 2.10938 0.0171933 
-4.48287 2.1101 0.0627179 
-4.61471 2.12727 -0.0274495 
-4.7357 2.16947 -0.347202 
-4.86099 2.16178 -0.217686 
-4.96071 2.15405 -0.100211 
-5.0837 2.14855 0.00859552 
-5.19176 2.16052 -0.0464414 
-5.42767 2.17604 -0.0713684 
-5.56484 2.19223 -0.150123 
-5.66161 2.18598 -0.0472921 
-5.78886 2.18358 0.0357469 
-5.90167 2.20836 -0.131787 
-6.01643 2.18241 0.156363 
-6.12776 2.19778 0.072503 
-6.50352 2.23704 -0.097577 
-6.59635 2.22438 0.0608467 
5.46906 2.43311 -7.27318 
5.19612 2.38623 -6.7232 
5.03159 2.3308 -6.1489 
4.94121 2.37304 -6.48292 
4.73696 2.23077 -5.11358 
4.68692 2.37228 -6.35406 
4.50106 2.26908 -5.34256 
4.23369 2.2044 -4.63617 
4.13787 2.24896 -4.98833 
3.99138 2.20789 -4.55095 
3.88964 2.2395 -4.7845 
3.7588 2.26236 -4.92596 
3.63819 2.21626 -4.45601 
3.50172 2.21676 -4.39495 
3.40682 2.2792 -4.90729 
3.24067 2.13905 -3.57505 
3.14297 2.19917 -4.06527 
2.99188 2.12238 -3.30642 
2.88891 2.13669 -3.38484 
2.76182 2.19003 -3.80039 
2.64703 2.15943 -3.47178 
2.50552 2.12644 -3.10884 
2.40554 2.174 -3.48579 
2.26188 2.13195 -3.04097 
2.16093 2.14129 -3.07589 
2.02478 2.15655 -3.14671 
1.9179 2.16408 -3.16261 
1.78008 2.14988 -2.96944 
1.67328 2.16933 -3.09188 
1.54376 2.17658 -3.0943 
1.43161 2.16794 -2.96318 
1.29282 2.13243 -2.57901 
1.19587 2.17868 -2.94575 
1.05653 2.16105 -2.72106 
0.952392 2.17075 -2.7577 
0.811907 2.17248 -2.70551 
0.710668 2.20818 -2.97581 
0.574533 2.18921 -2.74074 
0.464971 2.17729 -2.58148 
0.327131 2.16026 -2.3629 
0.222633 2.15957 -2.30648 
0.0946448 2.20288 -2.63188 
-0.00742341 2.2585 -3.07984 
-0.142109 2.25603 -2.99283 
-0.251882 2.22149 -2.63132 
-0.385301 2.20034 -2.37808 
-0.490344 2.21543 -2.4623 
-0.628222 2.15236 -1.83223 
-0.733982 2.19854 -2.19401 
-1.19557 1.98854 -0.0947191 
-1.32489 1.99262 -0.0689089 
-1.55701 1.98398 0.120221 
-1.66559 2.02778 -0.218945 
-1.79553 1.99824 0.107734 
-1.90162 2.03786 -0.195182 
-2.02758 2.01795 0.0434846 
-2.12783 2.00298 0.225598 
-2.25161 1.9993 0.318184 
-2.35921 2.01025 0.272207 
-2.49872 2.04365 0.0409666 
-2.59782 2.0306 0.205391 
-2.73126 2.06573 -0.0442824 
-2.83791 2.06574 0.00712737 
-2.96442 2.06435 0.0805153 
-3.06407 2.04943 0.261995 
-3.20306 2.08219 0.036229 
-3.30304 2.07778 0.123921 
-3.42579 2.0608 0.334856 
-3.52891 2.07169 0.287313 
-3.6816 2.14206 -0.268003 
-3.78213 2.13783 -0.181675 
-3.9023 2.10862 0.137373 
-4.01457 2.13688 -0.0610504 
-4.14855 2.15151 -0.127159 
-4.24249 2.12057 0.194732 
-4.38277 2.16267 -0.11387 
-4.49105 2.17884 -0.206102 
-4.60758 2.15019 0.106249 
-4.73473 2.2071 -0.341097 
-4.86677 2.21633 -0.359808 
-4.96269 2.19966 -0.16448 
-5.08226 2.18538 0.0208934 
-5.18143 2.17966 0.11993 
-5.42331 2.20849 -0.0209625 
-5.55264 2.21146 0.0149339 
-5.66677 2.24302 -0.212045 
-5.78659 2.2181 0.0685782 
-5.89877 2.24532 -0.120557 
-6.02019 2.23116 0.0646525 
-6.10953 2.20869 0.308687 
-6.34521 2.2209 0.313417 
-6.4938 2.26129 0.0241656 
-6.60288 2.2781 -0.0734204 
5.87882 2.54176 -8.08159 
5.7616 2.54096 -8.01825 
5.50936 2.5602 -8.06878 
5.24724 2.27821 -5.43049 
4.95565 2.4472 -6.7965 
4.74941 2.29426 -5.33485 
4.51692 2.34352 -5.66225 
4.40969 2.33003 -5.49067 
4.2287 2.21862 -4.4111 
4.1554 2.34812 -5.52993 
3.99954 2.26906 -4.75067 
3.88622 2.25902 -4.60681 
3.75596 2.28142 -4.74396 
3.63413 2.22049 -4.14257 
3.49204 2.18958 -3.79894 
3.38623 2.22458 -4.06007 
3.24407 2.18977 -3.68172 
3.13443 2.17401 -3.48862 
3.01044 2.24491 -4.06096 
2.89522 2.21353 -3.72598 
2.76159 2.21807 -3.70231 
2.6486 2.19601 -3.45152 
2.50359 2.15105 -2.98128 
2.41052 2.23782 -3.70979 
2.27187 2.20035 -3.30932 
2.17268 2.24682 -3.67579 
2.02135 2.16987 -2.91744 
1.91458 2.16135 -2.79021 
1.79066 2.22643 -3.31072 
1.6756 2.20958 -3.10525 
1.54162 2.21392 -3.07959 
1.43314 2.20562 -2.95353 
1.29829 2.1861 -2.71482 
1.19094 2.19009 -2.69883 
1.05612 2.17556 -2.50454 
0.955421 2.22283 -2.87743 
0.811976 2.18384 -2.46103 
0.713299 2.25481 -3.04606 
0.573663 2.21999 -2.66863 
0.465634 2.2139 -2.56244 
0.331742 2.20215 -2.39345 
0.227385 2.20591 -2.3768 
0.0993853 2.27129 -2.89788 
-0.00516118 2.30506 -3.14862 
-0.14151 2.24976 -2.59023 
-0.248939 2.2827 -2.83213 
-0.381849 2.2437 -2.42068 
-1.09595 2.04622 -0.317243 
-1.19555 2.03347 -0.155729 
-1.33335 2.07729 -0.47991 
-1.55627 2.03559 -0.00106195 
-1.66496 2.06688 -0.227641 
-1.79122 2.03929 0.0790508 
-1.88764 2.02443 0.257887 
-2.03308 2.08156 -0.181268 
-2.12928 2.05324 0.117425 
-2.24565 2.01709 0.495667 
-2.35986 2.05466 0.215798 
-2.48404 2.03806 0.423453 
-2.59508 2.07652 0.134183 
-2.72575 2.08287 0.140436 
-2.84113 2.1197 -0.132202 
-2.97429 2.13838 -0.234585 
-3.06288 2.08753 0.261261 
-3.19628 2.10253 0.1918 
-3.29503 2.09511 0.305492 
-3.43442 2.12877 0.072667 
-3.53913 2.14433 -0.0156322 
-3.66246 2.12676 0.20045 
-3.78748 2.1922 -0.322622 
-3.91621 2.19658 -0.299708 
-4.03355 2.22164 -0.466465 
-4.14995 2.19558 -0.178141 
-4.23732 2.1473 0.294311 
-4.36728 2.16769 0.175193 
-4.48244 2.1979 -0.0385961 
-4.60973 2.19459 0.0521879 
-4.72926 2.23481 -0.248647 
-4.85862 2.2404 -0.236163 
-4.95368 2.2237 -0.0414771 
-5.08165 2.22675 -0.00698522 
-5.18403 2.23016 0.0119629 
-5.41929 2.24492 -0.00616934 
-5.55622 2.25637 -0.0422479 
-5.66283 2.27446 -0.1521 
-5.80212 2.29392 -0.258345 
-5.90131 2.29253 -0.198106 
-6.02128 2.27873 -0.017317 
-6.11274 2.25798 0.211809 
-6.33627 2.24708 0.416767 
-6.4646 2.25122 0.441751 
-6.58096 2.27621 0.275147 
-6.822 2.29899 0.188337 
5.75124 2.55852 -7.81221 
5.61355 2.57784 -7.91803 
5.48744 2.54629 -7.57735 
5.22372 2.5169 -7.18998 
4.92512 2.40464 -6.0496 
4.79581 2.43327 -6.24209 
4.69346 2.4515 -6.35508 
4.50447 2.33905 -5.26541 
4.40902 2.37112 -5.50476 
4.24594 2.29849 -4.78129 
4.14173 2.32966 -5.00834 
3.97343 2.20403 -3.81147 
3.89298 2.31856 -4.79059 
3.73599 2.23003 -3.9288 
3.63271 2.24362 -4.00013 
3.49986 2.27014 -4.17216 
3.39362 2.2815 -4.22216 
3.24517 2.22837 -3.67893 
3.14057 2.25574 -3.87202 
3.00339 2.22423 -3.52636 
2.89583 2.25193 -3.72096 
2.75904 2.24152 -3.5629 
2.64967 2.23065 -3.41392 
2.51171 2.22049 -3.25755 
2.40652 2.23303 -3.31854 
2.28004 2.26314 -3.52546 
2.16377 2.22663 -3.14538 
2.02225 2.20702 -2.90321 
1.92011 2.21591 -2.93331 
1.78526 2.23766 -3.06191 
1.68397 2.27591 -3.35329 
1.55014 2.28109 -3.33511 
1.42935 2.21315 -2.6735 
1.19451 2.24307 -2.82672 
1.05846 2.22705 -2.61917 
0.950298 2.21603 -2.46933 
0.816803 2.24811 -2.69041 
0.714692 2.26145 -2.75992 
0.575864 2.25969 -2.67767 
0.468598 2.25323 -2.56882 
0.227686 2.26808 -2.58526 
0.102684 2.34816 -3.23694 
-0.00205339 2.34834 -3.18824 
-0.141207 2.33112 -2.96845 
-0.246989 2.30841 -2.71589 
-0.382988 2.27817 -2.38187 
-0.487669 2.2698 -2.25722 
-0.963614 2.09202 -0.448731 
-1.09427 2.09076 -0.374836 
-1.19225 2.07853 -0.219022 
-1.32438 2.09109 -0.267214 
-1.55377 2.05951 0.123651 
-1.65277 2.04138 0.332307 
-1.79815 2.12969 -0.382656 
-1.8897 2.07201 0.173912 
-2.02425 2.09352 0.0474166 
-2.12386 2.08064 0.209768 
-2.2463 2.06903 0.371768 
-2.36155 2.10029 0.149291 
-2.47311 2.03079 0.820626 
-2.58923 2.09105 0.340844 
-2.71205 2.09078 0.40224 
-2.83568 2.15118 -0.0751075 
-2.96212 2.14336 0.0551956 
-3.06499 2.14559 0.0847626 
-3.20467 2.17796 -0.13578 
-3.2884 2.12958 0.334455 
-3.437 2.18597 -0.0952506 
-3.53046 2.15295 0.243203 
-3.66288 2.17069 0.149123 
-3.76931 2.18563 0.0675905 
-3.92448 2.26376 -0.552289 
-4.02093 2.23125 -0.21691 
-4.1467 2.23413 -0.182059 
-4.25086 2.2345 -0.135209 
-4.37324 2.21878 0.0633923 
-4.47372 2.22094 0.0925069 
-4.62095 2.27287 -0.298249 
-4.71452 2.24478 -0.00358834 
-4.86653 2.30335 -0.451049 
-4.95328 2.26213 -0.0428928 
-5.08062 2.27126 -0.0627759 
-5.18417 2.27278 -0.0264282 
-5.31224 2.26883 0.0703266 
-5.41756 2.27952 0.025918 
-5.54797 2.28513 0.0388794 
-5.66333 2.3155 -0.175558 
-5.79045 2.31353 -0.096885 
-5.90205 2.33213 -0.208516 
-6.01063 2.29566 0.167925 
-6.11054 2.2924 0.245055 
-6.22904 2.27694 0.439528 
-6.35901 2.33096 0.0219031 
-6.49177 2.33929 0.0118003 
-6.57261 2.3024 0.378599 
-6.73429 2.36759 -0.122956 
6.14434 2.64056 -8.37138 
5.87312 2.60677 -7.94241 
5.63476 2.6483 -8.19654 
5.23859 2.58892 -7.48116 
4.91991 2.42577 -5.88324 
4.68842 2.47889 -6.24337 
4.52985 2.43173 -5.74969 
4.40648 2.39939 -5.40417 
4.13133 2.32811 -4.64108 
3.97885 2.25854 -3.95173 
3.90083 2.37906 -4.98237 
3.7509 2.3284 -4.46184 
3.62422 2.24592 -3.67041 
3.49039 2.25627 -3.69809 
3.39038 2.3055 -4.08657 
3.1343 2.25731 -3.53709 
3.00857 2.27894 -3.66865 
2.90728 2.33714 -4.13587 
2.75635 2.25361 -3.3235 
2.64525 2.245 -3.19406 
2.51832 2.27175 -3.37038 
2.40026 2.23776 -3.01277 
2.27368 2.26745 -3.21525 
2.16905 2.30614 -3.5081 
2.0219 2.24477 -2.89383 
1.92168 2.27531 -3.11651 
1.78568 2.27083 -3.01174 
1.68043 2.26639 -2.92198 
1.54677 2.28943 -3.0622 
1.44262 2.30972 -3.19219 
1.30165 2.25592 -2.64786 
1.20151 2.31103 -3.08838 
1.05957 2.26608 -2.62204 
0.957818 2.29288 -2.81084 
0.818933 2.27678 -2.60166 
0.717314 2.31924 -2.92928 
0.577519 2.29284 -2.62838 
0.472265 2.29392 -2.58757 
0.23091 2.32728 -2.76756 
-0.00141062 2.39895 -3.29143 
-0.141654 2.34613 -2.75612 
-0.239626 2.39246 -3.11978 
-0.383864 2.30575 -2.28223 
-0.483162 2.34884 -2.61658 
-0.847 2.06719 0.0538721 
-0.953403 2.07368 0.0474119 
-1.09043 2.15597 -0.6162 
-1.19116 2.15054 -0.519782 
-1.3207 2.11944 -0.182075 
-1.53861 2.01492 0.848748 
-1.65976 2.12592 -0.076914 
-1.7815 2.09151 0.286467 
-1.89463 2.13413 -0.037071 
-2.01696 2.12698 0.0849995 
-2.11461 2.0867 0.488854 
-2.24983 2.11486 0.304146 
-2.36069 2.15192 0.0288754 
-2.48587 2.13235 0.26239 
-2.5915 2.13825 0.260734 
-2.72025 2.15236 0.197482 
-2.81571 2.12874 0.452595 
-2.96522 2.19812 -0.0905491 
-3.06526 2.19324 0.000714182 
-3.19055 2.1685 0.280054 
