ply
format ascii 1.0
element vertex 1731
property float x
property float y
property float z
end_header
2.76455 -3.33156 0.145012 
2.63855 -3.33731 0.311075 
2.52624 -3.34011 0.425742 
2.40627 -3.31178 0.0982163 
2.30024 -3.3096 0.137221 
2.17513 -3.28644 -0.112668 
1.84167 -3.23461 -0.63649 
1.7105 -3.2596 -0.190393 
1.60365 -3.23866 -0.420415 
1.4751 -3.2401 -0.314404 
1.37511 -3.22713 -0.434494 
1.24115 -3.21922 -0.45943 
1.13943 -3.20433 -0.605949 
0.90902 -3.16246 -1.05477 
0.775318 -3.16981 -0.860519 
0.667743 -3.17669 -0.690296 
0.537572 -3.15777 -0.875709 
0.435531 -3.16338 -0.72751 
0.30392 -3.14278 -0.936109 
0.19487 -3.13485 -0.977838 
-0.0326152 -3.11929 -1.05044 
-0.16887 -3.12271 -0.910833 
-0.269005 -3.10772 -1.05985 
-0.402212 -3.12517 -0.720584 
-0.506927 -3.12323 -0.67902 
-0.637639 -3.09561 -0.989231 
-0.742668 -3.10334 -0.808382 
-0.874771 -3.10376 -0.714669 
-0.973553 -3.11459 -0.493429 
-1.10048 -3.11278 -0.435217 
-1.20398 -3.11922 -0.273805 
-1.33013 -3.11561 -0.242014 
-1.43374 -3.12387 -0.0544486 
-1.58114 -3.07238 -0.696626 
-1.67748 -3.08412 -0.463921 
6.20409 -3.34876 -1.3431 
6.06349 -3.38643 -0.711585 
5.94069 -3.36498 -0.937434 
5.68315 -3.39113 -0.393561 
5.56836 -3.40639 -0.0995449 
5.43657 -3.40615 -0.0159089 
5.31982 -3.4163 0.206309 
5.18613 -3.42241 0.381884 
5.07308 -3.43166 0.588732 
4.9454 -3.42077 0.517228 
4.83936 -3.42668 0.671721 
4.59882 -3.42565 0.815854 
4.47463 -3.41216 0.704821 
4.35885 -3.42466 0.960085 
4.22762 -3.42626 1.06964 
4.13271 -3.41152 0.921377 
4.00275 -3.41257 1.02216 
3.8911 -3.41538 1.13611 
3.67777 -3.375 0.699311 
3.53864 -3.39103 1.02053 
3.44285 -3.3725 0.8187 
3.31147 -3.36853 0.848653 
3.207 -3.36903 0.924849 
3.07896 -3.35903 0.866373 
2.98879 -3.33345 0.559988 
2.86476 -3.32098 0.463487 
2.77171 -3.2859 0.0231537 
2.63828 -3.29686 0.2681 
2.53471 -3.28816 0.212008 
2.40574 -3.2805 0.18767 
2.30695 -3.24253 -0.2902 
2.17644 -3.25119 -0.0800843 
2.0744 -3.23911 -0.185567 
1.94511 -3.23638 -0.139105 
1.84334 -3.21171 -0.424819 
1.71475 -3.21603 -0.278085 
1.60989 -3.17928 -0.734545 
1.47979 -3.18786 -0.525788 
1.37607 -3.18416 -0.510138 
1.24415 -3.16845 -0.647617 
1.14289 -3.15548 -0.766202 
0.904423 -3.13478 -0.904829 
0.778224 -3.12918 -0.901453 
0.671755 -3.11772 -0.995012 
0.540646 -3.12416 -0.816163 
0.435088 -3.1169 -0.850176 
0.198517 -3.11469 -0.725311 
-0.030584 -3.08217 -1.03911 
-0.167323 -3.07306 -1.07895 
-0.26997 -3.09024 -0.765319 
-0.402668 -3.07523 -0.89226 
-0.505492 -3.07617 -0.810726 
-0.638459 -3.06116 -0.93758 
-0.741764 -3.06571 -0.804127 
-0.869939 -3.07536 -0.581267 
-0.972417 -3.08225 -0.414871 
-1.09439 -3.0816 -0.343382 
-1.20712 -3.06263 -0.540242 
-1.33611 -3.06453 -0.427656 
-1.43199 -3.08195 -0.114973 
-1.57204 -3.05198 -0.451009 
-1.67325 -3.0477 -0.445282 
-2.13243 -3.06011 0.0363348 
-2.37207 -3.0395 -0.0998877 
5.92762 -3.34647 -0.656534 
5.69139 -3.34612 -0.506192 
5.56787 -3.3753 -0.00936217 
5.43922 -3.36973 -0.00405391 
5.3133 -3.3932 0.412907 
5.08391 -3.38158 0.398381 
4.94725 -3.38388 0.520971 
4.8366 -3.39398 0.737613 
4.59103 -3.40169 1.00891 
4.47012 -3.38417 0.838934 
4.35199 -3.40477 1.21018 
4.23103 -3.38857 1.05896 
4.13681 -3.37162 0.879545 
4.00082 -3.37786 1.05801 
3.90161 -3.36773 0.978989 
3.67825 -3.3455 0.809481 
3.54458 -3.3503 0.965776 
3.44553 -3.34027 0.888081 
3.31734 -3.32404 0.741332 
3.20836 -3.33358 0.948924 
3.0988 -3.28285 0.298652 
2.98214 -3.31382 0.816579 
2.76463 -3.27307 0.379426 
2.6318 -3.27003 0.423517 
2.5345 -3.25052 0.209746 
2.41131 -3.23253 0.0347007 
2.31016 -3.22419 -0.0175013 
2.17922 -3.19623 -0.329522 
2.07404 -3.20247 -0.171284 
1.94647 -3.18978 -0.267993 
1.84263 -3.18247 -0.303778 
1.71336 -3.19124 -0.093749 
1.60943 -3.15319 -0.567201 
1.48171 -3.15427 -0.467565 
1.37655 -3.16464 -0.250601 
1.24839 -3.13191 -0.632315 
1.14642 -3.11742 -0.771579 
0.904698 -3.09325 -0.956517 
0.776642 -3.10731 -0.671895 
0.672082 -3.09701 -0.749574 
0.542205 -3.07169 -1.02475 
0.438303 -3.06899 -0.9946 
0.30739 -3.0712 -0.876941 
0.205424 -3.06916 -0.838681 
-0.033732 -3.05102 -0.939398 
-0.161736 -3.03742 -1.04872 
-0.268355 -3.04886 -0.815479 
-0.402487 -3.03666 -0.900818 
-0.505449 -3.03216 -0.896983 
-0.636055 -3.01811 -1.01097 
-0.740123 -3.02409 -0.857219 
-0.871789 -3.02595 -0.743869 
-0.971741 -3.03284 -0.579779 
-1.09669 -3.04413 -0.336533 
-1.20519 -3.03544 -0.388722 
-1.33351 -3.03481 -0.313035 
-1.44508 -3.00165 -0.711799 
-1.57436 -3.00655 -0.556698 
-1.67515 -3.00106 -0.568334 
-2.04603 -2.98881 -0.498027 
-2.13897 -2.99651 -0.327105 
-2.37561 -2.99297 -0.221293 
5.92323 -3.32403 -0.439334 
5.83092 -3.30046 -0.713115 
5.68727 -3.31659 -0.39032 
5.56683 -3.34184 0.0466248 
5.4387 -3.34129 0.122823 
5.32804 -3.34005 0.177897 
5.1868 -3.35297 0.453581 
5.06466 -3.37146 0.795857 
4.95807 -3.33834 0.396094 
4.83672 -3.35747 0.746917 
4.6133 -3.33641 0.59481 
4.47586 -3.34271 0.77437 
4.37055 -3.35845 1.06654 
4.24787 -3.32874 0.72578 
4.14281 -3.32822 0.787371 
4.00721 -3.33062 0.910384 
3.90268 -3.33035 0.975026 
3.67981 -3.30891 0.817342 
3.54886 -3.3066 0.87047 
3.44619 -3.30258 0.880862 
3.31502 -3.29941 0.921966 
3.20633 -3.30856 1.12301 
3.09435 -3.26389 0.563109 
2.98876 -3.26893 0.703971 
2.76638 -3.23237 0.33149 
2.63631 -3.22663 0.335426 
2.53267 -3.22701 0.40894 
2.40397 -3.21605 0.337938 
2.31257 -3.18317 -0.0682815 
2.17828 -3.18394 0.0308048 
1.9518 -3.13982 -0.445999 
1.84469 -3.16061 -0.0809095 
1.7168 -3.14458 -0.224195 
1.609 -3.11873 -0.519995 
1.48202 -3.13688 -0.179271 
1.37885 -3.09257 -0.739776 
1.24847 -3.11129 -0.388647 
1.14399 -3.09158 -0.599631 
1.01406 -3.09342 -0.488078 
0.909822 -3.07027 -0.74798 
0.775656 -3.05871 -0.82369 
0.669278 -3.06223 -0.703849 
0.542421 -3.03705 -0.977561 
0.439563 -3.04248 -0.833013 
0.310643 -3.02842 -0.947752 
0.204201 -3.02983 -0.857759 
0.0762716 -3.01677 -0.958844 
-0.0231356 -3.00166 -1.10781 
-0.162309 -3.00138 -1.0203 
-0.266054 -3.01511 -0.757455 
-0.39423 -3.02116 -0.58731 
-0.501032 -3.00797 -0.704225 
-0.632475 -2.99675 -0.776944 
-0.738443 -3.00096 -0.647473 
-0.868319 -2.98707 -0.759138 
-0.968855 -2.99333 -0.604203 
-1.09381 -3.0073 -0.323881 
-1.20405 -3.00121 -0.337795 
-1.32758 -3.00534 -0.197955 
-1.44657 -2.94973 -0.908427 
-1.57564 -2.958 -0.706258 
-1.67332 -2.97454 -0.407331 
6.18505 -3.2579 -1.01473 
5.94716 -3.25268 -0.933089 
5.68002 -3.29249 -0.196661 
5.57131 -3.30052 -0.0122762 
5.43699 -3.30408 0.125795 
5.33493 -3.29352 0.0434022 
5.19256 -3.30861 0.349407 
5.08439 -3.31203 0.468434 
4.94562 -3.32164 0.694733 
4.60639 -3.31386 0.806672 
4.47423 -3.30888 0.82276 
4.36993 -3.31607 0.992522 
4.2474 -3.29474 0.771471 
4.13635 -3.30312 0.962346 
4.00623 -3.30121 1.02047 
3.91358 -3.27538 0.716556 
3.67329 -3.28339 0.98667 
3.5464 -3.28139 1.04154 
3.44211 -3.27431 1.00975 
3.32185 -3.2507 0.755148 
3.22326 -3.24005 0.669299 
3.10353 -3.21415 0.381921 
2.99381 -3.21729 0.498139 
2.76323 -3.20746 0.510127 
2.63444 -3.20097 0.502835 
2.54101 -3.17189 0.153505 
2.41082 -3.16539 0.146863 
2.30964 -3.14834 -0.0275434 
2.1828 -3.12875 -0.22111 
2.0797 -3.1392 -0.00618293 
1.9525 -3.10177 -0.451251 
1.84931 -3.09704 -0.450576 
1.71958 -3.11153 -0.161 
1.61378 -3.08306 -0.493679 
1.4854 -3.08898 -0.32606 
1.37951 -3.08352 -0.333847 
1.24606 -3.06804 -0.464976 
1.14545 -3.07145 -0.350918 
0.910886 -3.02105 -0.90892 
0.778119 -3.02549 -0.75923 
0.674583 -3.01001 -0.910006 
0.440374 -3.00011 -0.896457 
0.312337 -2.98295 -1.05474 
0.206632 -2.96686 -1.21276 
-0.0215247 -2.96585 -1.07758 
-0.16179 -2.96412 -1.01012 
-0.266125 -2.9672 -0.898168 
-0.394299 -2.95345 -1.00842 
-0.503378 -2.96517 -0.771414 
-0.632774 -2.95545 -0.823787 
-0.73839 -2.96614 -0.603659 
-0.866336 -2.95768 -0.639323 
-0.964485 -2.95351 -0.633899 
-1.09536 -2.95523 -0.5238 
-1.20512 -2.93685 -0.711362 
-1.33454 -2.94542 -0.505405 
-1.44152 -2.92339 -0.746416 
-1.56927 -2.93791 -0.457665 
-1.67695 -2.92065 -0.630705 
-2.26013 -2.94017 0.0273623 
-2.37725 -2.90538 -0.387045 
5.95926 -3.2045 -1.08906 
5.82607 -3.24356 -0.453382 
5.68608 -3.249 -0.285838 
5.57652 -3.25134 -0.181548 
5.43409 -3.2717 0.19738 
5.32765 -3.26783 0.21222 
5.19591 -3.27015 0.330632 
5.07549 -3.28565 0.626927 
4.95811 -3.26984 0.481321 
4.59413 -3.3019 1.16904 
4.47248 -3.28017 0.942862 
4.3734 -3.27152 0.88588 
4.24356 -3.25963 0.803462 
4.13847 -3.26889 1.00211 
4.0105 -3.26394 1.01594 
3.91399 -3.24265 0.779587 
3.68356 -3.23498 0.822085 
3.55182 -3.23691 0.935076 
3.44672 -3.24053 1.05451 
3.31891 -3.21622 0.796081 
3.21916 -3.21014 0.77579 
3.09664 -3.18805 0.545179 
2.99771 -3.1762 0.443135 
2.77251 -3.15857 0.342193 
2.63352 -3.17064 0.602489 
2.53733 -3.15345 0.423612 
2.40811 -3.13757 0.28477 
2.31031 -3.12426 0.161525 
2.17749 -3.1112 0.0645716 
2.0812 -3.08167 -0.287672 
1.95083 -3.09458 -0.0211413 
1.8479 -3.09187 0.00797571 
1.71819 -3.08366 -0.0228406 
1.61176 -3.07091 -0.132571 
1.48346 -3.06083 -0.190564 
1.38296 -3.04846 -0.298871 
1.25006 -3.02548 -0.535062 
1.14856 -3.0171 -0.586613 
0.911461 -3.00433 -0.611332 
0.782402 -2.98661 -0.77624 
0.681066 -2.979 -0.817018 
0.544918 -2.96815 -0.880629 
0.441109 -2.97506 -0.715733 
0.310635 -2.93264 -1.22676 
0.204595 -2.93955 -1.06043 
0.0752492 -2.95273 -0.79068 
-0.025591 -2.92406 -1.12783 
-0.157846 -2.92524 -1.02485 
-0.262616 -2.92911 -0.902012 
-0.393424 -2.92554 -0.866775 
-0.503911 -2.92607 -0.787119 
-0.63092 -2.91043 -0.923967 
-0.737775 -2.91195 -0.832928 
-0.866637 -2.91496 -0.706318 
-0.960743 -2.92852 -0.454234 
-1.10062 -2.898 -0.79186 
-1.20531 -2.87773 -1.00839 
-1.32983 -2.91984 -0.335121 
-1.44017 -2.88829 -0.706468 
-1.5784 -2.86723 -0.912199 
-1.67163 -2.88992 -0.532374 
-2.13298 -2.89672 -0.135121 
-2.37244 -2.87529 -0.279793 
6.19792 -3.17394 -1.14423 
5.93919 -3.19157 -0.729616 
5.70458 -3.18272 -0.70121 
5.58214 -3.20759 -0.273634 
5.45285 -3.20756 -0.190113 
5.32553 -3.23692 0.30331 
5.18882 -3.24342 0.483103 
5.08153 -3.24613 0.590634 
4.96493 -3.2224 0.334298 
4.84517 -3.24855 0.778042 
4.61219 -3.2349 0.738335 
4.4834 -3.22876 0.736163 
4.37469 -3.24962 1.09866 
4.24419 -3.23124 0.926258 
4.13385 -3.24181 1.14578 
4.01209 -3.22259 0.956056 
3.90518 -3.22171 1.01312 
3.6885 -3.19556 0.787997 
3.54293 -3.2152 1.15753 
3.4538 -3.19334 0.90957 
3.32387 -3.17569 0.746967 
3.22553 -3.16442 0.653169 
3.09661 -3.15746 0.639601 
2.99454 -3.14126 0.479248 
2.86353 -3.15095 0.700114 
2.77248 -3.12801 0.43826 
2.63835 -3.12066 0.422688 
2.53592 -3.12308 0.523124 
2.4154 -3.09456 0.202342 
2.31081 -3.09675 0.300961 
2.17846 -3.06889 -0.00273715 
2.07988 -3.05637 -0.113851 
1.85262 -3.02895 -0.34978 
1.72194 -3.04022 -0.106999 
1.61527 -3.01502 -0.390318 
1.48669 -3.01253 -0.341507 
1.38509 -3.00143 -0.430705 
1.2525 -2.99524 -0.43113 
1.14866 -2.98226 -0.54525 
0.915916 -2.97924 -0.436036 
0.78326 -2.94248 -0.864181 
0.678489 -2.9363 -0.882384 
0.549213 -2.93618 -0.799941 
0.447274 -2.9191 -0.972697 
0.312563 -2.90163 -1.12945 
0.206801 -2.90934 -0.952774 
-0.0208777 -2.87972 -1.21905 
-0.155971 -2.88263 -1.09037 
-0.265756 -2.89936 -0.784739 
-0.392638 -2.86801 -1.14093 
-0.499248 -2.877 -0.945636 
-0.628297 -2.85117 -1.22314 
-0.734528 -2.8792 -0.761616 
-0.863931 -2.88268 -0.628624 
-0.966171 -2.86944 -0.747389 
-1.09079 -2.88664 -0.425519 
-1.19779 -2.87907 -0.461796 
-1.32864 -2.88076 -0.352866 
-1.43985 -2.84378 -0.797959 
-1.56494 -2.85704 -0.530802 
-1.67339 -2.83718 -0.738194 
-1.93024 -3.33545 6.40337 
-2.36889 -2.83874 -0.263112 
6.23105 -3.09767 -1.7031 
5.94315 -3.14918 -0.799128 
5.70745 -3.14568 -0.69548 
5.57508 -3.18554 -0.0544251 
5.44689 -3.18318 -0.00432675 
5.34215 -3.17994 0.0182912 
5.18772 -3.21236 0.569951 
5.07835 -3.21563 0.686281 
4.97707 -3.17249 0.150906 
4.6134 -3.19845 0.747929 
4.48212 -3.19442 0.776833 
4.38946 -3.18286 0.675814 
4.24379 -3.19828 0.984971 
4.14527 -3.18768 0.901076 
4.02795 -3.16414 0.649118 
3.90765 -3.18992 1.08624 
3.6793 -3.17033 0.961288 
3.55373 -3.16 0.898774 
3.45868 -3.14686 0.777168 
3.33649 -3.12235 0.514902 
3.22739 -3.13031 0.696475 
3.09601 -3.12434 0.698512 
2.99897 -3.10259 0.458321 
2.86333 -3.12311 0.832085 
2.76787 -3.09522 0.505465 
2.63695 -3.10092 0.669638 
2.54418 -3.07043 0.305072 
2.41014 -3.07379 0.438722 
2.30886 -3.06418 0.370464 
2.18011 -3.05577 0.33676 
2.08563 -3.01082 -0.228257 
1.94998 -3.02363 0.0381122 
1.85226 -3.01777 0.0198818 
1.7216 -3.02322 0.180518 
1.61838 -2.9716 -0.471687 
1.49057 -2.97634 -0.322852 
1.38891 -2.94463 -0.698706 
1.25484 -2.93018 -0.813068 
1.14927 -2.95078 -0.457649 
1.0219 -2.94342 -0.477499 
0.917391 -2.93758 -0.49108 
0.785095 -2.90789 -0.818926 
0.685001 -2.89193 -0.976386 
0.554202 -2.88902 -0.932112 
0.451927 -2.87805 -1.01857 
0.318345 -2.86674 -1.08948 
0.208392 -2.87153 -0.951513 
0.0775224 -2.86751 -0.922544 
-0.0190118 -2.85557 -1.02626 
-0.158755 -2.86389 -0.819684 
-0.262862 -2.854 -0.889815 
-0.391121 -2.84363 -0.951181 
-0.492954 -2.84123 -0.918445 
-0.627065 -2.82617 -1.0412 
-0.731593 -2.8486 -0.660907 
-0.861811 -2.84583 -0.614898 
-0.961877 -2.84265 -0.594323 
-1.09394 -2.83043 -0.678733 
-1.20054 -2.82976 -0.618867 
-1.33206 -2.81601 -0.725149 
-1.43867 -2.80387 -0.825089 
-1.56802 -2.78996 -0.934807 
-1.66889 -2.81035 -0.585202 
-2.12375 -2.82727 -0.0539285 
-2.37013 -2.79415 -0.355383 
-2.60181 -2.78822 -0.287515 
5.9371 -3.13083 -0.528169 
5.7048 -3.11543 -0.592035 
5.58714 -3.13449 -0.251646 
5.44906 -3.14639 0.00253948 
5.34008 -3.14779 0.0922041 
5.20139 -3.15832 0.327836 
5.0826 -3.1791 0.692703 
4.97576 -3.1425 0.254017 
4.85963 -3.15778 0.540797 
4.60979 -3.17364 0.922194 
4.48185 -3.16184 0.8411 
4.38029 -3.15815 0.855381 
4.24358 -3.16435 1.02975 
4.14936 -3.14631 0.840287 
4.02215 -3.13868 0.816558 
3.91232 -3.14413 0.963163 
3.68321 -3.13173 0.939032 
3.55215 -3.12828 0.975853 
3.45523 -3.12156 0.945228 
3.31961 -3.12793 1.12128 
3.22446 -3.1077 0.902118 
3.09669 -3.08658 0.691626 
2.9899 -3.10201 0.974682 
2.77299 -3.05619 0.479226 
2.64673 -3.04185 0.361879 
2.53745 -3.05281 0.584485 
2.41023 -3.04629 0.576307 
2.30999 -3.03238 0.448137 
2.18236 -3.01592 0.302261 
1.9598 -2.95593 -0.386117 
1.85584 -2.94287 -0.500098 
1.72427 -2.97854 0.0796842 
1.6136 -2.96104 -0.0914483 
1.4907 -2.93556 -0.365561 
1.38675 -2.92376 -0.462054 
1.26001 -2.90612 -0.624803 
1.1502 -2.921 -0.347317 
0.921937 -2.89407 -0.573366 
0.786648 -2.86324 -0.913629 
0.686291 -2.85493 -0.964014 
0.557882 -2.87272 -0.634063 
0.448555 -2.8296 -1.16158 
0.322969 -2.83213 -1.04534 
0.217024 -2.81024 -1.28041 
-0.0201315 -2.8182 -1.01662 
-0.157037 -2.81087 -1.0298 
-0.259225 -2.78656 -1.3009 
-0.386601 -2.80101 -1.01797 
-0.494776 -2.81139 -0.803954 
-0.624679 -2.78786 -1.04638 
-0.730616 -2.79714 -0.849076 
-0.858163 -2.79242 -0.832072 
-0.962035 -2.79429 -0.738877 
-1.09402 -2.7894 -0.721201 
-1.19824 -2.79598 -0.562421 
-1.32424 -2.79652 -0.473427 
-1.43298 -2.78549 -0.556046 
-1.55605 -2.78447 -0.490582 
-1.66911 -2.77123 -0.600999 
-2.02275 -2.78214 -0.22072 
-2.12772 -2.78586 -0.100989 
-2.25616 -2.78126 -0.0817255 
-2.36783 -2.76171 -0.280566 
-2.59844 -2.75232 -0.261547 
6.08448 -3.07816 -0.832107 
5.94642 -3.08121 -0.701226 
5.8297 -3.09583 -0.42428 
5.70573 -3.08083 -0.55177 
5.57353 -3.12356 0.123461 
5.45056 -3.10904 0.00204562 
5.34336 -3.10763 0.0514002 
5.20234 -3.11695 0.270914 
5.09743 -3.12161 0.402714 
4.96526 -3.12156 0.487118 
4.86008 -3.11912 0.521027 
4.72791 -3.11917 0.6068 
4.6149 -3.12967 0.824529 
4.49539 -3.10884 0.61374 
4.38189 -3.12111 0.856379 
4.24756 -3.12164 0.95017 
4.14822 -3.1163 0.940224 
4.01764 -3.11233 0.96958 
3.91987 -3.09633 0.811405 
3.77972 -3.12334 1.27483 
3.68766 -3.08896 0.859207 
3.56095 -3.08086 0.828839 
3.45826 -3.07258 0.780628 
3.32727 -3.07826 0.943429 
3.2243 -3.06997 0.89523 
3.10519 -3.04012 0.559638 
2.98154 -3.08766 1.29601 
2.87041 -3.04407 0.765403 
2.7739 -3.01851 0.474548 
2.64274 -3.02374 0.631263 
2.54459 -3.005 0.435696 
2.41792 -2.99776 0.417242 
2.31697 -2.98654 0.327364 
2.18237 -2.97066 0.194643 
2.08766 -2.94543 -0.0928209 
1.85156 -2.94047 -0.00918781 
1.72741 -2.91374 -0.298396 
1.6226 -2.90648 -0.331087 
1.49503 -2.8925 -0.442052 
1.38839 -2.90006 -0.268908 
1.25794 -2.8547 -0.811338 
1.15268 -2.88501 -0.324822 
0.929291 -2.86293 -0.485754 
0.788526 -2.84147 -0.691437 
0.688494 -2.80221 -1.16934 
0.563576 -2.82083 -0.831531 
0.451398 -2.80547 -0.971448 
0.320703 -2.7923 -1.06905 
0.219932 -2.78048 -1.16743 
-0.0175079 -2.7652 -1.22536 
-0.15208 -2.76851 -1.09282 
-0.25559 -2.75789 -1.17276 
-0.387094 -2.7648 -0.992422 
-0.49637 -2.77185 -0.824619 
-0.623238 -2.75361 -0.994713 
-0.724853 -2.76845 -0.724144 
-0.858035 -2.74988 -0.894825 
-0.958754 -2.75565 -0.750025 
-1.09674 -2.73065 -1.00642 
-1.19593 -2.7642 -0.478872 
-1.32289 -2.74597 -0.648803 
-1.43774 -2.73022 -0.792274 
-1.56273 -2.72437 -0.792454 
-1.66452 -2.73268 -0.611962 
-1.90469 -2.72477 -0.566097 
-2.02585 -2.72899 -0.429656 
-2.12844 -2.73732 -0.248367 
-2.25036 -2.74976 0.00220606 
-2.36666 -2.71714 -0.373326 
-2.5929 -2.71884 -0.203678 
5.84568 -3.03634 -0.736911 
5.7082 -3.04434 -0.538819 
5.57754 -3.08743 0.13755 
5.46382 -3.05234 -0.272128 
5.34755 -3.06775 0.014331 
5.19906 -3.09398 0.470377 
5.07651 -3.1142 0.826996 
4.97026 -3.07908 0.412095 
4.85268 -3.09632 0.724656 
4.73319 -3.07898 0.562837 
4.63159 -3.07033 0.509049 
4.48531 -3.09049 0.880222 
4.38047 -3.09094 0.953672 
4.25832 -3.07731 0.844543 
4.15242 -3.07665 0.903472 
4.0194 -3.07544 0.972125 
3.91448 -3.07271 1.00195 
3.77967 -3.09062 1.33488 
3.68546 -3.06147 0.994346 
3.55763 -3.05457 0.98154 
3.45574 -3.04929 0.974312 
3.3286 -3.03649 0.879872 
3.23044 -3.02355 0.764939 
3.10068 -3.01851 0.77896 
3.00714 -3.00039 0.589863 
2.86662 -3.01895 0.935299 
2.78261 -2.96913 0.304062 
2.64815 -2.97925 0.529577 
2.54562 -2.96738 0.432227 
2.40973 -2.97984 0.690842 
2.31476 -2.95304 0.3832 
2.18275 -2.94805 0.399364 
1.96484 -2.89105 -0.244521 
1.85651 -2.88303 -0.285273 
1.72738 -2.91171 0.192121 
1.62543 -2.86022 -0.450561 
1.49572 -2.86003 -0.369856 
1.3894 -2.8788 -0.0433382 
1.25917 -2.84402 -0.43807 
1.15645 -2.81045 -0.833814 
1.02277 -2.84985 -0.205886 
0.925078 -2.77907 -1.11661 
0.790728 -2.79749 -0.776932 
0.689192 -2.75966 -1.23199 
0.562563 -2.79166 -0.710522 
0.457473 -2.74839 -1.23812 
0.32589 -2.74197 -1.24188 
0.220715 -2.74212 -1.17215 
0.0871515 -2.73232 -1.22113 
-0.0153499 -2.73234 -1.15491 
-0.148662 -2.74062 -0.955321 
-0.253891 -2.72482 -1.10499 
-0.386107 -2.72897 -0.962817 
-0.493045 -2.72878 -0.896769 
-0.621324 -2.72953 -0.803938 
-0.726666 -2.7219 -0.841045 
-0.853064 -2.73159 -0.626542 
-0.95646 -2.73454 -0.51946 
-1.08992 -2.71711 -0.673252 
-1.19853 -2.70136 -0.820102 
-1.32865 -2.67514 -1.09707 
-1.42589 -2.7168 -0.461486 
-1.56392 -2.68507 -0.809051 
-1.66242 -2.69806 -0.566984 
-1.89469 -2.70296 -0.350121 
-2.11696 -2.72514 0.098074 
-2.25008 -2.7074 -0.0602964 
-2.35708 -2.69566 -0.152908 
-2.48637 -2.6875 -0.181967 
-2.58871 -2.69497 -0.0132782 
6.21939 -2.97752 -1.26637 
5.94666 -3.00959 -0.652966 
5.67993 -3.05484 0.137087 
5.59616 -3.01997 -0.286785 
5.45947 -3.02411 -0.142792 
5.34403 -3.04338 0.194976 
5.20996 -3.04713 0.33204 
5.11127 -3.03751 0.263427 
4.97099 -3.04124 0.404101 
4.85714 -3.05146 0.616916 
4.73357 -3.04283 0.577719 
4.63555 -3.03422 0.522567 
4.4868 -3.05427 0.892234 
4.39255 -3.03493 0.687648 
4.26548 -3.03011 0.702964 
4.14537 -3.04991 1.05101 
4.02439 -3.03762 0.960095 
3.91639 -3.03071 0.934577 
3.78077 -3.05298 1.32621 
3.68915 -3.02143 0.952857 
3.5562 -3.02569 1.09624 
3.46471 -3.00253 0.837667 
3.33614 -2.98962 0.74319 
3.23151 -2.99285 0.854315 
3.10668 -2.96991 0.620112 
2.99847 -2.98155 0.848821 
2.8714 -2.97274 0.809429 
2.77779 -2.95091 0.570451 
2.64239 -2.95972 0.77777 
2.54529 -2.93695 0.52815 
2.41088 -2.93894 0.641381 
2.3205 -2.91486 0.36952 
2.18699 -2.90401 0.306462 
2.09097 -2.89898 0.298999 
1.954 -2.90012 0.402436 
1.85762 -2.85632 -0.135731 
1.72953 -2.87044 0.139744 
1.62239 -2.84667 -0.117289 
1.50032 -2.84972 0.00278917 
1.39229 -2.82359 -0.285966 
1.2607 -2.8075 -0.422019 
1.15797 -2.80176 -0.434731 
0.918877 -2.76739 -0.752305 
0.794482 -2.75902 -0.787276 
0.687205 -2.75523 -0.770426 
0.566353 -2.72752 -1.07249 
0.453901 -2.74988 -0.694125 
0.325113 -2.71025 -1.15438 
0.218835 -2.70221 -1.19633 
-0.0179166 -2.69951 -1.08168 
-0.148506 -2.69966 -0.995839 
-0.249625 -2.69995 -0.927006 
-0.382498 -2.7058 -0.761828 
-0.486545 -2.71185 -0.612192 
-0.623294 -2.67806 -0.987288 
-0.72535 -2.68393 -0.841517 
-0.854802 -2.68004 -0.811779 
-0.959965 -2.66054 -1.01139 
-1.08556 -2.67797 -0.692152 
-1.19426 -2.65717 -0.907311 
-1.32667 -2.65223 -0.890051 
-1.42472 -2.66451 -0.658883 
-1.55373 -2.66992 -0.502081 
-1.66455 -2.64424 -0.782648 
-1.89619 -2.66045 -0.412126 
-2.02102 -2.66196 -0.311336 
-2.12635 -2.65804 -0.29736 
-2.25344 -2.65868 -0.207076 
-2.35093 -2.67047 0.016963 
-2.48729 -2.64428 -0.254269 
-2.58648 -2.65383 -0.0597556 
-2.81596 -2.66268 0.208818 
-2.941 -2.6689 0.374291 
-3.19406 -2.60974 -0.273627 
5.93877 -2.98452 -0.477511 
5.71477 -2.96585 -0.589431 
5.59464 -2.98645 -0.231958 
5.4491 -3.0067 0.136871 
5.35001 -2.99738 0.0730266 
5.22342 -2.99385 0.105588 
5.09975 -3.02167 0.563741 
4.98185 -2.9976 0.310605 
4.87278 -2.99401 0.331254 
4.63434 -3.00004 0.565528 
4.49753 -3.00307 0.694022 
4.37345 -3.04365 1.32657 
4.24602 -3.02666 1.17614 
4.15411 -3.00581 0.950503 
4.02732 -2.99175 0.839584 
3.91867 -3.00078 1.03204 
3.78862 -3.00747 1.20627 
3.69169 -2.98819 1.00512 
3.55914 -2.98355 1.02638 
3.46223 -2.97538 0.976809 
3.33324 -2.96416 0.906132 
3.23467 -2.94845 0.754883 
3.10291 -2.94586 0.803613 
3.00672 -2.93062 0.657156 
2.87556 -2.93134 0.75067 
2.76637 -2.93484 0.868091 
2.64266 -2.92124 0.761682 
2.54932 -2.89592 0.47599 
2.41623 -2.89718 0.578023 
2.3174 -2.88517 0.477454 
2.19295 -2.85291 0.116929 
1.95995 -2.84983 0.223742 
1.86214 -2.82796 -0.0120558 
1.72422 -2.85472 0.440893 
1.62569 -2.80553 -0.16695 
1.49692 -2.81553 0.0516319 
1.39166 -2.79943 -0.10073 
1.26009 -2.81065 0.136369 
1.15882 -2.76023 -0.486552 
0.925716 -2.72102 -0.872419 
0.797774 -2.73589 -0.587902 
0.690283 -2.69261 -1.10949 
0.565965 -2.68636 -1.11523 
0.458136 -2.68002 -1.13277 
0.327241 -2.66951 -1.19254 
0.223556 -2.66615 -1.17214 
-0.0127407 -2.64636 -1.29092 
-0.145464 -2.63332 -1.38403 
-0.254354 -2.63657 -1.27004 
-0.380652 -2.66176 -0.845838 
-0.486328 -2.66969 -0.670131 
-0.619217 -2.6409 -0.97787 
-0.725568 -2.62568 -1.1174 
-0.85517 -2.63699 -0.880303 
-0.957071 -2.64706 -0.67791 
-1.08562 -2.633 -0.787422 
-1.19294 -2.60385 -1.11632 
-1.31782 -2.62472 -0.751919 
-1.43046 -2.6139 -0.827336 
-1.5604 -2.60953 -0.803888 
-1.66115 -2.61593 -0.652134 
-1.89619 -2.62082 -0.435154 
-2.02848 -2.60174 -0.610745 
-2.11961 -2.62996 -0.167571 
-2.3558 -2.61202 -0.261138 
-2.4924 -2.59876 -0.354638 
-2.58402 -2.61925 -0.0164595 
-2.81938 -2.61386 0.0606207 
-2.9434 -2.6211 0.23875 
-3.05787 -2.59029 -0.108202 
6.22113 -2.901 -1.28153 
5.96668 -2.91254 -0.963186 
5.71076 -2.93609 -0.480884 
5.58747 -2.9666 0.0117206 
5.46471 -2.95172 -0.112328 
5.35928 -2.94627 -0.119397 
5.21351 -2.97018 0.297954 
5.11318 -2.96606 0.305704 
4.9775 -2.96953 0.439123 
4.86275 -2.97557 0.594038 
4.64237 -2.94955 0.380773 
4.49404 -2.97387 0.805372 
4.40319 -2.95372 0.589555 
4.2548 -2.97734 1.00461 
4.15176 -2.9748 1.0356 
4.02863 -2.95653 0.865788 
3.92153 -2.96231 1.01246 
3.69082 -2.95256 1.02681 
3.56256 -2.94768 1.04206 
3.47099 -2.91768 0.692919 
3.3341 -2.93072 0.95716 
3.22688 -2.92962 1.01033 
3.10349 -2.90969 0.818252 
2.99698 -2.91367 0.940011 
2.87409 -2.90322 0.876433 
2.77205 -2.8953 0.833803 
2.63322 -2.9157 1.19911 
2.55713 -2.84345 0.266535 
2.41555 -2.8696 0.711657 
2.31651 -2.86189 0.670065 
2.1912 -2.83964 0.44757 
2.09166 -2.81238 0.140883 
1.96042 -2.81176 0.215965 
1.86221 -2.78459 -0.0904917 
1.73353 -2.78456 -0.00891876 
1.62702 -2.77713 -0.0419818 
1.49663 -2.76482 -0.126129 
1.39563 -2.76715 -0.0303083 
1.26706 -2.74103 -0.303109 
1.16256 -2.72741 -0.421449 
0.932474 -2.68868 -0.800811 
0.797955 -2.68924 -0.707611 
0.690022 -2.66156 -1.01473 
0.562762 -2.66826 -0.842659 
0.459328 -2.63721 -1.19851 
0.332806 -2.63352 -1.16799 
0.223991 -2.63479 -1.08147 
-0.00649709 -2.60432 -1.34837 
-0.146945 -2.61843 -1.06726 
-0.251662 -2.60964 -1.11996 
-0.379875 -2.61683 -0.94057 
-0.485372 -2.62319 -0.787058 
-0.618046 -2.613 -0.840838 
-0.721752 -2.589 -1.10064 
-0.853528 -2.58547 -1.06462 
-0.958266 -2.56573 -1.26589 
-1.08749 -2.59177 -0.829909 
-1.18857 -2.60155 -0.632612 
-1.31666 -2.59573 -0.63005 
-1.42545 -2.58683 -0.68159 
-1.56004 -2.56885 -0.839891 
-1.65969 -2.57902 -0.638262 
-1.88577 -2.60744 -0.108115 
-2.02333 -2.56956 -0.534822 
-2.11679 -2.59396 -0.143867 
-2.34928 -2.59969 0.0822197 
-2.48464 -2.57495 -0.167446 
-2.57975 -2.58589 0.0418741 
-2.8127 -2.58462 0.173203 
-2.93815 -2.57971 0.186508 
-3.04618 -2.57455 0.185399 
-3.17397 -2.57045 0.211316 
-3.57834 -2.4001 -1.84433 
5.94647 -2.90637 -0.524537 
5.8396 -2.91693 -0.314034 
5.69859 -2.92111 -0.168344 
5.60399 -2.89666 -0.438861 
5.46468 -2.91572 -0.0929502 
5.34888 -2.9323 0.204524 
5.22709 -2.92137 0.133929 
5.10021 -2.94892 0.586774 
4.97973 -2.92753 0.373979 
4.85743 -2.95305 0.796449 
4.74143 -2.93236 0.590288 
4.63317 -2.92894 0.612636 
4.50336 -2.92494 0.640861 
4.39184 -2.94637 1.00129 
4.25553 -2.93968 0.997239 
4.15428 -2.93427 0.988188 
4.0359 -2.91129 0.752558 
3.9127 -2.94314 1.26135 
3.78741 -2.93068 1.17235 
3.6886 -2.9202 1.09321 
3.56822 -2.89998 0.896255 
3.4599 -2.90846 1.07963 
3.33967 -2.88487 0.836859 
3.2344 -2.88607 0.919867 
3.10896 -2.87115 0.797709 
3.00853 -2.85324 0.61925 
2.87409 -2.87135 0.949397 
2.7736 -2.86558 0.935112 
2.64622 -2.85166 0.827767 
2.55138 -2.82152 0.48035 
2.42409 -2.81206 0.433164 
2.32222 -2.8162 0.553764 
2.18962 -2.80889 0.539168 
2.09266 -2.78439 0.269399 
1.96242 -2.77466 0.220456 
1.86186 -2.74945 -0.0566239 
1.73534 -2.7549 0.0973365 
1.62935 -2.74013 -0.0349812 
1.50367 -2.75875 0.296456 
1.39915 -2.70528 -0.360149 
1.26441 -2.72006 -0.0747926 
1.16289 -2.68364 -0.502789 
1.03178 -2.70173 -0.174881 
0.929164 -2.64169 -0.921705 
0.797953 -2.65018 -0.723586 
0.692741 -2.65006 -0.658409 
0.566317 -2.61449 -1.05904 
0.460119 -2.60745 -1.08687 
0.338516 -2.59404 -1.19087 
0.22485 -2.58925 -1.18349 
0.0929692 -2.58029 -1.22088 
-0.00763428 -2.56828 -1.31939 
-0.141061 -2.57112 -1.19622 
-0.247327 -2.57503 -1.07584 
-0.377239 -2.58626 -0.8415 
-0.485259 -2.56799 -1.01997 
-0.61254 -2.56418 -0.990546 
-0.719609 -2.54389 -1.19696 
-0.853605 -2.53919 -1.17529 
-0.953829 -2.55759 -0.862841 
-1.08572 -2.53605 -1.0703 
-1.18276 -2.56123 -0.668123 
-1.31956 -2.55252 -0.69896 
-1.42812 -2.53929 -0.808855 
-1.55769 -2.51487 -1.0567 
-1.65372 -2.55314 -0.47811 
-1.88942 -2.5424 -0.473587 
-2.01794 -2.54591 -0.344384 
-2.11932 -2.54936 -0.233195 
-2.24833 -2.54551 -0.203254 
-2.35651 -2.53854 -0.22878 
-2.48137 -2.53479 -0.200058 
-2.5796 -2.55007 0.0690134 
-2.81643 -2.52998 -0.0520523 
-2.94551 -2.52624 -0.0204021 
-3.04111 -2.53865 0.208135 
-3.18578 -2.5045 -0.161637 
-3.31632 -2.43766 -0.982579 
6.2261 -2.82369 -1.30892 
5.95062 -2.86549 -0.572185 
5.59428 -2.87966 -0.15648 
5.47038 -2.87387 -0.156145 
5.33928 -2.91152 0.433555 
5.22465 -2.88676 0.172549 
5.09913 -2.91275 0.601758 
4.98361 -2.88645 0.32073 
4.87456 -2.89433 0.495724 
4.64054 -2.88281 0.488505 
4.49743 -2.90534 0.882225 
4.39845 -2.89711 0.833921 
4.25431 -2.90642 1.05036 
4.15631 -2.89715 0.987552 
4.03442 -2.88216 0.862718 
3.92261 -2.88979 1.03614 
3.69461 -2.87829 1.02544 
3.56215 -2.88166 1.15456 
3.46698 -2.86724 1.02064 
3.33687 -2.85964 1.00051 
3.23306 -2.86154 1.09181 
3.10511 -2.84883 1.00157 
3.00942 -2.82059 0.681813 
2.8792 -2.82745 0.8566 
2.77385 -2.82587 0.902003 
2.64524 -2.82475 0.968205 
2.54926 -2.79408 0.615982 
2.41988 -2.78476 0.57235 
2.32816 -2.76425 0.354224 
2.18728 -2.78084 0.666661 
2.09211 -2.74672 0.267497 
1.97033 -2.71648 -0.0625653 
1.86716 -2.68628 -0.403929 
1.73698 -2.71743 0.0978552 
1.62946 -2.69521 -0.133324 
1.50652 -2.69879 -0.00737124 
1.39826 -2.69688 0.0354796 
1.26646 -2.69301 0.0667738 
1.16864 -2.66043 -0.309983 
0.929835 -2.62519 -0.633304 
0.802235 -2.60826 -0.780549 
0.692045 -2.59858 -0.841122 
0.570032 -2.58204 -0.98652 
0.462659 -2.55617 -1.26693 
0.336507 -2.56678 -1.04423 
0.230269 -2.53283 -1.43405 
-0.00721448 -2.53378 -1.27095 
-0.139494 -2.51906 -1.38531 
-0.248463 -2.5372 -1.07206 
-0.375915 -2.52823 -1.11214 
-0.483952 -2.54659 -0.796482 
-0.608382 -2.52674 -0.984961 
-0.718039 -2.51865 -1.02447 
-0.953102 -2.51257 -0.95737 
-1.08151 -2.52029 -0.772044 
-1.1846 -2.51386 -0.793343 
-1.31587 -2.51514 -0.692916 
-1.42483 -2.48602 -1.01601 
-1.55591 -2.49935 -0.753448 
-1.65433 -2.50528 -0.611147 
-1.78523 -2.50363 -0.550423 
-1.88638 -2.50217 -0.506027 
-2.01903 -2.50214 -0.422256 
-2.11258 -2.52184 -0.0976826 
-2.24631 -2.50375 -0.256555 
-2.34939 -2.50888 -0.122052 
-2.4826 -2.48488 -0.360846 
-2.58308 -2.49862 -0.112059 
-2.81344 -2.49543 -0.0090313 
-2.93728 -2.50699 0.225237 
-3.03694 -2.51122 0.345409 
-3.17451 -2.4891 0.134801 
-3.79157 -2.37126 -1.06077 
5.95632 -2.81775 -0.712324 
5.84116 -2.8408 -0.330916 
5.58914 -2.85662 0.0398992 
5.46235 -2.85367 0.0801795 
5.35125 -2.85878 0.218584 
5.22579 -2.85025 0.183266 
5.10077 -2.87567 0.602846 
4.99031 -2.84337 0.239372 
4.88423 -2.84289 0.299802 
4.6327 -2.86634 0.772592 
4.50852 -2.84873 0.614754 
4.39087 -2.87327 1.01791 
4.26143 -2.86342 0.967322 
4.15191 -2.86386 1.04232 
4.03504 -2.84808 0.904405 
3.92876 -2.84015 0.865074 
3.69578 -2.8385 0.989748 
3.56655 -2.83675 1.04781 
3.46347 -2.84318 1.19892 
3.33482 -2.83288 1.14196 
3.23952 -2.81288 0.93383 
3.10168 -2.81935 1.10754 
3.00766 -2.79119 0.789275 
2.77786 -2.77667 0.739421 
2.64609 -2.78471 0.930326 
2.55126 -2.7559 0.603854 
2.42252 -2.74823 0.582192 
2.32109 -2.75597 0.750062 
2.19181 -2.74162 0.639159 
1.96663 -2.69622 0.172397 
1.85939 -2.71315 0.467125 
1.73597 -2.6954 0.30693 
1.62891 -2.67514 0.102937 
1.50675 -2.68142 0.264165 
1.40301 -2.64835 -0.113793 
1.26845 -2.63949 -0.147672 
1.16983 -2.62664 -0.257735 
0.933781 -2.58989 -0.601494 
0.801263 -2.59015 -0.514479 
0.700369 -2.55045 -0.983056 
0.573856 -2.52795 -1.20487 
0.463269 -2.5278 -1.13707 
0.334336 -2.51001 -1.2943 
0.227725 -2.50988 -1.22872 
-0.00229808 -2.48157 -1.46313 
-0.139701 -2.487 -1.30359 
-0.246067 -2.48319 -1.28751 
-0.373122 -2.49101 -1.10235 
-0.478745 -2.4999 -0.916412 
-0.606907 -2.48786 -0.99703 
-0.717802 -2.47478 -1.10231 
-0.843575 -2.47944 -0.96034 
-0.951198 -2.45362 -1.23869 
-1.07943 -2.47426 -0.880863 
-1.18657 -2.46389 -0.952219 
-1.31684 -2.46446 -0.862374 
-1.42011 -2.46588 -0.778065 
-1.55722 -2.45639 -0.818691 
-1.654 -2.46455 -0.648129 
-1.88777 -2.45747 -0.595309 
-2.01134 -2.4769 -0.25665 
-2.11247 -2.47585 -0.206822 
-2.24008 -2.4842 -0.014209 
-2.34849 -2.47141 -0.117189 
-2.47102 -2.47243 -0.0260213 
-2.57572 -2.47225 0.0378313 
-2.8103 -2.46254 0.0558964 
-2.93915 -2.45853 0.0836391 
6.22902 -2.7522 -1.25665 
5.97418 -2.75633 -1.04161 
5.85362 -2.78924 -0.526671 
5.5972 -2.8097 -0.0925104 
5.47013 -2.80611 -0.0606211 
5.36789 -2.79559 -0.136927 
5.21087 -2.84041 0.560101 
5.09451 -2.85385 0.812577 
4.9714 -2.83904 0.692179 
4.86428 -2.83721 0.735059 
4.6375 -2.82362 0.696023 
4.50611 -2.81769 0.699391 
4.3904 -2.83729 1.0337 
4.26626 -2.82057 0.888496 
4.15966 -2.82085 0.959162 
4.02456 -2.82861 1.14763 
3.93449 -2.80247 0.855319 
3.69832 -2.79887 0.955604 
3.56114 -2.81903 1.31103 
3.46191 -2.81026 1.25628 
3.33592 -2.79251 1.09854 
3.22967 -2.79593 1.21094 
3.10307 -2.77772 1.04736 
3.00114 -2.77777 1.11214 
2.77876 -2.74569 0.82359 
2.6448 -2.7524 0.997442 
2.55192 -2.72671 0.712886 
2.42242 -2.72186 0.729482 
2.32274 -2.70481 0.564546 
2.19698 -2.68802 0.419409 
1.96732 -2.66621 0.272705 
1.86281 -2.66726 0.352405 
1.73597 -2.657 0.295251 
1.62875 -2.65412 0.324187 
1.50318 -2.6453 0.285484 
1.4013 -2.63516 0.21406 
1.27418 -2.61325 0.00159532 
1.16888 -2.59875 -0.125829 
1.03696 -2.59244 -0.127087 
0.934556 -2.562 -0.469124 
0.804246 -2.58925 -0.0232718 
0.699508 -2.51863 -0.900319 
0.571513 -2.52457 -0.740472 
0.46668 -2.49103 -1.1223 
0.337314 -2.46243 -1.4227 
0.235365 -2.47897 -1.13771 
-2.75811e-05 -2.45258 -1.34188 
-0.137445 -2.44172 -1.40039 
-0.244724 -2.4727 -0.919253 
-0.371162 -2.45332 -1.09844 
-0.476721 -2.4794 -0.683716 
-0.609345 -2.41772 -1.42388 
-0.712288 -2.45546 -0.855067 
-0.950161 -2.41461 -1.25077 
-1.07804 -2.43554 -0.890667 
-1.17952 -2.43277 -0.863836 
-1.31499 -2.42671 -0.85936 
-1.42135 -2.4154 -0.943393 
-1.5536 -2.40662 -0.977328 
-1.64821 -2.44361 -0.423759 
-1.8814 -2.43078 -0.448177 
-2.01212 -2.43131 -0.358678 
-2.10383 -2.45996 0.0816091 
-2.2452 -2.42497 -0.296475 
-2.35626 -2.41306 -0.385601 
-2.47775 -2.41019 -0.347323 
-2.57254 -2.43734 0.0750053 
-2.8107 -2.42158 0.0146626 
-2.93469 -2.42472 0.134727 
-3.0279 -2.44703 0.491462 
-3.17385 -2.40371 0.00500202 
-3.29 -2.37575 -0.295224 
-3.43463 -2.34433 -0.623597 
5.96445 -2.73959 -0.756855 
5.72607 -2.74055 -0.594924 
5.59425 -2.78419 0.0677501 
5.48043 -2.75056 -0.308035 
5.36069 -2.77476 0.0886649 
5.23385 -2.76718 0.0672396 
5.1048 -2.80443 0.643312 
4.98378 -2.78952 0.520797 
4.86694 -2.80099 0.74651 
4.64466 -2.77635 0.558065 
4.50697 -2.78411 0.747427 
4.40197 -2.78552 0.831977 
4.25972 -2.80208 1.14135 
4.16327 -2.78495 0.97393 
4.02775 -2.78941 1.11816 
3.92799 -2.78336 1.10021 
3.69333 -2.77496 1.13549 
3.56606 -2.77831 1.2598 
3.47282 -2.74847 0.921561 
3.33551 -2.7605 1.16751 
3.23784 -2.75449 1.14878 
3.10655 -2.74177 1.062 
3.00635 -2.7339 1.02019 
2.87682 -2.73016 1.05155 
2.79001 -2.68101 0.452505 
2.64903 -2.71159 0.947499 
2.54939 -2.69893 0.841625 
2.42733 -2.68892 0.785029 
2.31883 -2.69532 0.938134 
2.19295 -2.66891 0.66589 
2.09853 -2.65907 0.59435 
1.86812 -2.62386 0.270573 
1.73673 -2.62563 0.376524 
1.63103 -2.59953 0.0958557 
1.50713 -2.60562 0.254502 
1.40575 -2.57734 -0.0579441 
1.27447 -2.5827 0.095651 
1.16812 -2.55043 -0.266666 
0.932479 -2.50749 -0.689877 
0.806486 -2.52418 -0.38888 
0.703901 -2.47241 -1.01285 
0.573035 -2.4791 -0.841835 
0.46719 -2.46055 -1.02203 
0.341105 -2.43305 -1.30866 
0.239934 -2.43945 -1.1601 
0.00236601 -2.44274 -0.967137 
-0.133999 -2.40473 -1.3871 
-0.243521 -2.43649 -0.895911 
-0.368821 -2.4124 -1.13765 
-0.47845 -2.42316 -0.925714 
-0.607466 -2.40274 -1.11631 
-0.712245 -2.38538 -1.28141 
-0.84309 -2.39065 -1.12915 
-0.947029 -2.38467 -1.14338 
-1.07801 -2.38058 -1.11558 
-1.17763 -2.40303 -0.754435 
-1.31038 -2.39898 -0.724922 
-1.41136 -2.40583 -0.570439 
-1.54868 -2.38352 -0.780848 
-1.64542 -2.40222 -0.47135 
-1.87473 -2.40773 -0.25411 
-2.00832 -2.39867 -0.290612 
-2.10821 -2.40571 -0.134247 
-2.23945 -2.40048 -0.121259 
-2.34243 -2.40347 -0.01677 
-2.47256 -2.38271 -0.21116 
-2.57994 -2.37885 -0.194994 
-2.80896 -2.3827 0.000202255 
-2.93554 -2.38364 0.0922589 
-3.03432 -2.38502 0.172675 
-3.17504 -2.36654 0.0153288 
-3.27615 -2.35408 -0.0867658 
6.2439 -2.66391 -1.43522 
5.9659 -2.70343 -0.738457 
5.61402 -2.71658 -0.34485 
5.47789 -2.72302 -0.174636 
5.36319 -2.73827 0.098888 
5.21928 -2.75798 0.449687 
5.12207 -2.74234 0.303333 
4.99445 -2.736 0.298994 
4.87743 -2.75084 0.568521 
4.64129 -2.74991 0.703643 
4.51929 -2.73292 0.554962 
4.40252 -2.74945 0.846696 
4.26895 -2.74945 0.930188 
4.16683 -2.74691 0.960271 
4.03465 -2.74433 1.00868 
3.93395 -2.73703 0.975004 
3.79751 -2.75044 1.23777 
3.70353 -2.72626 0.976222 
3.5719 -2.72282 1.01293 
3.4721 -2.72172 1.06074 
3.33476 -2.73014 1.25809 
3.2345 -2.71899 1.17301 
3.10884 -2.70228 1.03034 
3.00529 -2.70366 1.11338 
2.881 -2.69069 1.01932 
2.77988 -2.67694 0.900472 
2.64832 -2.68205 1.0503 
2.55106 -2.66374 0.868656 
2.4313 -2.63408 0.550742 
2.32514 -2.63058 0.570844 
2.18866 -2.63431 0.705528 
2.10513 -2.59833 0.28132 
1.97307 -2.5838 0.171495 
1.8676 -2.58576 0.263349 
1.73727 -2.59482 0.464775 
1.63225 -2.56827 0.178882 
1.51003 -2.54365 -0.0706315 
1.40326 -2.56702 0.305596 
1.27532 -2.53654 -0.0180209 
1.169 -2.5256 -0.0963431 
0.934294 -2.48785 -0.449471 
0.809925 -2.46286 -0.702611 
0.703685 -2.44132 -0.921327 
0.575597 -2.43687 -0.900187 
0.471681 -2.41051 -1.18423 
0.340772 -2.3987 -1.25871 
0.237073 -2.40231 -1.146 
0.00140534 -2.37345 -1.38071 
-0.129195 -2.36151 -1.45711 
-0.236492 -2.3834 -1.10005 
-0.369522 -2.37661 -1.10665 
-0.475683 -2.38833 -0.885048 
-0.602051 -2.36418 -1.12579 
-0.710956 -2.35887 -1.12791 
-0.944748 -2.34403 -1.17804 
-1.07471 -2.35738 -0.919936 
-1.18123 -2.35156 -0.930299 
-1.31305 -2.33595 -1.05451 
-1.41453 -2.35092 -0.792609 
-1.54851 -2.34899 -0.734295 
-1.87907 -2.35197 -0.487837 
-2.00737 -2.35186 -0.408872 
-2.10467 -2.37503 -0.0410118 
-2.23581 -2.36432 -0.100771 
-2.34695 -2.35317 -0.178798 
-2.47389 -2.34272 -0.237708 
-2.5695 -2.36126 0.0678037 
-2.80482 -2.35131 0.0834626 
-2.93269 -2.34884 0.130891 
-3.03595 -2.34331 0.122374 
-3.17285 -2.32177 -0.0770415 
-3.29006 -2.29374 -0.374869 
-3.42159 -2.28443 -0.415632 
-3.54635 -2.2252 -1.12188 
5.96086 -2.67624 -0.597934 
5.70866 -2.70085 -0.116494 
5.61103 -2.6897 -0.20284 
5.47276 -2.69419 -0.0575166 
5.36827 -2.6957 0.027416 
5.21889 -2.72585 0.517949 
5.12265 -2.70988 0.367195 
4.98785 -2.70878 0.4366 
4.87928 -2.71547 0.59236 
4.74464 -2.71544 0.675907 
4.64592 -2.7084 0.644507 
4.50876 -2.71337 0.795372 
4.40578 -2.70672 0.771808 
4.27268 -2.71394 0.949958 
4.16467 -2.71284 1.00274 
4.03633 -2.70702 1.00592 
3.93929 -2.69893 0.959652 
3.80332 -2.6997 1.05444 
3.70088 -2.6944 1.04845 
3.57342 -2.68571 1.01329 
3.47593 -2.68665 1.08638 
3.33905 -2.67977 1.08088 
3.24006 -2.67976 1.14247 
3.10931 -2.67189 1.1201 
3.01273 -2.65493 0.956671 
2.88115 -2.65827 1.08275 
2.78743 -2.62442 0.694697 
2.65403 -2.63421 0.906926 
2.55512 -2.62392 0.832888 
2.41951 -2.63059 1.00545 
2.32768 -2.60147 0.678715 
2.20371 -2.56967 0.336643 
1.86879 -2.55141 0.304555 
1.73626 -2.56478 0.563506 
1.63856 -2.53437 0.223454 
1.50206 -2.54562 0.456827 
1.40612 -2.53103 0.324269 
1.27871 -2.51879 0.242321 
1.17461 -2.47694 -0.244658 
0.942515 -2.42451 -0.791242 
0.809209 -2.4617 -0.217684 
0.706116 -2.39885 -0.982257 
0.576997 -2.39075 -1.00857 
0.47248 -2.37803 -1.11104 
0.344465 -2.36162 -1.24765 
0.239274 -2.36478 -1.14026 
0.109815 -2.35052 -1.24759 
0.00247462 -2.34954 -1.19349 
-0.129642 -2.33156 -1.34827 
-0.234872 -2.34925 -1.04925 
-0.36687 -2.33599 -1.14179 
-0.473273 -2.34125 -1.00596 
-0.602045 -2.33286 -1.03622 
-0.708113 -2.29978 -1.40628 
-0.837473 -2.32521 -0.990184 
-0.944945 -2.3136 -1.07623 
-1.07707 -2.31492 -0.976363 
-1.17866 -2.32528 -0.776226 
-1.31579 -2.2992 -1.03456 
-1.40637 -2.33801 -0.466189 
-1.54706 -2.30328 -0.836439 
-1.64454 -2.31977 -0.55805 
-1.77818 -2.32142 -0.452842 
-1.87209 -2.32612 -0.332206 
-2.00421 -2.31673 -0.37351 
-2.10007 -2.33962 -0.0116994 
-2.23307 -2.33136 -0.0375684 
-2.34079 -2.33256 0.0455586 
-2.47175 -2.31156 -0.149596 
-2.57642 -2.31107 -0.0906461 
-2.80394 -2.31073 0.0469986 
-2.92829 -2.32274 0.283139 
-3.03303 -2.3154 0.251752 
-3.16594 -2.29752 0.0990561 
-3.27743 -2.28179 -0.0387472 
-3.41504 -2.25598 -0.293169 
6.48741 -2.59462 -1.5029 
6.25272 -2.58511 -1.48223 
5.97247 -2.61899 -0.863514 
5.85405 -2.64875 -0.399319 
5.71576 -2.6526 -0.262992 
5.62102 -2.63984 -0.371805 
5.48588 -2.63929 -0.295081 
5.36581 -2.65743 0.0175291 
5.23538 -2.66487 0.196246 
5.12881 -2.66743 0.296002 
4.99742 -2.66286 0.317535 
4.88416 -2.67148 0.500998 
4.64466 -2.67586 0.707173 
4.50382 -2.6866 0.935666 
4.40111 -2.68389 0.963863 
4.27467 -2.67398 0.912278 
4.16766 -2.67719 1.02081 
4.04129 -2.67179 1.02843 
3.93565 -2.66234 0.969902 
3.70428 -2.66042 1.0884 
3.57161 -2.65938 1.15712 
3.47098 -2.64992 1.09536 
3.33001 -2.66362 1.3629 
3.23373 -2.65708 1.33685 
3.1138 -2.62233 0.954927 
3.00752 -2.62989 1.12034 
2.78352 -2.60495 0.931956 
2.65579 -2.5972 0.909537 
2.55236 -2.59603 0.95841 
2.42371 -2.58913 0.947777 
2.32948 -2.56441 0.681704 
2.19811 -2.56278 0.742011 
1.87172 -2.51493 0.316388 
1.73486 -2.53916 0.71977 
1.643 -2.50226 0.292289 
1.5056 -2.51091 0.491185 
1.40869 -2.48621 0.227093 
1.28113 -2.47157 0.114134 
1.17455 -2.43669 -0.277692 
0.81041 -2.40169 -0.510811 
0.705314 -2.3837 -0.681746 
0.585152 -2.33754 -1.2133 
0.474575 -2.33258 -1.20965 
0.348989 -2.31793 -1.32387 
0.241569 -2.3125 -1.32843 
0.111702 -2.3063 -1.32902 
0.0055575 -2.30227 -1.31595 
-0.127197 -2.30409 -1.20942 
-0.233065 -2.2937 -1.28 
-0.365973 -2.30101 -1.10139 
-0.472208 -2.30591 -0.97087 
-0.600111 -2.29053 -1.09322 
-0.708389 -2.28599 -1.08551 
-0.836023 -2.29565 -0.879179 
-0.940981 -2.27019 -1.14831 
-1.07407 -2.25136 -1.31277 
-1.17616 -2.29318 -0.699928 
-1.31016 -2.25904 -1.06493 
-1.40749 -2.2773 -0.764452 
-1.54537 -2.24988 -1.03879 
-1.64139 -2.28777 -0.481365 
-1.87214 -2.28123 -0.423509 
-1.99893 -2.29376 -0.180035 
-2.10113 -2.29994 -0.035117 
-2.23006 -2.29771 0.0159196 
-2.33529 -2.28909 -0.0318341 
-2.46429 -2.2809 -0.058989 
-2.57036 -2.28253 0.0284422 
-2.7987 -2.2744 0.0639756 
-2.91702 -2.29343 0.387686 
-3.034 -2.26303 0.0611843 
-3.1675 -2.25476 0.0357014 
-3.28166 -2.22434 -0.292659 
-3.40975 -2.2293 -0.147759 
-3.53437 -2.17509 -0.782173 
6.22946 -2.57349 -1.12504 
5.96392 -2.60218 -0.585675 
5.84606 -2.62985 -0.150926 
5.74119 -2.57831 -0.76013 
5.62128 -2.60125 -0.385904 
5.47193 -2.63155 0.102726 
5.36187 -2.63184 0.174598 
5.2304 -2.62924 0.221944 
5.11329 -2.65483 0.629158 
4.99183 -2.64036 0.515018 
4.87853 -2.64939 0.703323 
4.64289 -2.64279 0.762795 
4.52275 -2.62397 0.59108 
4.4018 -2.64672 0.96345 
4.27379 -2.64278 0.991182 
4.16917 -2.63756 0.987731 
4.04314 -2.6312 0.982525 
3.93978 -2.62672 0.988016 
3.69975 -2.63007 1.18036 
3.57105 -2.62677 1.21696 
3.46661 -2.63095 1.33628 
3.34353 -2.61187 1.16297 
3.2395 -2.60788 1.17525 
3.11477 -2.59213 1.04655 
3.0133 -2.59033 1.08593 
2.79117 -2.56101 0.839999 
2.65826 -2.55726 0.873317 
2.55981 -2.54538 0.778906 
2.4238 -2.55041 0.928997 
2.32908 -2.54437 0.908782 
2.19719 -2.53708 0.895177 
2.10089 -2.50327 0.51256 
1.965 -2.5186 0.797384 
1.87339 -2.47763 0.318225 
1.7418 -2.47478 0.36261 
1.64041 -2.46631 0.314669 
1.51246 -2.47614 0.522499 
1.40962 -2.44838 0.223142 
1.27595 -2.45202 0.353624 
1.17522 -2.41011 -0.132024 
1.04588 -2.40574 -0.10894 
0.943864 -2.36658 -0.557949 
0.812114 -2.3581 -0.587098 
0.710468 -2.32789 -0.919235 
0.581949 -2.33833 -0.702968 
0.480332 -2.2941 -1.2185 
0.348511 -2.28917 -1.20127 
0.24528 -2.26515 -1.45131 
0.111689 -2.26479 -1.3732 
0.00193754 -2.26463 -1.30724 
-0.125174 -2.26122 -1.27292 
-0.229134 -2.23148 -1.59751 
-0.361731 -2.24397 -1.35183 
-0.471949 -2.26879 -0.958831 
-0.594782 -2.26712 -0.904435 
-0.705776 -2.27233 -0.767407 
-0.834045 -2.23938 -1.11876 
-0.938812 -2.22997 -1.17684 
-1.07241 -2.2352 -1.02547 
-1.17125 -2.24358 -0.854631 
-1.30494 -2.23234 -0.9186 
-1.40205 -2.26392 -0.445221 
-1.53816 -2.24118 -0.658203 
-1.87801 -2.23163 -0.572143 
-2.0034 -2.24697 -0.293579 
-2.10288 -2.25449 -0.13348 
-2.33352 -2.25633 0.0339596 
-2.46489 -2.23562 -0.155379 
-2.56803 -2.23613 -0.0846389 
-2.79529 -2.23863 0.0891469 
-2.91687 -2.24598 0.260904 
-3.02339 -2.25202 0.406091 
-3.15925 -2.22622 0.153057 
-3.26128 -2.22491 0.199218 
-3.40378 -2.19565 -0.0949493 
6.26351 -2.49934 -1.62052 
5.96992 -2.55746 -0.68247 
5.72805 -2.57175 -0.347127 
5.61179 -2.58518 -0.100491 
5.48387 -2.58014 -0.0872907 
5.36809 -2.59364 0.159923 
5.2317 -2.60029 0.330683 
5.11597 -2.61233 0.558967 
4.99512 -2.59931 0.463997 
4.89641 -2.59025 0.406887 
4.64853 -2.60222 0.715752 
4.5087 -2.61186 0.92764 
4.40722 -2.60482 0.898611 
4.27184 -2.6121 1.07692 
4.17199 -2.60048 0.987315 
4.04565 -2.58941 0.921118 
3.94057 -2.58994 0.992897 
3.70322 -2.59284 1.17726 
3.58029 -2.57619 1.03622 
3.47167 -2.58919 1.27263 
3.34256 -2.58 1.23265 
3.2426 -2.57534 1.23376 
3.1191 -2.54689 0.939495 
3.01453 -2.55609 1.12387 
2.78202 -2.53605 1.00652 
2.65505 -2.53414 1.06 
2.55349 -2.52627 1.02031 
2.42535 -2.51808 0.992765 
2.3307 -2.50099 0.828721 
2.20253 -2.47265 0.538668 
2.10517 -2.46962 0.559481 
1.9699 -2.47608 0.727141 
1.86996 -2.45994 0.578677 
1.7354 -2.47498 0.857818 
1.63869 -2.43773 0.432338 
1.51199 -2.43763 0.509343 
1.41289 -2.40663 0.166804 
1.28369 -2.38877 0.0140324 
1.17895 -2.38021 -0.0326697 
1.0515 -2.36719 -0.123558 
0.948629 -2.33217 -0.516063 
0.814591 -2.32096 -0.579194 
0.712905 -2.32317 -0.487537 
0.582587 -2.27541 -1.02909 
0.479616 -2.26586 -1.08983 
0.350807 -2.2351 -1.4109 
0.24471 -2.23772 -1.31119 
0.00800459 -2.23622 -1.18424 
-0.12546 -2.21964 -1.31774 
-0.228453 -2.21782 -1.27771 
-0.358885 -2.20207 -1.40217 
-0.467189 -2.21784 -1.12977 
-0.596589 -2.20419 -1.22747 
-0.702805 -2.2056 -1.14344 
-0.938702 -2.18885 -1.21558 
-1.06831 -2.20888 -0.874496 
-1.17072 -2.2051 -0.860342 
-1.30416 -2.22129 -0.566781 
-1.39933 -2.21708 -0.562822 
-1.53834 -2.19292 -0.791429 
-1.63974 -2.20331 -0.593398 
-1.87574 -2.19871 -0.507094 
-2.00212 -2.20279 -0.375736 
-2.09849 -2.22081 -0.0812803 
-2.22853 -2.21486 -0.0782559 
-2.33229 -2.20631 -0.125399 
-2.46453 -2.20004 -0.125234 
-2.56474 -2.20199 -0.0377875 
-2.7916 -2.2141 0.260627 
-2.91848 -2.21056 0.293125 
-3.03166 -2.18758 0.0637947 
-3.16502 -2.17642 0.00102901 
-3.26219 -2.18089 0.119454 
-3.39173 -2.17792 0.161055 
5.9567 -2.55006 -0.282631 
5.6118 -2.55277 -0.0353255 
5.48122 -2.5454 -0.0505733 
5.35635 -2.57857 0.456474 
5.2506 -2.53446 -0.050572 
5.13385 -2.55532 0.291874 
4.98877 -2.57468 0.632205 
4.88136 -2.5767 0.724485 
4.64437 -2.57264 0.817652 
4.51034 -2.57085 0.876942 
4.41483 -2.55558 0.737715 
4.28674 -2.55409 0.797271 
4.167 -2.57796 1.18054 
4.041 -2.5653 1.09392 
3.93393 -2.56765 1.1903 
3.81216 -2.55569 1.11011 
3.70147 -2.55971 1.23043 
3.58026 -2.54337 1.09312 
3.47577 -2.55296 1.28184 
3.33853 -2.554 1.37984 
3.24944 -2.5382 1.22984 
3.11533 -2.52695 1.1664 
3.01342 -2.52824 1.2459 
2.88132 -2.52605 1.29889 
2.7888 -2.48665 0.844806 
2.66006 -2.49197 0.993105 
2.56383 -2.47245 0.799138 
2.43066 -2.47115 0.864337 
2.33011 -2.46946 0.904435 
2.20263 -2.4531 0.770646 
2.10748 -2.42351 0.445473 
1.9744 -2.42155 0.502063 
1.87395 -2.41449 0.47237 
1.74298 -2.41532 0.56381 
1.63937 -2.39758 0.397528 
1.51529 -2.40095 0.517795 
1.41109 -2.38528 0.378694 
1.28804 -2.37274 0.291872 
1.1817 -2.32685 -0.237917 
1.04842 -2.32276 -0.208872 
0.948455 -2.29251 -0.539681 
0.81538 -2.27794 -0.646612 
0.715642 -2.2907 -0.419592 
0.581838 -2.25432 -0.809031 
0.480526 -2.238 -0.958266 
0.348324 -2.19682 -1.41111 
0.245183 -2.18509 -1.49965 
0.0109538 -2.19375 -1.24277 
-0.126339 -2.19797 -1.10337 
-0.225948 -2.17782 -1.30331 
-0.359261 -2.17462 -1.26263 
-0.466171 -2.19722 -0.903412 
-0.59575 -2.17643 -1.0932 
-0.699533 -2.15867 -1.25966 
-0.937183 -2.1635 -1.05034 
-1.06982 -2.15446 -1.08582 
-1.1696 -2.16308 -0.912344 
-1.30596 -2.15887 -0.88283 
-1.39915 -2.16833 -0.702581 
-1.5407 -2.14838 -0.874097 
-1.63864 -2.16374 -0.614303 
-1.76987 -2.15528 -0.643002 
-1.86426 -2.18237 -0.233275 
-1.99863 -2.1627 -0.405498 
-2.09799 -2.1751 -0.183223 
-2.2337 -2.15621 -0.344514 
-2.3293 -2.1771 -0.014548 
-2.46174 -2.15913 -0.165871 
-2.55767 -2.176 0.11232 
-2.69338 -2.15807 -0.0364884 
-2.79439 -2.16715 0.143637 
-2.92357 -2.1612 0.146233 
-3.033 -2.14675 0.0263132 
-3.15935 -2.13941 0.00919751 
-3.26608 -2.13437 0.00970402 
-3.39306 -2.1339 0.0820686 
5.9848 -2.46895 -0.863447 
5.86206 -2.50411 -0.333904 
5.73028 -2.49523 -0.367867 
5.61729 -2.5075 -0.140051 
5.4729 -2.52634 0.191884 
5.37587 -2.51739 0.135801 
5.23549 -2.52497 0.319895 
5.10808 -2.56082 0.861248 
4.99591 -2.52845 0.511829 
4.64226 -2.54335 0.921368 
4.52137 -2.52163 0.714945 
4.40826 -2.53353 0.938094 
4.2821 -2.52625 0.921529 
4.16901 -2.54227 1.19791 
4.05033 -2.515 0.918405 
3.94016 -2.52667 1.13687 
3.70323 -2.52286 1.23304 
3.58505 -2.51243 1.17087 
3.47144 -2.52467 1.39882 
3.3439 -2.50211 1.18563 
