ply
format ascii 1.0
element vertex 1857
property float x
property float y
property float z
end_header
3.52297 4.99813 -0.112973 
3.42043 4.99884 -0.0747275 
2.74575 4.62222 2.91885 
2.63228 4.57051 3.33874 
2.50389 4.56739 3.41547 
2.3952 4.53967 3.66071 
2.2656 4.50737 3.94785 
2.1599 4.47998 4.18948 
2.03598 4.50907 4.03271 
1.93681 4.50181 4.12682 
1.81163 4.52725 3.99677 
1.71079 4.53302 3.99793 
1.58245 4.51485 4.18292 
1.48333 4.5138 4.23233 
1.35365 4.48933 4.4632 
1.2571 4.50961 4.3582 
1.13124 4.52588 4.29443 
1.03041 4.53916 4.24155 
0.904862 4.5819 3.98725 
0.80287 4.54185 4.31849 
0.677438 4.56343 4.21629 
0.5778 4.55653 4.3081 
0.455067 4.57023 4.2615 
0.35286 4.5757 4.26545 
0.228683 4.61517 4.03409 
0.125722 4.59337 4.23446 
0.00124032 4.65285 3.85936 
-0.101827 4.63937 3.99993 
-0.228152 4.67768 3.7779 
-0.328775 4.66848 3.88666 
-0.455807 4.68979 3.78713 
-0.556207 4.68829 3.84045 
-0.684203 4.74916 3.45681 
-0.784 4.73473 3.60287 
-0.91252 4.78629 3.28647 
-1.0133 4.7763 3.40101 
-1.14339 4.83412 3.04022 
-1.24111 4.81276 3.23523 
-1.37117 4.83318 3.14341 
-1.4724 4.82693 3.2313 
-1.60456 4.88618 2.86106 
-1.70637 4.88573 2.90747 
-1.83314 4.91382 2.75913 
-1.93546 4.91547 2.79058 
-2.06327 4.94 2.66829 
-2.16331 4.91606 2.8829 
-2.39511 4.93534 2.84245 
-2.52213 4.94891 2.7987 
-2.62415 4.95271 2.81458 
-2.74998 4.9536 2.86152 
-2.85142 4.96397 2.82992 
-2.98053 4.97516 2.80419 
-3.07969 4.95341 3.00265 
-3.29833 4.9235 3.31053 
-3.42812 4.93312 3.29636 
-3.53013 4.95081 3.21239 
-3.6539 4.93487 3.37951 
-3.75092 4.92671 3.47937 
-3.86612 4.88389 3.83623 
-3.96407 4.89033 3.83149 
-4.08824 4.87817 3.97164 
-4.18864 4.88355 3.97549 
-4.30191 4.84539 4.29812 
-4.40932 4.86939 4.17103 
-4.52437 4.84671 4.38299 
-4.62573 4.85397 4.37376 
-4.74403 4.83812 4.53798 
-4.85124 4.86008 4.42555 
-4.96584 4.83838 4.63029 
-5.06835 4.85076 4.58473 
-5.19621 4.86386 4.54476 
-5.28858 4.84575 4.71429 
-5.42151 4.87537 4.55758 
-5.51548 4.86235 4.69118 
-5.64307 4.87633 4.6448 
4.50066 5.0785 -0.829141 
4.40257 5.12336 -1.10965 
4.01536 5.06963 -0.560829 
3.89654 5.03047 -0.229706 
3.78548 5.11283 -0.773851 
3.6788 5.08898 -0.557704 
3.41787 4.99631 0.2173 
2.97626 4.64981 2.88998 
2.74775 4.66135 2.90355 
2.6412 4.6515 3.0192 
2.49895 4.56998 3.66426 
2.40332 4.60075 3.48382 
2.2685 4.55368 3.87845 
2.16434 4.54677 3.97206 
2.03677 4.52496 4.18242 
1.94109 4.5698 3.90102 
1.81369 4.55645 4.05064 
1.71108 4.55454 4.10766 
1.58476 4.54524 4.22779 
1.48542 4.54806 4.2495 
1.35535 4.54932 4.29543 
1.25734 4.53626 4.43049 
1.1319 4.54642 4.41061 
1.03139 4.57206 4.26909 
0.905357 4.58511 4.22872 
0.807475 4.5981 4.17684 
0.679722 4.618 4.08805 
0.579938 4.58077 4.39732 
0.456637 4.60709 4.26061 
0.354111 4.61609 4.23931 
0.231394 4.63577 4.14994 
0.126413 4.63974 4.16585 
0.00200525 4.67674 3.95291 
-0.100571 4.68161 3.96133 
-0.224981 4.68016 4.02439 
-0.323215 4.67682 4.08989 
-0.453344 4.70993 3.90728 
-0.551888 4.69796 4.03484 
-0.680281 4.74834 3.72758 
-0.781824 4.77436 3.5838 
-0.91109 4.81726 3.33061 
-1.01186 4.80529 3.45911 
-1.14182 4.84934 3.19802 
-1.24078 4.8367 3.33053 
-1.36822 4.87211 3.13032 
-1.47336 4.88655 3.07121 
-1.60144 4.9139 2.92911 
-1.70608 4.93376 2.83083 
-1.83092 4.9587 2.70472 
-1.93446 4.95137 2.80113 
-2.06219 4.96936 2.72605 
-2.16435 4.96686 2.7872 
-2.39024 4.96001 2.932 
-2.52133 4.9926 2.75362 
-2.62007 4.98158 2.87445 
-2.74894 4.99035 2.86612 
-2.84741 4.99343 2.88565 
-2.97575 4.98199 3.02215 
-3.07523 4.98736 3.02573 
-3.30079 4.99042 3.09923 
-3.42988 4.99151 3.14609 
-3.53204 4.99824 3.1411 
-3.65691 4.99296 3.23183 
-3.75298 4.97585 3.39538 
-3.86434 4.927 3.79316 
-4.08438 4.90579 4.03861 
-4.19391 4.93848 3.85036 
-4.31313 4.92531 3.99538 
-4.40383 4.89542 4.24838 
-4.53328 4.91699 4.14838 
-4.62375 4.88865 4.39019 
-4.74294 4.87778 4.5187 
-4.84261 4.87832 4.5571 
-4.96475 4.8746 4.63551 
-5.06211 4.87195 4.69586 
-5.19172 4.89001 4.62119 
-5.28482 4.87591 4.76184 
-5.41609 4.89875 4.6536 
-5.51388 4.90043 4.68298 
-5.64781 4.93058 4.52337 
4.66899 5.22272 -1.65898 
4.38994 5.11288 -0.755102 
4.00911 5.08231 -0.37588 
3.91557 5.1242 -0.636376 
3.7861 5.14497 -0.730534 
3.68288 5.1374 -0.63286 
2.74339 4.67176 3.09664 
2.65515 4.74521 2.60801 
2.50535 4.63089 3.48959 
2.41525 4.68862 3.11429 
2.27145 4.58865 3.89065 
2.17125 4.6113 3.77076 
2.04012 4.57445 4.08983 
1.93704 4.56542 4.19799 
1.8131 4.58385 4.1183 
1.71187 4.57587 4.21815 
1.58702 4.58097 4.23427 
1.48795 4.60226 4.1236 
1.36017 4.58994 4.26574 
1.25939 4.57343 4.42647 
1.13335 4.58476 4.39854 
1.03267 4.59888 4.3399 
0.907752 4.63057 4.16578 
0.809062 4.62954 4.21473 
0.681446 4.64152 4.18283 
0.580853 4.63609 4.2642 
0.457146 4.63196 4.34595 
0.357419 4.65108 4.25115 
0.232644 4.66131 4.23062 
0.129938 4.66818 4.22478 
0.00356549 4.70849 3.98953 
-0.0966608 4.7044 4.06113 
-0.22489 4.74452 3.82802 
-0.323663 4.7338 3.94647 
-0.451734 4.75221 3.86875 
-0.550028 4.76055 3.8505 
-0.677551 4.7978 3.63767 
-0.782191 4.81459 3.56166 
-0.910709 4.86484 3.25615 
-1.01142 4.86724 3.28147 
-1.13869 4.89633 3.12698 
-1.23634 4.86206 3.4136 
-1.46993 4.9483 2.89476 
-1.59989 4.96636 2.8204 
-1.69977 4.95621 2.93524 
-1.83022 4.99287 2.72792 
-1.93277 4.97979 2.86489 
-2.05922 4.99152 2.83431 
-2.1627 5.00713 2.7663 
-2.39213 5.01225 2.82664 
-2.51907 5.00864 2.90611 
-2.62069 5.02286 2.84728 
-2.75001 5.03458 2.81803 
-2.8463 5.02937 2.89604 
-2.97028 5.01242 3.0698 
-3.0723 5.02137 3.04888 
-3.30455 5.03445 3.05341 
-3.42512 5.01249 3.26169 
-3.52359 5.00704 3.34235 
-3.64975 5.0104 3.37167 
-3.7526 5.01647 3.37174 
-3.86883 4.98183 3.66892 
-3.9751 5.00522 3.54638 
-4.08928 4.96658 3.8714 
-4.18636 4.9553 3.99324 
-4.30578 4.94454 4.12087 
-4.40682 4.94922 4.13012 
-4.52389 4.93141 4.3072 
-4.62614 4.93385 4.33302 
-4.74308 4.91637 4.50768 
-4.83774 4.9066 4.61768 
-4.96267 4.91413 4.61666 
-5.05885 4.90295 4.73745 
-5.18193 4.90782 4.75467 
-5.27956 4.90346 4.82727 
-5.40955 4.92472 4.73005 
-5.50801 4.92534 4.76734 
-5.63717 4.94425 4.68657 
4.40208 5.17331 -0.919063 
4.13607 5.10261 -0.302234 
4.02051 5.14499 -0.556287 
3.91095 5.13636 -0.448562 
3.79013 5.19181 -0.793818 
3.67964 5.15673 -0.496733 
3.42388 5.10038 0.0133326 
2.74127 4.69268 3.21289 
2.63849 4.68981 3.27666 
2.50928 4.6767 3.42471 
2.40624 4.6744 3.48453 
2.27467 4.63703 3.80683 
2.17739 4.66999 3.61236 
2.04457 4.62848 3.96486 
1.94292 4.62689 4.01901 
1.81469 4.62666 4.07464 
1.71578 4.64435 3.98993 
1.59249 4.64714 4.02196 
1.49007 4.6357 4.14685 
1.36001 4.60602 4.41367 
1.26134 4.6222 4.33964 
1.13469 4.63064 4.3327 
1.03591 4.66122 4.15593 
0.910537 4.67638 4.10041 
0.81099 4.68109 4.10873 
0.684176 4.68973 4.10047 
0.583887 4.68558 4.17237 
0.456635 4.6941 4.16514 
0.358051 4.68261 4.28878 
0.232928 4.69847 4.22825 
0.13046 4.71051 4.18548 
0.00443229 4.74583 3.98629 
-0.0972486 4.76366 3.90177 
-0.223353 4.75506 4.01636 
-0.322639 4.77794 3.89481 
-0.447628 4.76898 4.01154 
-0.552184 4.7989 3.84185 
-0.678051 4.85683 3.48116 
-0.780027 4.8588 3.51006 
-0.90651 4.87944 3.41597 
-1.00947 4.88143 3.44518 
-1.13164 4.91231 3.27613 
-1.23915 4.96028 2.97878 
-1.36696 4.94215 3.16221 
-1.4691 4.94879 3.15794 
-1.59888 5.0003 2.84466 
-1.69795 5.00063 2.88415 
-1.82929 5.02737 2.74849 
-1.93156 5.01323 2.89268 
-2.05747 5.05046 2.67985 
-2.15976 5.03946 2.80165 
-2.38808 5.03985 2.89522 
-2.51794 5.05992 2.80671 
-2.61628 5.06682 2.79891 
-2.74798 5.0681 2.84534 
-2.84443 5.05611 2.97179 
-2.97052 5.07326 2.90247 
-3.07893 5.0907 2.82363 
-3.29414 5.04447 3.24487 
-3.41954 5.03895 3.33728 
-3.52157 5.04858 3.31155 
-3.64673 5.04824 3.36684 
-3.75621 5.07655 3.21086 
-3.86997 5.03323 3.56842 
-3.97299 5.03134 3.62549 
-4.08826 5.01205 3.81197 
-4.18666 4.99532 3.9731 
-4.29896 4.96611 4.22928 
-4.39622 4.96444 4.28232 
-4.5212 4.9649 4.33189 
-4.62596 4.97569 4.29905 
-4.74184 4.95721 4.48006 
-4.84187 4.95741 4.52093 
-4.96117 4.95343 4.59979 
-5.05822 4.9418 4.72393 
-5.17694 4.93378 4.83147 
-5.28583 4.96166 4.67831 
-5.41287 4.97522 4.63514 
-5.50773 4.96527 4.74636 
-5.64543 5.0056 4.51646 
4.67689 5.30627 -1.70957 
4.51765 5.23376 -1.12593 
4.40483 5.20939 -0.904855 
4.01034 5.14597 -0.287146 
3.90982 5.16678 -0.393205 
3.79147 5.22359 -0.74836 
3.68251 5.20331 -0.558075 
3.53438 5.12577 0.0567916 
3.42933 5.17087 -0.22047 
2.64869 4.77336 2.94073 
2.5066 4.69743 3.54157 
2.42053 4.77969 2.99155 
2.2776 4.67795 3.77671 
2.17759 4.70194 3.64781 
2.0461 4.6554 4.03484 
1.94827 4.68658 3.85376 
1.8182 4.67625 3.98208 
1.72003 4.71129 3.77367 
1.59245 4.6795 4.05387 
1.48937 4.68407 4.06468 
1.36502 4.68329 4.12261 
1.26125 4.66125 4.32336 
1.13841 4.68201 4.22708 
1.03872 4.68295 4.26232 
0.909421 4.69921 4.20084 
0.812153 4.69772 4.25245 
0.686719 4.71485 4.18309 
0.586803 4.72811 4.13071 
0.361038 4.71601 4.31198 
0.233782 4.74936 4.12782 
0.131582 4.75343 4.14187 
0.00603891 4.76564 4.10768 
-0.0936795 4.78798 3.99048 
-0.223037 4.82933 3.75023 
-0.321859 4.80945 3.93355 
-0.549378 4.851 3.7332 
-0.675396 4.8883 3.52046 
-0.776478 4.86322 3.74176 
-0.904497 4.94035 3.24596 
-1.00656 4.92829 3.37493 
-1.1332 4.96767 3.14759 
-1.23646 4.96631 3.20077 
-1.36585 4.99154 3.07548 
-1.46709 4.986 3.15762 
-1.5951 5.04564 2.78647 
-1.69984 5.03198 2.92797 
-1.82538 5.05133 2.84293 
-1.92928 5.05627 2.85156 
-2.05788 5.09895 2.6015 
-2.1601 5.07239 2.83392 
-2.38634 5.08653 2.8285 
-2.51513 5.0898 2.85954 
-2.6122 5.07973 2.97222 
-2.74335 5.09704 2.90415 
-2.84175 5.09055 2.99191 
-2.97198 5.12175 2.82443 
-3.06964 5.10451 2.98856 
-3.29081 5.07577 3.28668 
-3.42213 5.08952 3.24407 
-3.52364 5.09881 3.22065 
-3.64789 5.09661 3.28879 
-3.74665 5.09063 3.37308 
-3.86578 5.06232 3.62519 
-3.96704 5.06814 3.62639 
-4.08984 5.05578 3.76632 
-4.18909 5.05097 3.8425 
-4.30458 5.02495 4.07673 
-4.39548 4.99808 4.30667 
-4.52494 5.01593 4.23408 
-4.62152 5.00637 4.34301 
-4.73973 4.99272 4.49026 
-4.84207 4.99942 4.48565 
-4.95851 4.98582 4.63179 
-5.06609 5.00884 4.51312 
-5.1825 4.99401 4.66802 
-5.28148 4.9911 4.73059 
-5.41695 5.03026 4.50864 
-5.51496 5.02712 4.57239 
-5.64691 5.0512 4.45646 
4.01876 5.20284 -0.424364 
3.90778 5.18511 -0.251752 
3.79942 5.2785 -0.87035 
3.68425 5.24488 -0.582967 
3.53711 5.20328 -0.22536 
3.43424 5.21337 -0.253962 
3.19777 5.1817 0.0704724 
2.51165 4.73653 3.52412 
2.41458 4.78354 3.23059 
2.27954 4.72052 3.73546 
2.17574 4.70449 3.89309 
2.05376 4.74771 3.63698 
1.94824 4.72118 3.86994 
1.82211 4.73259 3.84179 
1.72197 4.7348 3.86815 
1.59643 4.72996 3.95532 
1.49393 4.72768 4.01461 
1.36733 4.72018 4.12111 
1.26453 4.71793 4.18035 
1.13864 4.7213 4.20926 
1.03891 4.71265 4.31271 
0.912204 4.73673 4.19476 
0.812111 4.73724 4.23316 
0.687461 4.74827 4.20712 
0.587712 4.75794 4.18034 
0.362799 4.73203 4.45917 
0.235783 4.77298 4.22132 
0.134915 4.76842 4.29618 
0.00888355 4.80484 4.0902 
-0.0905117 4.82903 3.95999 
-0.218979 4.85707 3.81463 
-0.31993 4.84406 3.94959 
-0.547786 4.8641 3.90293 
-0.673376 4.89959 3.70335 
-0.776202 4.92937 3.53482 
-0.901235 4.98352 3.20237 
-1.00374 4.96942 3.34576 
-1.13492 5.01846 3.05219 
-1.23264 5.00818 3.16643 
-1.36364 5.04065 2.99061 
-1.46162 5.00454 3.28871 
-1.59291 5.06267 2.93055 
-1.69435 5.06743 2.9394 
-1.82457 5.09054 2.8298 
-1.92768 5.08525 2.91087 
-2.05236 5.1047 2.82503 
-2.15658 5.11643 2.78546 
-2.28049 5.09791 2.9694 
-2.38341 5.10435 2.96689 
-2.5105 5.12416 2.87957 
-2.61424 5.13445 2.85002 
-2.74136 5.13582 2.89381 
-2.84497 5.15501 2.80095 
-2.97239 5.14585 2.91984 
-3.06662 5.1352 3.03527 
-3.19532 5.13395 3.09834 
-3.29393 5.13116 3.15977 
-3.42169 5.13815 3.16385 
-3.52349 5.1331 3.24266 
-3.64444 5.12662 3.33975 
-3.74615 5.122 3.41543 
-3.86548 5.10466 3.58909 
-4.07405 5.04868 4.07514 
-4.19761 5.1312 3.54032 
-4.30061 5.05476 4.1274 
-4.39885 5.04856 4.21292 
-4.52014 5.04874 4.26275 
-4.61965 5.04554 4.32751 
-4.74135 5.04185 4.40504 
-4.84725 5.05839 4.33207 
-4.94901 5.00131 4.78099 
-5.05514 5.0192 4.69848 
-5.17959 5.0292 4.67983 
-5.27925 5.0268 4.73898 
-5.41236 5.05493 4.59506 
-5.50987 5.05442 4.63977 
-5.64244 5.08235 4.49708 
4.67684 5.36957 -1.61267 
4.52628 5.31414 -1.1563 
4.40081 5.26606 -0.762593 
4.14426 5.21155 -0.268374 
4.02291 5.24696 -0.468761 
3.91735 5.25644 -0.491795 
3.79214 5.2875 -0.65965 
3.68452 5.2796 -0.558501 
3.53894 5.23692 -0.194697 
2.43282 4.90334 2.63583 
2.28469 4.77856 3.58328 
2.18151 4.77745 3.63441 
2.05118 4.7624 3.79591 
1.94802 4.74085 3.99211 
1.82464 4.7655 3.86899 
1.72375 4.74929 4.02634 
1.59696 4.7449 4.11064 
1.4933 4.75627 4.07346 
1.36681 4.73623 4.26876 
1.2672 4.75642 4.1673 
1.14122 4.75021 4.26427 
1.04265 4.77401 4.13675 
0.914088 4.79821 4.01903 
0.81449 4.78117 4.18173 
0.690074 4.78043 4.23924 
0.58844 4.78911 4.22034 
0.465514 4.79139 4.25579 
0.364801 4.80234 4.2204 
0.236063 4.8369 4.02924 
0.137254 4.82205 4.1761 
0.0113147 4.8535 4.00584 
-0.0915971 4.874 3.90362 
-0.218035 4.87869 3.92346 
-0.318122 4.87607 3.98406 
-0.443389 4.88349 3.98408 
-0.542393 4.89236 3.96269 
-0.67184 4.951 3.601 
-0.773546 4.95458 3.61834 
-0.90092 5.02425 3.17749 
-1.00254 5.02323 3.22745 
-1.13135 5.06102 3.01343 
-1.23057 5.04061 3.19993 
-1.46394 5.06216 3.14515 
-1.59417 5.12334 2.76572 
-1.69316 5.09295 3.02299 
-1.82268 5.12587 2.84389 
-1.92472 5.12469 2.89512 
-2.05308 5.14901 2.77655 
-2.15116 5.14216 2.86641 
-2.38348 5.12973 3.05226 
-2.50929 5.17137 2.80971 
-2.61079 5.15823 2.94567 
-2.74341 5.18537 2.80888 
-2.84117 5.18167 2.87622 
-2.97041 5.19317 2.84897 
-3.07017 5.19252 2.89554 
-3.29728 5.1766 3.10412 
-3.41492 5.14881 3.35078 
-3.52036 5.17781 3.18938 
-3.63977 5.15072 3.43186 
-3.74689 5.17535 3.30221 
-3.86892 5.16346 3.4379 
-3.96314 5.1295 3.71856 
-4.07285 5.08688 4.06719 
-4.17985 5.11245 3.9308 
-4.298 5.09233 4.1233 
-4.39885 5.09222 4.16655 
-4.51571 5.07444 4.34198 
-4.62093 5.08857 4.286 
-4.73971 5.08145 4.38653 
-4.83513 5.06324 4.55596 
-4.95664 5.06254 4.61209 
-5.05959 5.07184 4.58945 
-5.17197 5.04583 4.82143 
-5.27914 5.06799 4.70932 
-5.41337 5.10206 4.52404 
-5.51426 5.10882 4.51858 
-5.64019 5.11829 4.50441 
4.40619 5.31792 -0.861548 
4.15029 5.26647 -0.390283 
4.01167 5.23428 -0.104387 
3.9103 5.25916 -0.238065 
3.78856 5.30539 -0.514365 
3.68922 5.32192 -0.589826 
3.53301 5.24728 0.00398771 
3.19945 5.27015 -0.0182606 
2.28724 4.81614 3.57774 
2.17865 4.77948 3.88275 
2.05258 4.77684 3.95425 
1.95335 4.80394 3.80401 
1.8259 4.79699 3.9066 
1.7239 4.80936 3.86174 
1.59735 4.77383 4.16631 
1.49853 4.81007 3.95118 
1.37257 4.78956 4.14918 
1.26991 4.79302 4.16777 
1.14445 4.81047 4.0968 
1.04372 4.81326 4.11929 
0.917763 4.82436 4.09353 
0.816506 4.81258 4.21934 
0.69085 4.83557 4.10933 
0.590757 4.82785 4.20591 
0.465404 4.82886 4.25133 
0.364334 4.82026 4.35466 
0.23866 4.87244 4.03792 
0.139107 4.85681 4.19034 
0.012026 4.88719 4.02855 
-0.0912076 4.89884 3.98941 
-0.216096 4.92651 3.84589 
-0.313205 4.90809 4.01708 
-0.441582 4.91591 4.01557 
-0.543728 4.9662 3.7024 
-0.672406 4.98441 3.62747 
-0.771524 5.02292 3.39642 
-0.899501 5.04627 3.28481 
-1.00083 5.0458 3.33066 
-1.13011 5.08172 3.13063 
-1.2305 5.08623 3.14081 
-1.46372 5.11533 3.03266 
-1.5897 5.13355 2.9566 
-1.68777 5.11026 3.16266 
-1.81742 5.14058 3.00244 
-1.92073 5.15875 2.91716 
-2.05305 5.20084 2.67473 
-2.1509 5.16921 2.93972 
-2.37754 5.16241 3.0831 
-2.51234 5.20745 2.8208 
-2.60828 5.19804 2.92773 
-2.74002 5.21462 2.86573 
-2.83774 5.21156 2.92843 
-2.96344 5.20236 3.0464 
-3.06629 5.21216 3.02018 
-3.2969 5.22893 2.99839 
-3.4135 5.18932 3.32782 
-3.52392 5.23867 3.02482 
-3.64301 5.20505 3.31292 
-3.74756 5.21898 3.25825 
-3.85854 5.15686 3.7447 
-4.07428 5.12986 4.02661 
-4.18167 5.16511 3.82217 
-4.29218 5.11613 4.21544 
-4.40787 5.16574 3.9128 
-4.5187 5.12449 4.2515 
-4.61524 5.11445 4.36323 
-4.73816 5.11706 4.3964 
-4.83776 5.1129 4.46776 
-4.95671 5.1043 4.57875 
-5.05667 5.10557 4.61179 
-5.1756 5.09768 4.71767 
-5.27779 5.10609 4.70113 
-5.40342 5.11622 4.68222 
-5.50471 5.12316 4.67572 
-5.64125 5.16123 4.46363 
4.49727 5.29476 -0.466054 
4.41724 5.37924 -1.02923 
4.15801 5.3231 -0.524354 
4.0199 5.30363 -0.329157 
3.90967 5.28899 -0.179634 
3.79861 5.37754 -0.758635 
3.68736 5.34561 -0.48661 
2.53307 4.9261 2.9592 
2.28678 4.84275 3.65096 
2.18832 4.86522 3.53346 
2.05425 4.82856 3.84845 
1.95749 4.86033 3.66455 
1.82902 4.8575 3.73831 
1.73264 4.86274 3.74164 
1.60138 4.84199 3.94316 
1.49934 4.83507 4.03478 
1.37143 4.83032 4.12184 
1.27209 4.82877 4.17437 
1.14649 4.84641 4.10242 
1.04578 4.83925 4.19509 
0.918308 4.87185 4.01825 
0.819532 4.85193 4.20032 
0.693543 4.87093 4.11886 
0.592143 4.86184 4.22556 
0.368163 4.86822 4.27432 
0.241938 4.9034 4.07868 
0.141166 4.88365 4.26038 
0.0135063 4.93203 3.97214 
-0.0873265 4.92415 4.07002 
-0.214387 4.93808 4.02491 
-0.31583 4.96941 3.84609 
-0.543039 4.97173 3.92488 
-0.669674 5.05505 3.38941 
-0.768621 5.02399 3.6503 
-0.897817 5.08256 3.29072 
-1.00186 5.08764 3.29845 
-1.1281 5.11189 3.18004 
-1.22801 5.13238 3.07718 
-1.46078 5.15584 3.00908 
-1.58996 5.19416 2.7925 
-1.68847 5.18549 2.89508 
-1.82077 5.2256 2.66717 
-1.92377 5.22869 2.68859 
-2.0499 5.21726 2.82219 
-2.1501 5.2211 2.83712 
-2.3765 5.21358 2.98519 
-2.50611 5.23057 2.91953 
-2.6059 5.22713 2.98572 
-2.73936 5.26605 2.76675 
-2.83654 5.24441 2.9604 
-2.96151 5.23541 3.07642 
-3.06472 5.25063 3.01222 
-3.18928 5.23749 3.1573 
-3.29014 5.24725 3.13068 
-3.41269 5.23664 3.25709 
-3.51673 5.24947 3.21016 
-3.64255 5.24941 3.26339 
-3.73857 5.23675 3.39315 
-3.85917 5.20329 3.68015 
-3.96463 5.22612 3.56317 
-4.06925 5.15287 4.12455 
-4.1746 5.18287 3.95684 
-4.28932 5.14465 4.27507 
-4.40142 5.18377 4.04577 
-4.51347 5.1505 4.32784 
-4.61473 5.15266 4.35516 
-4.73587 5.15306 4.40322 
-4.83375 5.14759 4.48297 
-4.95499 5.13993 4.58806 
-5.05714 5.14918 4.56562 
-5.17413 5.13262 4.73174 
-5.27609 5.14367 4.69652 
-5.40675 5.167 4.58657 
-5.50472 5.16452 4.64533 
-5.63701 5.19447 4.48932 
4.1544 5.34354 -0.398144 
4.02917 5.36305 -0.483318 
3.93021 5.39384 -0.658985 
3.79263 5.37636 -0.478376 
3.68792 5.37215 -0.404997 
3.53708 5.32167 0.0137314 
3.20798 5.34094 0.0153844 
2.96821 5.35821 -0.00617573 
2.2844 4.87008 3.7196 
2.18594 4.8765 3.71549 
2.06224 4.89897 3.60886 
1.96185 4.90753 3.59045 
1.83508 4.91942 3.55966 
1.73318 4.91594 3.62676 
1.60251 4.87454 3.97321 
1.50512 4.90607 3.79168 
1.37214 4.83865 4.32246 
1.27215 4.85141 4.27431 
1.14767 4.86888 4.20328 
1.04621 4.88331 4.14401 
0.91866 4.88353 4.1958 
0.820212 4.89226 4.1754 
0.694663 4.88079 4.30875 
0.594446 4.87916 4.36216 
0.36732 4.89559 4.34139 
0.245273 4.92485 4.18625 
0.142026 4.9263 4.21922 
0.0134188 4.96607 3.99273 
-0.0849017 4.95654 4.10107 
-0.210988 4.97242 4.0419 
-0.314772 4.99159 3.95018 
-0.537739 5.0175 3.86089 
-0.667638 5.07197 3.53138 
-0.767615 5.06081 3.65188 
-0.896121 5.11457 3.32674 
-0.999384 5.13852 3.20116 
-1.12672 5.15903 3.10991 
-1.22364 5.14192 3.2711 
-1.35466 5.17032 3.12579 
-1.45612 5.16671 3.19373 
-1.58343 5.18431 3.12299 
-1.68598 5.21503 2.94942 
-1.81863 5.27088 2.61132 
-1.92009 5.23328 2.91883 
-2.04771 5.24374 2.89854 
-2.14782 5.23527 3.00016 
-2.37359 5.23607 3.08915 
-2.49914 5.25024 3.04183 
-2.60276 5.27545 2.90759 
-2.73822 5.3008 2.7857 
-2.8322 5.28711 2.92155 
-2.96346 5.29066 2.95155 
-3.05752 5.27359 3.1113 
-3.29077 5.30667 2.97589 
-3.41533 5.28873 3.15451 
-3.51775 5.2904 3.18567 
-3.63133 5.24274 3.56929 
-3.73908 5.27228 3.40624 
-3.85372 5.23474 3.7189 
-3.95889 5.24502 3.69056 
-4.07605 5.2212 3.90757 
-4.1724 5.21444 3.99562 
-4.29332 5.20299 4.12711 
-4.39477 5.20157 4.17963 
-4.51366 5.19474 4.2777 
-4.61694 5.20213 4.26893 
-4.73281 5.18362 4.448 
-4.82726 5.16657 4.60784 
-4.94999 5.17029 4.63307 
-5.0528 5.18021 4.60628 
-5.17864 5.18786 4.60517 
-5.27584 5.18457 4.66915 
-5.40884 5.21639 4.50071 
-5.50318 5.20268 4.63691 
-5.63244 5.22008 4.56853 
4.51995 5.43244 -0.907677 
4.27478 5.41649 -0.693341 
4.15559 5.37606 -0.359347 
4.02485 5.37715 -0.312485 
3.93036 5.42596 -0.616295 
3.79092 5.40215 -0.390753 
3.6964 5.44032 -0.619704 
3.54038 5.35717 0.0299897 
3.43488 5.32625 0.291425 
3.30887 5.36975 0.0381383 
3.20883 5.38011 0.0069815 
2.53055 4.97687 3.12549 
2.41692 4.91589 3.60166 
2.29905 4.96829 3.28244 
2.18767 4.91295 3.71802 
2.06522 4.94383 3.55205 
1.96082 4.91804 3.77694 
1.83503 4.94334 3.65154 
1.73543 4.94682 3.66867 
1.60193 4.91579 3.94264 
1.50692 4.96499 3.6363 
1.37452 4.89929 4.15358 
1.27468 4.93241 3.96242 
1.14953 4.91579 4.13151 
1.04771 4.92026 4.1426 
0.921626 4.92635 4.15247 
0.821696 4.93312 4.14659 
0.697144 4.9172 4.31058 
0.596724 4.92957 4.26557 
0.471955 4.92928 4.31968 
0.37189 4.92449 4.3952 
0.244758 4.95281 4.24917 
0.144607 4.962 4.22641 
0.0178892 5.01524 3.90497 
-0.0855545 5.00769 4.00125 
-0.210223 5.01959 3.96973 
-0.309188 5.02039 4.00544 
-0.439303 5.06342 3.7572 
-0.53908 5.06334 3.7995 
-0.665216 5.11762 3.4705 
-0.76666 5.11005 3.56617 
-0.895053 5.15407 3.31026 
-0.999795 5.19028 3.09938 
-1.12652 5.20923 3.0191 
-1.22354 5.18246 3.24799 
-1.45398 5.19643 3.2461 
-1.5838 5.22932 3.0691 
-1.68736 5.24622 2.99355 
-1.81418 5.26112 2.94181 
-1.91874 5.27456 2.89104 
-2.04599 5.27322 2.95364 
-2.1461 5.2722 3.00274 
-2.37448 5.30669 2.85572 
-2.50127 5.30847 2.89626 
-2.60315 5.31238 2.91137 
-2.73599 5.32675 2.86589 
-2.83148 5.32798 2.89722 
-2.96005 5.31106 3.07002 
-3.05869 5.31679 3.07105 
-3.28537 5.31602 3.17134 
-3.41288 5.31494 3.23234 
-3.50836 5.29673 3.40038 
-3.64081 5.32943 3.22587 
-3.73677 5.31183 3.3898 
-3.85423 5.27481 3.69938 
-4.0747 5.26288 3.87562 
-4.18061 5.2833 3.7764 
-4.28945 5.23139 4.18711 
-4.3917 5.23561 4.20025 
-4.51179 5.23314 4.26793 
-4.6157 5.24091 4.2568 
-4.72763 5.21186 4.50801 
-4.83775 5.24008 4.35566 
-4.95315 5.2211 4.53754 
-5.04892 5.20853 4.66611 
-5.1735 5.21365 4.68229 
-5.27171 5.21452 4.71736 
-5.40745 5.25373 4.49847 
-5.51008 5.26231 4.48113 
-5.63382 5.26423 4.51953 
4.51972 5.46702 -0.881866 
4.17465 5.47179 -0.771641 
4.02962 5.42969 -0.415889 
3.91883 5.41107 -0.239092 
3.80817 5.49867 -0.807591 
3.69259 5.453 -0.439046 
3.56164 5.46643 -0.478766 
3.4541 5.45737 -0.370363 
3.20546 5.39851 0.146181 
2.97549 5.44563 -0.088647 
2.51803 4.95154 3.56863 
2.41976 4.95985 3.55126 
2.29835 4.98668 3.41364 
2.19358 4.97286 3.55423 
2.06847 4.9917 3.47426 
1.96399 4.96822 3.68257 
1.84381 5.00676 3.46224 
1.73938 4.99822 3.56573 
1.60521 4.95991 3.89042 
1.50837 4.9968 3.67202 
1.37692 4.92979 4.19698 
1.27685 4.94193 4.15353 
1.15016 4.938 4.23398 
1.05167 4.96399 4.09267 
0.923885 4.96638 4.12923 
0.824047 4.97213 4.13055 
0.69864 4.97025 4.19602 
0.599364 4.97483 4.20533 
0.372533 4.95955 4.40722 
0.2451 5.00814 4.11942 
0.147379 4.99427 4.25755 
0.019743 5.04112 3.98206 
-0.0834458 5.05277 3.94344 
-0.209446 5.06454 3.91346 
-0.309667 5.05739 4.00545 
-0.536832 5.11026 3.72932 
-0.662128 5.14002 3.57279 
-0.76454 5.14546 3.57736 
-0.893379 5.21247 3.16098 
-0.99579 5.22703 3.1016 
-1.12555 5.21909 3.21147 
-1.22149 5.23993 3.10531 
-1.35096 5.24893 3.09621 
-1.45014 5.21548 3.37234 
-1.58302 5.27591 3.00386 
-1.6841 5.28892 2.95479 
-1.81143 5.2969 2.95199 
-1.91343 5.28991 3.04363 
-2.04238 5.31802 2.90028 
-2.14423 5.30899 3.00621 
-2.37208 5.32884 2.96208 
-2.50135 5.3471 2.88803 
-2.60327 5.34786 2.92524 
-2.73423 5.3894 2.68854 
-2.83212 5.35635 2.96132 
-2.95872 5.35525 3.02198 
-3.05802 5.35541 3.06238 
-3.27814 5.33287 3.3126 
-3.41025 5.35636 3.20298 
-3.51273 5.36339 3.19649 
-3.63611 5.35056 3.33817 
-3.74222 5.36949 3.24969 
-3.85659 5.32771 3.59072 
-3.95228 5.3244 3.65396 
-4.05998 5.25033 4.2188 
-4.17821 5.31508 3.81386 
-4.28962 5.27301 4.15576 
-4.39252 5.28154 4.13894 
-4.51127 5.27015 4.26855 
-4.61101 5.27067 4.30666 
-4.72867 5.25353 4.47614 
-4.82673 5.24885 4.55003 
-4.9469 5.24682 4.61461 
-5.04879 5.25145 4.62478 
-5.17235 5.25421 4.65712 
-5.27538 5.26782 4.60474 
-5.40352 5.28399 4.54488 
-5.50372 5.28711 4.56496 
4.52107 5.49961 -0.842894 
4.03179 5.46527 -0.398953 
3.92601 5.47036 -0.390593 
3.79645 5.48262 -0.422523 
3.70243 5.52517 -0.681298 
3.56114 5.49853 -0.436014 
3.4584 5.5105 -0.477067 
3.20846 5.45578 0.00995825 
3.08501 5.49499 -0.21314 
2.98352 5.49644 -0.1811 
2.51984 4.98232 3.61105 
2.30586 5.05858 3.16625 
2.19744 5.02757 3.42849 
2.07154 5.03016 3.46277 
1.96946 5.02321 3.55393 
1.84147 5.02754 3.5769 
1.74587 5.05751 3.40688 
1.61339 5.02913 3.66075 
1.5106 5.02345 3.74337 
1.38015 4.97845 4.1127 
1.27875 4.99264 4.05559 
1.15507 5.02008 3.91503 
1.05057 4.98199 4.22523 
0.926817 5.00602 4.10854 
0.825524 5.00665 4.14633 
0.701084 4.99808 4.25823 
0.60021 5.02586 4.10573 
0.374092 4.99696 4.40233 
0.247695 5.03918 4.15944 
0.147855 5.04219 4.18 
0.0192975 5.08719 3.9185 
-0.0798569 5.08004 4.0099 
-0.206176 5.10659 3.87668 
-0.310123 5.11802 3.83998 
-0.536531 5.13858 3.79043 
-0.66187 5.17189 3.60954 
-0.763107 5.19726 3.47408 
-0.89323 5.24477 3.19575 
-0.994416 5.24927 3.20642 
-1.12148 5.2549 3.22 
-1.22304 5.27149 3.14625 
-1.45174 5.29414 3.08302 
-1.5799 5.31147 3.01518 
-1.67964 5.31944 3.00098 
-1.81093 5.33939 2.91609 
-1.91195 5.33053 3.02028 
-2.03725 5.34135 2.99683 
-2.14246 5.35744 2.92807 
-2.36722 5.34274 3.12475 
-2.4999 5.38433 2.88898 
-2.59913 5.38203 2.9465 
-2.73226 5.41402 2.77809 
-2.82694 5.38455 3.02396 
-2.95771 5.3925 3.02289 
-3.05256 5.38733 3.09868 
-3.18088 5.38856 3.14367 
-3.28585 5.40352 3.08276 
-3.40807 5.38788 3.24329 
-3.50963 5.39349 3.2464 
-3.63221 5.37857 3.40208 
-3.73139 5.37984 3.43461 
-3.84768 5.33877 3.77076 
-4.06262 5.30259 4.11394 
-4.18046 5.36528 3.72421 
-4.28423 5.30054 4.22092 
-4.39041 5.32375 4.10273 
-4.5034 5.28566 4.4167 
-4.61523 5.32765 4.16937 
-4.73136 5.30547 4.37324 
-4.83398 5.31388 4.35726 
-4.94888 5.29222 4.55695 
-5.05302 5.30523 4.50934 
-5.1713 5.29141 4.65559 
-5.2671 5.28665 4.72901 
-5.40326 5.32542 4.51446 
-5.50179 5.32305 4.57223 
4.53126 5.56279 -1.02138 
4.15555 5.47632 -0.261331 
4.03759 5.51761 -0.500741 
3.92225 5.4877 -0.243911 
3.80243 5.53908 -0.552981 
3.69711 5.54391 -0.542971 
3.56512 5.54196 -0.474539 
3.4584 5.53924 -0.411144 
3.20975 5.4901 0.0353644 
3.08397 5.50801 -0.0374228 
2.98491 5.5431 -0.241382 
2.52012 5.00676 3.69821 
2.18795 4.99033 3.95112 
2.07174 5.07214 3.42797 
1.96776 5.02973 3.76748 
1.84398 5.06314 3.58555 
1.74718 5.08663 3.46173 
1.61187 5.05735 3.72256 
1.51236 5.06338 3.72181 
1.38264 5.03793 3.95358 
1.28046 5.0416 3.97043 
1.15413 5.03851 4.04456 
1.05407 5.04859 4.01584 
0.92887 5.04387 4.1009 
0.829455 5.05343 4.07547 
0.703015 5.04844 4.16292 
0.601733 5.04308 4.24253 
0.475596 5.03797 4.33073 
0.372044 5.05343 4.26589 
0.249232 5.09431 4.0314 
0.149713 5.06634 4.2682 
0.0218273 5.14688 3.75886 
-0.0780393 5.10912 4.06423 
-0.20659 5.14222 3.88647 
-0.307478 5.14443 3.91305 
-0.431434 5.16178 3.84347 
-0.534469 5.16444 3.86781 
-0.659675 5.21312 3.5799 
-0.761357 5.2212 3.56578 
-0.890421 5.30156 3.05816 
-0.989869 5.27563 3.28075 
-1.12101 5.3037 3.13928 
-1.22259 5.33515 2.96192 
-1.34925 5.32357 3.09553 
-1.44905 5.31642 3.18705 
-1.57899 5.34914 3.01266 
-1.67987 5.35495 3.01408 
-1.81195 5.39284 2.80442 
-1.90836 5.34738 3.16223 
-2.04077 5.40954 2.7831 
-2.13726 5.35808 3.18287 
-2.3657 5.37512 3.15905 
-2.49707 5.42029 2.8982 
-2.59892 5.42641 2.89792 
-2.73658 5.48668 2.53429 
-2.82575 5.43195 2.95381 
-2.95637 5.43762 2.96864 
-3.05158 5.42289 3.11126 
-3.27551 5.40867 3.30399 
-3.41451 5.46093 2.9969 
-3.51763 5.46597 3.00471 
-3.63047 5.423 3.35195 
-3.73028 5.41642 3.43957 
-3.84743 5.38105 3.73554 
-4.06717 5.36072 3.96928 
-4.17425 5.38481 3.84568 
-4.2846 5.3492 4.14055 
-4.38769 5.35873 4.117 
-4.51401 5.36375 4.13462 
-4.61129 5.35935 4.20599 
-4.73011 5.34445 4.3597 
-4.82777 5.3387 4.44064 
-4.94889 5.33075 4.54672 
-5.04513 5.32325 4.63929 
-5.16588 5.32205 4.69812 
-5.27233 5.34043 4.61413 
-5.40239 5.36255 4.51395 
-5.49093 5.33478 4.74493 
4.16853 5.54947 -0.511178 
4.0299 5.52251 -0.26574 
3.92922 5.54175 -0.358047 
3.80154 5.55583 -0.40322 
3.693 5.55564 -0.356861 
3.56222 5.56534 -0.370222 
3.45023 5.54507 -0.182461 
3.21055 5.53682 -0.0254689 
3.08441 5.53885 0.0127242 
2.98233 5.55499 -0.0574161 
2.52027 5.04516 3.68779 
2.29701 5.06171 3.66516 
2.1909 5.03733 3.87912 
2.07726 5.1157 3.38009 
1.98327 5.16175 3.0982 
1.84464 5.10093 3.57967 
1.74772 5.12366 3.46154 
1.61397 5.10419 3.6528 
1.51166 5.06872 3.94253 
1.38727 5.10439 3.74557 
1.28177 5.07227 4.01329 
1.15554 5.0625 4.13387 
1.0548 5.08063 4.04934 
0.931031 5.07923 4.11054 
0.830402 5.07594 4.1753 
0.705255 5.08148 4.18871 
0.604632 5.07138 4.30091 
0.377417 5.10389 4.16881 
0.251327 5.10858 4.18854 
0.148987 5.10574 4.25089 
0.0226227 5.1414 4.05485 
-0.0776548 5.15679 3.98927 
-0.202746 5.17752 3.89684 
-0.301982 5.15559 4.09097 
-0.530255 5.18535 3.97843 
-0.657722 5.23819 3.66317 
-0.760514 5.24974 3.62544 
-0.888295 5.32954 3.12232 
-0.98912 5.3197 3.23285 
-1.1187 5.34014 3.14428 
-1.21949 5.35844 3.05865 
-1.34832 5.36817 3.04449 
-1.44416 5.33065 3.34591 
-1.57748 5.39043 2.98469 
-1.67883 5.3825 3.08214 
-1.80727 5.39996 3.01386 
-1.90685 5.41148 2.975 
-2.03339 5.40832 3.04975 
-2.13669 5.41379 3.05459 
-2.36388 5.41933 3.11056 
-2.49018 5.43826 3.03121 
-2.59412 5.45129 2.98366 
-2.72713 5.47318 2.88641 
-2.82722 5.47182 2.93757 
-2.95169 5.475 2.96726 
-3.05347 5.46673 3.06734 
-3.27724 5.4575 3.22483 
-3.40269 5.45807 3.27317 
-3.50527 5.46996 3.23296 
-3.63322 5.47604 3.24395 
-3.72902 5.45272 3.44638 
-4.05247 5.35263 4.27897 
-4.1613 5.38145 4.12342 
-4.27798 5.36736 4.27023 
-4.38792 5.39854 4.09873 
-4.50633 5.38127 4.26848 
-4.61456 5.40851 4.12367 
-4.7242 5.36386 4.48066 
-4.82311 5.36302 4.52778 
-4.94557 5.36484 4.56615 
-5.04876 5.37461 4.54108 
-5.16645 5.36357 4.66713 
-5.26931 5.3718 4.65263 
-5.50159 5.40497 4.51825 
4.53617 5.63649 -1.00333 
4.28115 5.59824 -0.631651 
4.18105 5.62394 -0.768913 
4.03505 5.57321 -0.355662 
3.93872 5.60707 -0.551213 
3.80507 5.59959 -0.44378 
3.69927 5.60814 -0.459363 
3.55855 5.58143 -0.215301 
3.45357 5.59544 -0.26921 
3.3168 5.55467 0.0709454 
3.21226 5.57208 -0.006759 
3.08391 5.5713 0.0518663 
2.98835 5.63083 -0.322512 
2.74835 5.61608 -0.12042 
2.07828 5.16469 3.29657 
1.98349 5.19057 3.1559 
1.85111 5.16433 3.3933 
1.7526 5.18396 3.2977 
1.6168 5.14913 3.59626 
1.51726 5.14465 3.66872 
1.38579 5.10475 4.00077 
1.28448 5.12677 3.88965 
1.15745 5.11694 4.01074 
1.0586 5.13387 3.93403 
0.932968 5.12268 4.06399 
0.831495 5.11238 4.17781 
0.706211 5.11103 4.2392 
0.6066 5.12989 4.14934 
0.479173 5.12082 4.26535 
0.379886 5.11696 4.33341 
0.254354 5.13499 4.26013 
0.151408 5.14321 4.24574 
0.0257968 5.1773 4.0608 
-0.0754568 5.19364 3.98923 
-0.201197 5.22772 3.80445 
-0.300579 5.2198 3.90082 
-0.429382 5.20581 4.05162 
-0.529409 5.24136 3.84593 
-0.656681 5.26933 3.70422 
-0.756641 5.28453 3.64003 
-0.884886 5.34583 3.26702 
-0.986996 5.35145 3.2703 
-1.11834 5.40685 2.9396 
-1.21564 5.37979 3.16827 
-1.34545 5.39222 3.13571 
-1.44456 5.37633 3.28746 
-1.57186 5.38968 3.24753 
-1.67522 5.39925 3.2239 
-1.80536 5.43772 3.01042 
-1.90518 5.42771 3.12156 
-2.03207 5.45086 3.01328 
-2.13789 5.47674 2.87728 
-2.36387 5.47163 3.00679 
-2.48966 5.47761 3.01748 
-2.59604 5.50813 2.84946 
-2.72443 5.50659 2.91361 
-2.82338 5.49437 3.0397 
-2.94977 5.507 3.00449 
-3.05546 5.51887 2.96584 
-3.27353 5.49773 3.20362 
-3.4051 5.51342 3.14925 
-3.50739 5.52924 3.08176 
-3.62892 5.50646 3.29076 
-3.74143 5.5501 3.03403 
-4.05757 5.41855 4.0807 
-4.16161 5.43234 4.02807 
-4.28651 5.43267 4.07778 
-4.38721 5.44265 4.05026 
-4.50326 5.41264 4.30732 
-4.60964 5.43584 4.19024 
-4.72203 5.4035 4.46199 
-4.82626 5.417 4.4115 
-4.93874 5.38908 4.65255 
-5.05051 5.4224 4.46735 
-5.16638 5.40456 4.63969 
-5.26795 5.40892 4.65167 
-5.40145 5.44593 4.44983 
-5.49115 5.42 4.66762 
4.17163 5.62552 -0.510687 
3.95287 5.68482 -0.831585 
3.81536 5.66772 -0.656028 
3.69805 5.62891 -0.338189 
3.5634 5.62107 -0.228028 
3.45746 5.63142 -0.25604 
3.08322 5.58958 0.189264 
2.98512 5.65158 -0.20035 
2.86141 5.6828 -0.36575 
2.74925 5.63309 0.0256273 
2.51836 5.65881 -0.0572123 
2.18839 5.06542 4.19707 
2.0737 5.13793 3.74138 
1.98673 5.24364 3.04389 
1.85595 5.21105 3.32425 
1.74967 5.18135 3.5744 
1.61567 5.14971 3.84947 
1.53167 5.28623 2.93691 
1.38666 5.13772 4.02761 
1.28631 5.16512 3.87905 
1.16186 5.15478 4.00238 
1.05959 5.14664 4.10128 
0.933559 5.16291 4.04059 
0.834268 5.16275 4.08291 
0.708208 5.15768 4.17035 
0.608639 5.15905 4.20214 
0.381544 5.14692 4.38047 
0.255918 5.20284 4.04452 
0.154334 5.18752 4.19293 
0.027032 5.22858 3.96085 
-0.0729605 5.22984 3.99357 
-0.199411 5.24861 3.91577 
-0.298343 5.24738 3.96532 
-0.528785 5.27349 3.87978 
-0.654727 5.30612 3.70559 
-0.755472 5.3335 3.55736 
-0.880555 5.35836 3.43677 
-0.986141 5.38176 3.31818 
-1.1165 5.41919 3.1125 
-1.21506 5.41773 3.16355 
-1.4413 5.41203 3.29703 
-1.57212 5.44214 3.14235 
-1.66956 5.41684 3.3584 
-1.79704 5.43842 3.26157 
-1.9036 5.46451 3.12475 
-2.02811 5.47752 3.08616 
-2.1315 5.4739 3.15424 
-2.35927 5.49109 3.12949 
-2.49332 5.53978 2.84727 
-2.5906 5.52023 3.02336 
-2.72441 5.54659 2.896 
-2.82122 5.53485 3.01767 
-2.95314 5.56248 2.88073 
-3.04577 5.51928 3.21904 
-3.27213 5.53438 3.20831 
-3.40632 5.56482 3.05278 
-3.50536 5.554 3.16902 
-3.6313 5.55731 3.1984 
-3.73334 5.55395 3.26413 
-3.83999 5.48516 3.7859 
-4.06126 5.47123 3.97457 
-4.16318 5.48343 3.93229 
-4.28404 5.46725 4.09485 
-4.37582 5.4455 4.28395 
-4.50208 5.45308 4.28384 
-4.6059 5.46644 4.23433 
-4.71971 5.43617 4.49171 
-4.81731 5.43102 4.56807 
-4.94639 5.45181 4.47748 
-5.04768 5.45539 4.49479 
-5.16268 5.43878 4.65792 
-5.27115 5.46261 4.53763 
-5.40185 5.48913 4.40791 
-5.50003 5.48481 4.47879 
4.54954 5.73881 -1.18708 
4.4255 5.70164 -0.87844 
4.1672 5.64748 -0.396719 
4.04319 5.65499 -0.397446 
3.92691 5.62457 -0.13873 
3.8051 5.67138 -0.412493 
3.70267 5.67953 -0.426577 
3.56787 5.67093 -0.311306 
3.45863 5.6498 -0.119822 
3.08825 5.64728 0.0507344 
2.98747 5.6839 -0.161124 
2.87259 5.76497 -0.674897 
2.75129 5.67169 0.0210762 
1.98829 5.27518 3.08215 
1.85636 5.24429 3.35062 
1.75517 5.23964 3.42468 
1.62305 5.2191 3.62164 
1.52974 5.27783 3.2536 
1.38812 5.17885 3.99758 
1.29279 5.22137 3.74258 
1.16333 5.18966 4.01576 
1.06377 5.23024 3.77602 
0.935919 5.21708 3.92005 
0.835467 5.19247 4.13207 
0.710699 5.19315 4.17905 
0.610381 5.20187 4.16022 
0.483057 5.19731 4.24449 
0.383699 5.19279 4.31699 
0.258107 5.21715 4.20029 
0.157202 5.21143 4.28171 
0.0304396 5.25453 4.03577 
-0.0711227 5.26216 4.025 
-0.198771 5.28979 3.88658 
-0.29582 5.26813 4.07682 
-0.424053 5.25697 4.20722 
-0.525057 5.29879 3.95951 
-0.651871 5.37089 3.51278 
-0.755517 5.36274 3.61219 
-0.885323 5.43325 3.17772 
-0.982784 5.40413 3.41977 
-1.11098 5.43034 3.2914 
-1.21441 5.4364 3.29234 
-1.33822 5.43442 3.35734 
-1.43897 5.43528 3.39316 
-1.56951 5.47334 3.18373 
-1.67044 5.4769 3.20095 
-1.80048 5.52158 2.94548 
-1.90456 5.5127 3.0501 
-2.02619 5.51162 3.10802 
-2.13186 5.5161 3.12086 
-2.3589 5.53166 3.10729 
-2.4891 5.54535 3.06645 
-2.58815 5.55267 3.05688 
-2.72268 5.58323 2.90109 
-2.8178 5.55478 3.13754 
-2.94571 5.56057 3.15055 
-3.04329 5.56079 3.1895 
-3.17179 5.57778 3.12514 
-3.2778 5.58256 3.13605 
-3.40031 5.57024 3.27225 
-3.49471 5.55269 3.43297 
-3.63799 5.62615 2.98367 
-3.72141 5.55718 3.49593 
-3.84311 5.53969 3.66757 
-3.94324 5.54443 3.67636 
-4.15946 5.51893 3.94275 
-4.27504 5.48252 4.24288 
-4.38231 5.50607 4.12432 
-4.5022 5.49515 4.24976 
-4.60328 5.50127 4.24939 
-4.71721 5.46992 4.51382 
-4.82401 5.4927 4.40041 
-5.04255 5.48351 4.55481 
-5.15922 5.46876 4.70551 
-5.26823 5.49552 4.56544 
-5.49837 5.52164 4.48016 
4.52644 5.70512 -0.67984 
4.16663 5.6745 -0.319793 
4.04021 5.68642 -0.349945 
3.93506 5.68139 -0.271731 
3.80076 5.66662 -0.114271 
3.71093 5.74193 -0.597471 
3.56484 5.693 -0.199075 
3.45492 5.67988 -0.0630619 
3.22032 5.68111 0.025319 
3.09129 5.70542 -0.0893353 
2.99245 5.73754 -0.270433 
2.85637 5.71059 -0.0279982 
2.75477 5.73375 -0.146049 
2.62325 5.73084 -0.0716281 
2.51942 5.72331 0.0232852 
2.09029 5.2969 3.14658 
1.98032 5.24327 3.56254 
1.8619 5.31802 3.09509 
1.76 5.31394 3.16537 
1.62346 5.25996 3.59472 
1.52613 5.30027 3.35648 
1.39208 5.23198 3.88375 
1.29277 5.24646 3.82472 
1.16523 5.23748 3.93952 
1.06305 5.24649 3.9195 
0.937728 5.2473 3.96578 
0.837639 5.26719 3.86974 
0.711124 5.22395 4.22084 
0.611166 5.24408 4.12305 
0.384821 5.23635 4.27013 
0.257721 5.28098 4.01433 
0.160159 5.27578 4.09065 
0.0318901 5.27041 4.18082 
-0.0676026 5.29442 4.05609 
-0.197034 5.33074 3.85872 
-0.298544 5.32512 3.93954 
-0.522466 5.30737 4.15485 
-0.650254 5.39171 3.62503 
-0.753827 5.3998 3.61198 
-0.881211 5.45231 3.30191 
-0.980844 5.4475 3.37638 
-1.11262 5.50279 3.04896 
-1.2095 5.48499 3.21206 
-1.43808 5.47679 3.36335 
-1.56869 5.48426 3.36579 
-1.66888 5.49937 3.3029 
-1.79773 5.54979 3.00791 
-1.90209 5.55988 2.98141 
-2.02755 5.5568 3.05468 
-2.12967 5.55761 3.09135 
-2.35504 5.56001 3.16811 
-2.48716 5.59962 2.94919 
-2.5863 5.59827 2.99961 
-2.71125 5.58866 3.11776 
-2.81485 5.59559 3.1128 
-2.94413 5.6047 3.10342 
-3.0423 5.6134 3.08402 
-3.27499 5.61854 3.14494 
-3.40119 5.62895 3.12533 
-3.49117 5.58748 3.44916 
-3.62375 5.61721 3.29869 
-3.72072 5.60568 3.41862 
-3.8421 5.58498 3.61196 
-3.94051 5.57478 3.72324 
-4.1614 5.55706 3.93729 
-4.28075 5.54461 4.07285 
-4.3772 5.53715 4.16441 
-4.50346 5.5402 4.19571 
-4.59673 5.51749 4.39136 
-4.71635 5.51289 4.47276 
-4.82334 5.53668 4.35271 
-5.04044 5.51978 4.55959 
-5.16521 5.52706 4.5611 
-5.26209 5.52108 4.64265 
4.54355 5.80412 -1.10607 
4.44273 5.8114 -1.1147 
4.16534 5.70281 -0.251711 
4.03288 5.70019 -0.179047 
3.92529 5.68411 -0.0238425 
3.80374 5.72808 -0.276817 
3.70077 5.7334 -0.271043 
3.57027 5.74144 -0.272664 
3.46397 5.74567 -0.257978 
3.2197 5.70497 0.123399 
3.09708 5.76336 -0.228533 
2.9846 5.71551 0.147733 
2.86857 5.79355 -0.3424 
2.75513 5.75269 -0.0139141 
2.62616 5.80076 -0.292103 
2.52199 5.75934 0.0364323 
1.86023 5.32964 3.27178 
1.76231 5.36569 3.06367 
1.6302 5.32774 3.37982 
1.52839 5.32335 3.45212 
1.39674 5.26718 3.89374 
1.29199 5.25757 4.00321 
1.16745 5.28257 3.88229 
1.06496 5.28344 3.91863 
0.93831 5.28208 3.98037 
0.837814 5.2949 3.93348 
0.71333 5.27045 4.15347 
0.614464 5.29523 4.0235 
0.487056 5.27031 4.24791 
0.388009 5.2717 4.27924 
0.260241 5.29641 4.16173 
0.159585 5.29473 4.21487 
0.0309388 5.34386 3.92931 
-0.0703397 5.34552 3.95972 
-0.193807 5.36923 3.84733 
-0.297122 5.37235 3.86851 
-0.420483 5.34525 4.10632 
-0.520148 5.35306 4.09367 
-0.649631 5.43235 3.60055 
-0.75079 5.44137 3.58021 
-0.879583 5.48192 3.35388 
-0.979988 5.49405 3.31181 
-1.10915 5.52179 3.17396 
-1.20947 5.51127 3.28794 
-1.336 5.51426 3.31966 
-1.43556 5.49731 3.47771 
-1.56566 5.53339 3.28278 
-1.66685 5.53952 3.28233 
-1.79642 5.57834 3.06833 
-1.89289 5.54501 3.33803 
-2.02548 5.60044 3.01067 
-2.12885 5.5954 3.08823 
-2.35564 5.60383 3.12392 
-2.48548 5.62679 3.01937 
-2.58505 5.63222 3.0231 
-2.71404 5.63904 3.02946 
-2.8144 5.63318 3.11144 
-2.94519 5.65528 3.01317 
-3.0372 5.62193 3.28124 
-3.26819 5.65094 3.17685 
-3.39358 5.63778 3.31947 
-3.50301 5.68574 3.03413 
-3.62315 5.65513 3.29494 
-3.7241 5.65156 3.36133 
-3.84149 5.62356 3.603 
-3.94176 5.61876 3.67764 
-4.06293 5.60726 3.80713 
-4.15521 5.59448 3.93347 
-4.2753 5.57032 4.14979 
-4.38011 5.58884 4.0655 
-4.49808 5.56788 4.25889 
-4.60648 5.59747 4.09981 
-4.7227 5.57712 4.28829 
-4.82062 5.56801 4.39166 
-4.93961 5.56029 4.49423 
-5.04277 5.56854 4.48008 
-5.16332 5.56451 4.55783 
-5.26601 5.57511 4.52731 
-5.3972 5.59905 4.4166 
4.28351 5.75863 -0.422435 
4.18783 5.79951 -0.664185 
4.03468 5.72273 -0.0729846 
3.93715 5.75877 -0.280694 
3.80366 5.76431 -0.263855 
3.70697 5.78781 -0.385644 
3.56379 5.75192 -0.0798094 
3.46061 5.75607 -0.0658408 
3.22382 5.76237 -0.0116337 
3.09871 5.78537 -0.118334 
2.98854 5.76291 0.0815992 
2.86444 5.80184 -0.13508 
2.75926 5.80901 -0.141072 
2.623 5.7769 0.135971 
2.52238 5.81326 -0.0726883 
1.63012 5.35268 3.46338 
1.52607 5.34937 3.52902 
1.40064 5.33241 3.69744 
1.29561 5.30547 3.92607 
1.16862 5.28229 4.13791 
1.0654 5.26528 4.29753 
0.94184 5.33632 3.85977 
0.841923 5.33982 3.87697 
0.716533 5.32474 4.03245 
0.61411 5.30837 4.1873 
0.488452 5.31575 4.18839 
0.388996 5.30514 4.30244 
0.264279 5.32593 4.21084 
0.160714 5.34711 4.10792 
0.0354063 5.38215 3.91861 
-0.0676732 5.39253 3.88972 
-0.192339 5.38394 4.00031 
-0.292237 5.37922 4.07402 
-0.418105 5.38425 4.09139 
-0.520617 5.41401 3.92897 
-0.648352 5.48232 3.51177 
-0.748599 5.48164 3.55787 
-0.874711 5.50013 3.48275 
-0.976149 5.52396 3.36069 
-1.1048 5.55149 3.22442 
-1.20762 5.54329 3.32331 
-1.33669 5.55772 3.27735 
-1.43526 5.5411 3.4324 
-1.56552 5.58888 3.15749 
-1.66891 5.59938 3.12802 
-1.79407 5.60789 3.12117 
-1.89419 5.60553 3.17877 
-2.0209 5.60855 3.21033 
-2.12429 5.61263 3.22498 
-2.35229 5.63579 3.15993 
-2.48499 5.67215 2.96457 
-2.58218 5.66032 3.08619 
-2.70962 5.67674 3.02591 
-2.8103 5.669 3.12076 
-2.94157 5.6835 3.07528 
-3.03637 5.66477 3.2433 
-3.27066 5.68796 3.18061 
-3.39558 5.69336 3.19514 
-3.49525 5.6809 3.32206 
-3.61645 5.67325 3.42481 
-3.71705 5.67234 3.47272 
-3.83986 5.66335 3.58539 
-3.94744 5.68647 3.47079 
-4.05338 5.61188 4.02783 
-4.16125 5.64086 3.87303 
-4.28129 5.62835 4.00882 
-4.38283 5.63521 4.00358 
-4.50019 5.6189 4.16437 
-4.59988 5.61376 4.24103 
-4.71658 5.59801 4.3977 
-4.81784 5.6026 4.40804 
-4.93386 5.58303 4.59071 
-5.04084 5.60409 4.49006 
-5.261 5.60051 4.60583 
4.66455 5.82772 -0.791656 
4.54215 5.85346 -0.917983 
4.17766 5.79766 -0.38506 
4.0431 5.79228 -0.292764 
3.93145 5.76776 -0.0785451 
3.81269 5.82145 -0.398196 
3.70607 5.81848 -0.333909 
3.56899 5.80755 -0.202523 
3.46311 5.79752 -0.0900952 
3.22463 5.78828 0.0714159 
3.10242 5.83722 -0.214172 
2.99471 5.82621 -0.0942992 
2.86866 5.84353 -0.161287 
2.75802 5.82877 -0.0144331 
2.62515 5.84226 -0.0523384 
2.52788 5.85393 -0.0923782 
1.63909 5.43854 3.12469 
1.53617 5.43811 3.17004 
1.40021 5.36804 3.70697 
1.30147 5.34444 3.90967 
1.171 5.36236 3.84036 
1.06942 5.35578 3.92738 
0.947931 5.39054 3.73885 
0.843561 5.36929 3.92775 
0.718561 5.36275 4.02411 
0.617009 5.35694 4.10588 
0.491781 5.34253 4.25643 
0.390675 5.36359 4.15349 
0.265857 5.36196 4.21617 
0.164768 5.3611 4.26373 
0.0355639 5.43945 3.77921 
-0.0630394 5.41603 3.98057 
-0.19125 5.44854 3.81031 
-0.29236 5.43471 3.94691 
-0.416756 5.4414 3.95232 
-0.517731 5.4651 3.83129 
-0.644198 5.49808 3.65705 
-0.746124 5.52088 3.54257 
-0.87509 5.56205 3.31314 
-0.976226 5.55095 3.43104 
-1.10364 5.57301 3.33216 
-1.20239 5.55849 3.4726 
-1.33096 5.5738 3.42052 
-1.43293 5.57678 3.44216 
-1.5617 5.60063 3.33155 
-1.66629 5.61724 3.26075 
-1.79486 5.65301 3.06821 
-1.89184 5.62513 3.29963 
-2.02366 5.67047 3.04281 
-2.12085 5.64987 3.2243 
-2.35149 5.6847 3.08041 
-2.48316 5.70919 2.96665 
-2.58058 5.69786 3.08463 
-2.70904 5.70112 3.1153 
-2.80839 5.71179 3.08308 
-2.94007 5.72096 3.07452 
-3.0346 5.70209 3.24307 
-3.26586 5.71904 3.22223 
-3.39801 5.74491 3.09921 
-3.48572 5.69484 3.47919 
-3.61475 5.70942 3.43238 
-3.7183 5.71848 3.41298 
-3.83826 5.69976 3.59104 
-3.938 5.69096 3.69268 
-4.15517 5.66031 3.99284 
-4.27586 5.65363 4.08853 
-4.37702 5.65925 4.09176 
-4.49883 5.65526 4.16951 
-4.59928 5.65455 4.21588 
-4.71253 5.62708 4.45133 
-4.81625 5.63744 4.42307 
-5.03639 5.63351 4.54105 
-5.16545 5.65446 4.45058 
-5.27038 5.67141 4.37761 
4.42551 5.85681 -0.630871 
4.17594 5.82222 -0.291387 
4.04738 5.83696 -0.339546 
3.93308 5.80819 -0.0955483 
3.81969 5.87412 -0.500494 
3.70697 5.85739 -0.339589 
3.57338 5.85235 -0.250146 
3.46601 5.85952 -0.255151 
3.22532 5.82664 0.0689587 
3.09886 5.84331 0.00675552 
2.98735 5.82138 0.202806 
2.87408 5.90081 -0.294665 
2.75414 5.82683 0.261328 
2.63628 5.89782 -0.176443 
2.52353 5.8705 0.0570605 
2.40109 5.93518 -0.335591 
2.29263 5.86414 0.195531 
1.6372 5.46038 3.23039 
1.53461 5.43452 3.44969 
1.4047 5.41253 3.65374 
1.30136 5.3784 3.93005 
1.17238 5.39772 3.8508 
1.07148 5.40208 3.86246 
0.948087 5.42033 3.78827 
0.845072 5.41783 3.84776 
0.720455 5.39072 4.08474 
0.618742 5.40314 4.04152 
0.491181 5.38819 4.19646 
0.393468 5.38248 4.2758 
0.26597 5.41315 4.11821 
0.166276 5.4201 4.11163 
0.0379413 5.45963 3.89374 
-0.0611046 5.44257 4.05137 
-0.18991 5.47738 3.86602 
-0.290983 5.49584 3.78116 
-0.41535 5.49211 3.85799 
-0.517976 5.52636 3.6656 
-0.643355 5.57039 3.4157 
-0.744698 5.55125 3.58852 
-0.872401 5.58627 3.4013 
-0.97402 5.58757 3.43427 
-1.10293 5.59925 3.40733 
-1.2013 5.58697 3.53198 
-1.32716 5.6071 3.44597 
-1.43008 5.61885 3.40793 
-1.55961 5.64701 3.26837 
-1.66006 5.62804 3.43971 
-1.7923 5.69886 3.00912 
-1.88989 5.67209 3.23271 
-2.02131 5.70375 3.07007 
-2.11814 5.69455 3.17297 
-2.35142 5.72625 3.052 
-2.47868 5.73764 3.02647 
-2.57533 5.72416 3.15864 
-2.70283 5.72474 3.20728 
-2.80572 5.72827 3.2255 
-2.93732 5.765 3.02819 
-3.03759 5.76712 3.05499 
-3.26072 5.7413 3.32395 
-3.38767 5.7436 3.36055 
-3.48653 5.73876 3.4345 
-3.61568 5.75812 3.35514 
-3.71681 5.75537 3.41569 
-3.83168 5.71848 3.71582 
-3.93676 5.73858 3.62151 
-4.05086 5.69343 3.97787 
-4.15601 5.70547 3.93881 
-4.26957 5.67958 4.16298 
-4.37606 5.70141 4.05744 
-4.49271 5.67768 4.26812 
-4.59648 5.68998 4.22672 
-4.71537 5.68005 4.34385 
-4.81887 5.68934 4.32291 
-4.93325 5.6654 4.53412 
-5.03583 5.6729 4.52516 
-5.15736 5.67194 4.58192 
-5.26228 5.69046 4.49834 
4.55592 5.96325 -1.15076 
4.44202 5.93796 -0.931192 
4.28801 5.86793 -0.389427 
4.17574 5.86185 -0.301782 
4.047 5.86812 -0.291821 
3.93217 5.82883 0.0238583 
3.80475 5.8615 -0.147143 
3.71325 5.9078 -0.425975 
3.57055 5.8727 -0.127525 
3.46622 5.87061 -0.0704544 
3.33418 5.86628 0.0133601 
3.22784 5.86009 0.0992928 
3.09832 5.87129 0.0759574 
2.99693 5.90075 -0.0837979 
2.8686 5.8827 0.0923009 
2.76 5.89417 0.0584501 
2.63686 5.94247 -0.22103 
2.52839 5.91142 0.0356725 
2.39411 5.91757 0.0487968 
2.28918 5.92229 0.0596165 
1.63746 5.47792 3.36416 
1.40467 5.44096 3.71242 
1.30424 5.47249 3.5382 
1.17637 5.42947 3.88482 
1.07159 5.42948 3.92782 
0.947722 5.43988 3.90764 
0.845862 5.4251 4.05051 
0.722918 5.44809 3.94395 
0.62115 5.43034 4.10706 
0.494071 5.42232 4.21416 
0.396899 5.43871 4.14204 
0.267346 5.43948 4.19008 
0.169428 5.45265 4.14037 
0.0454012 5.50568 3.8289 
-0.058588 5.48744 3.99637 
-0.187394 5.50618 3.92127 
-0.288527 5.50278 3.9861 
-0.415602 5.54151 3.7737 
-0.512018 5.51306 4.00777 
-0.642519 5.58882 3.54367 
-0.740784 5.57507 3.67809 
-0.870629 5.63984 3.28883 
-0.973451 5.62069 3.46202 
-1.09934 5.64844 3.32414 
-1.20119 5.63857 3.43357 
-1.42974 5.65698 3.40174 
-1.5561 5.66305 3.41229 
-1.66054 5.6861 3.29773 
-1.78991 5.72248 3.10234 
-1.88918 5.71082 3.2229 
-2.01577 5.73399 3.11666 
-2.11826 5.72715 3.20559 
-2.34641 5.74052 3.2082 
-2.47562 5.7594 3.13234 
-2.57308 5.75213 3.22219 
-2.702 5.75715 3.24095 
-2.80114 5.75698 3.28295 
-2.9325 5.78666 3.13418 
-3.03308 5.79048 3.14953 
-3.15556 5.75783 3.42312 
-3.24975 5.74515 3.54862 
-3.38894 5.79965 3.23349 
-3.48886 5.79809 3.28533 
-3.61066 5.77691 3.48029 
-3.71052 5.77336 3.54568 
-3.83244 5.76418 3.65867 
-3.93116 5.75707 3.74798 
-4.04618 5.72024 4.0471 
-4.15709 5.75598 3.84855 
-4.27259 5.72879 4.082 
-4.36835 5.71655 4.20516 
-4.4967 5.73591 4.12572 
-4.59041 5.71037 4.33893 
-4.71162 5.70897 4.39855 
-4.81255 5.71329 4.41063 
-4.93078 5.69854 4.56023 
-5.03511 5.71474 4.49249 
-5.15076 5.69469 4.67727 
4.29239 5.91331 -0.440645 
4.19205 5.9406 -0.585599 
4.05755 5.93579 -0.497705 
3.93563 5.86983 0.00209156 
3.82401 5.94605 -0.47191 
3.70264 5.89268 -0.058209 
3.57163 5.89282 -0.00550371 
3.47173 5.92002 -0.149977 
3.33795 5.90795 -0.0128602 
3.23043 5.89964 0.0878818 
3.09924 5.9048 0.106544 
2.99543 5.90412 0.153738 
2.86883 5.92696 0.0498739 
2.76128 5.92775 0.0885827 
2.6328 5.94575 0.0185612 
