ply
format ascii 1.0
element vertex 1761
property float x
property float y
property float z
end_header
3.55754 -3.65332 -0.0659758 
3.45349 -3.66354 0.157178 
3.32317 -3.65459 0.11238 
3.21633 -3.65021 0.119758 
3.08819 -3.64019 0.0576362 
2.984 -3.6259 -0.0843939 
2.75649 -3.61752 -0.054412 
2.62867 -3.62139 0.0902881 
2.52264 -3.59894 -0.172161 
2.38647 -3.60933 0.0753625 
2.28844 -3.5932 -0.098364 
2.16307 -3.56825 -0.384789 
2.05704 -3.57018 -0.28381 
1.82263 -3.57555 -0.044248 
1.69043 -3.58648 0.208718 
1.59122 -3.56999 0.0305894 
1.45983 -3.55915 -0.0414915 
1.35223 -3.55395 -0.0457484 
1.22426 -3.57024 0.284168 
1.12578 -3.55392 0.108062 
0.889484 -3.55705 0.315603 
0.749834 -3.578 0.723054 
0.651026 -3.53521 0.152542 
0.523955 -3.54593 0.398894 
0.415249 -3.54527 0.4632 
0.291797 -3.5479 0.586517 
0.184499 -3.52132 0.263418 
-0.0449972 -3.53087 0.562199 
-0.276795 -3.51897 0.542814 
-0.513379 -3.50124 0.439752 
-0.743955 -3.47804 0.251224 
-2.39915 -2.98556 -5.96172 
-2.6494 -2.97006 -6.02208 
6.74029 -3.84622 1.19511 
6.39862 -3.83476 1.25639 
6.26129 -3.84182 1.45421 
6.16404 -3.8308 1.35658 
6.01716 -3.85349 1.79265 
5.93199 -3.82777 1.46868 
5.81081 -3.81428 1.35076 
5.70545 -3.81312 1.40484 
5.48922 -3.78993 1.2073 
5.36257 -3.77805 1.11692 
5.25629 -3.77826 1.19203 
5.12901 -3.77419 1.21787 
5.04295 -3.74906 0.903348 
4.92863 -3.7252 0.626887 
4.71504 -3.68071 0.111611 
4.60263 -3.69119 0.343202 
4.49173 -3.65755 -0.0806217 
4.37946 -3.67483 0.251809 
4.25131 -3.66146 0.140345 
4.15703 -3.63825 -0.140064 
4.02695 -3.63061 -0.165261 
3.93193 -3.60966 -0.411613 
3.69053 -3.62383 -0.0377746 
3.5584 -3.61812 -0.0328333 
3.44768 -3.62515 0.146565 
3.32461 -3.61066 0.0149902 
3.22193 -3.61201 0.10468 
3.09412 -3.59415 -0.0735032 
2.99014 -3.59142 -0.0434876 
2.7531 -3.58662 0.0459745 
2.63252 -3.5614 -0.24636 
2.52817 -3.55264 -0.305446 
2.397 -3.55048 -0.248518 
2.29144 -3.55383 -0.12725 
2.16203 -3.54248 -0.207796 
2.05803 -3.54274 -0.133328 
1.93265 -3.53707 -0.132388 
1.82811 -3.527 -0.210825 
1.69136 -3.53319 -0.0261824 
1.59392 -3.52537 -0.0760409 
1.45768 -3.5269 0.0391503 
1.35679 -3.52872 0.134641 
1.22989 -3.52707 0.196197 
1.12382 -3.52739 0.273039 
0.994074 -3.52572 0.33636 
0.890381 -3.5228 0.363454 
0.753465 -3.5258 0.500947 
0.656506 -3.50791 0.30134 
0.526892 -3.50311 0.318107 
0.418323 -3.50356 0.398485 
0.297974 -3.49751 0.390508 
0.186212 -3.48681 0.307567 
-0.275084 -3.47757 0.483888 
-0.512026 -3.46013 0.386055 
-0.745527 -3.4442 0.308363 
-2.3905 -2.96667 -5.65942 
-2.49857 -2.96554 -5.60274 
6.72769 -3.82184 1.38851 
6.41108 -3.79025 1.13578 
6.26775 -3.80172 1.40183 
6.14838 -3.81618 1.69597 
6.03239 -3.80114 1.55208 
5.92344 -3.80144 1.63012 
5.81899 -3.77289 1.27897 
5.70591 -3.78044 1.46679 
5.48935 -3.7502 1.16649 
5.36287 -3.73939 1.09228 
5.25717 -3.74505 1.24718 
5.14638 -3.71939 0.943152 
5.03337 -3.72512 1.1041 
4.91425 -3.70565 0.897066 
4.83438 -3.67397 0.483104 
4.7028 -3.66984 0.511045 
4.60123 -3.66149 0.456365 
4.49152 -3.62357 -0.0295747 
4.38552 -3.63004 0.137578 
4.25589 -3.62207 0.107448 
4.15215 -3.6148 0.0702298 
4.03407 -3.58553 -0.282194 
3.92129 -3.60394 0.0658993 
3.7942 -3.59005 -0.053389 
3.68956 -3.58632 -0.037749 
3.56066 -3.5808 -0.0322214 
3.45267 -3.57818 0.00220799 
3.32393 -3.57822 0.0897258 
3.22408 -3.56702 -0.00813686 
3.0945 -3.5697 0.118945 
2.99155 -3.55162 -0.0783692 
2.75941 -3.52811 -0.268717 
2.62736 -3.53549 -0.0704433 
2.53039 -3.51381 -0.324994 
2.39667 -3.51967 -0.148075 
2.29383 -3.52066 -0.0638174 
2.16285 -3.51083 -0.120381 
2.06061 -3.51219 -0.0312909 
1.82905 -3.4912 -0.18456 
1.68925 -3.50213 0.0713895 
1.59148 -3.50578 0.191394 
1.46185 -3.47089 -0.236089 
1.35832 -3.48441 0.0335872 
1.2278 -3.48466 0.125624 
1.12684 -3.47486 0.0490749 
0.999306 -3.484 0.27038 
0.894855 -3.46989 0.132701 
0.758514 -3.47591 0.313906 
0.658222 -3.46747 0.25706 
0.523899 -3.48814 0.653351 
0.42246 -3.47059 0.462776 
0.2942 -3.47124 0.559203 
0.187508 -3.46605 0.554828 
-0.271663 -3.45777 0.743282 
-0.508598 -3.42636 0.439814 
-0.74204 -3.39914 0.195843 
-2.39771 -2.90731 -5.94697 
6.73596 -3.77729 1.26973 
6.4067 -3.75784 1.20528 
6.26372 -3.77266 1.51927 
6.15976 -3.76771 1.51654 
6.02251 -3.77515 1.71815 
5.92388 -3.76641 1.65609 
5.82341 -3.73102 1.20343 
5.72393 -3.7284 1.23192 
5.48179 -3.72493 1.34379 
5.36482 -3.70558 1.13802 
5.26285 -3.70125 1.14305 
5.13899 -3.69079 1.07265 
5.03882 -3.68325 1.02933 
4.93072 -3.65028 0.617416 
4.71362 -3.61917 0.306218 
4.59548 -3.6343 0.608213 
4.48956 -3.59384 0.0848127 
4.37731 -3.60798 0.368265 
4.24564 -3.60131 0.358745 
4.15693 -3.57111 -0.0253478 
4.02912 -3.56128 -0.0838258 
3.93275 -3.54778 -0.217368 
3.79252 -3.56071 0.0670789 
3.6887 -3.55538 0.0586663 
3.5609 -3.54895 0.0502654 
3.45476 -3.54375 0.0453243 
3.32414 -3.55042 0.231374 
3.22159 -3.53599 0.0883555 
3.09882 -3.53274 0.123224 
2.99481 -3.50491 -0.215721 
2.86798 -3.50722 -0.0963222 
2.76306 -3.50053 -0.123933 
2.63485 -3.48318 -0.292571 
2.52993 -3.48824 -0.147518 
2.39806 -3.47801 -0.209059 
2.29891 -3.46949 -0.267441 
2.17088 -3.46044 -0.314229 
2.06638 -3.45786 -0.281776 
1.93134 -3.47108 0.00372799 
1.82859 -3.464 -0.0311871 
1.69391 -3.47069 0.158041 
1.58904 -3.47609 0.308068 
1.46486 -3.42684 -0.332153 
1.36236 -3.43991 -0.0708965 
1.23042 -3.45901 0.298779 
1.12791 -3.4279 -0.0894667 
0.995381 -3.43868 0.158388 
0.893661 -3.44015 0.248619 
0.761891 -3.445 0.408734 
0.656398 -3.44019 0.409284 
0.528675 -3.43388 0.402663 
0.42379 -3.42862 0.396017 
0.294236 -3.43757 0.615103 
0.189286 -3.42445 0.49299 
-0.504167 -3.38475 0.377182 
-2.39348 -2.86718 -5.95681 
6.39912 -3.7316 1.36679 
6.27557 -3.72458 1.34686 
6.16002 -3.73395 1.56134 
6.03517 -3.72672 1.53924 
5.92894 -3.72651 1.60749 
5.82453 -3.69552 1.22403 
5.72248 -3.6923 1.24532 
5.49559 -3.67581 1.15618 
5.36218 -3.67503 1.23431 
5.2641 -3.66333 1.12887 
5.13276 -3.65897 1.15326 
5.04074 -3.64794 1.05359 
4.93456 -3.61157 0.592691 
4.82873 -3.60711 0.598369 
4.72276 -3.57272 0.166198 
4.60374 -3.59279 0.539776 
4.50167 -3.53675 -0.211694 
4.39832 -3.54178 -0.068811 
4.2674 -3.53253 -0.116291 
4.15262 -3.54688 0.170771 
4.02856 -3.52707 -0.0358413 
3.92811 -3.51946 -0.0798216 
3.80055 -3.51082 -0.120637 
3.69251 -3.51625 0.0313259 
3.56489 -3.50619 -0.0301081 
3.45981 -3.50215 -0.0186892 
3.32749 -3.51007 0.186091 
3.22666 -3.49975 0.102746 
3.09775 -3.48947 0.0388573 
2.99113 -3.48937 0.109018 
2.76574 -3.46349 -0.118355 
2.63397 -3.45932 -0.0908988 
2.53109 -3.45054 -0.150191 
2.40146 -3.44306 -0.172685 
2.30353 -3.41771 -0.477869 
2.17277 -3.41607 -0.413972 
2.0656 -3.42158 -0.261417 
1.83148 -3.41899 -0.141962 
1.70121 -3.40702 -0.229614 
1.59813 -3.39225 -0.376429 
1.4681 -3.38954 -0.32873 
1.36358 -3.39758 -0.140847 
1.23206 -3.40977 0.125828 
1.13035 -3.39795 0.0213274 
0.997963 -3.39939 0.131306 
0.895735 -3.40241 0.244306 
0.76361 -3.40059 0.306372 
0.658483 -3.41006 0.515737 
0.532172 -3.38846 0.284469 
0.426873 -3.37791 0.200859 
0.297172 -3.39304 0.509497 
0.192179 -3.37816 0.362397 
-0.267201 -3.38475 0.767725 
-0.504399 -3.33616 0.216181 
-0.736922 -3.33114 0.299108 
-2.38926 -2.83658 -5.82705 
6.39919 -3.69553 1.37845 
6.27789 -3.68871 1.3602 
6.17402 -3.68271 1.34217 
6.03308 -3.69425 1.60443 
5.94289 -3.67609 1.40017 
5.81829 -3.66383 1.30485 
5.71409 -3.6678 1.43242 
5.49894 -3.63546 1.10511 
5.36768 -3.63455 1.17967 
5.26304 -3.63161 1.20681 
5.15709 -3.59942 0.808741 
5.04997 -3.6013 0.907687 
4.92956 -3.58357 0.729962 
4.70411 -3.56088 0.550198 
4.61297 -3.54538 0.385428 
4.47697 -3.54777 0.511222 
4.37893 -3.53559 0.399339 
4.2648 -3.50473 0.0262349 
4.15587 -3.50775 0.143007 
4.03559 -3.48278 -0.140265 
3.93241 -3.47694 -0.156233 
3.70036 -3.46872 -0.120795 
3.46099 -3.46648 0.00685663 
3.33019 -3.4712 0.163026 
3.22925 -3.45728 0.027813 
3.0996 -3.44932 -0.00134157 
2.99525 -3.44897 0.0634298 
2.76639 -3.41328 -0.303214 
2.64063 -3.40998 -0.267117 
2.53599 -3.40033 -0.33768 
2.40804 -3.37897 -0.563098 
2.29905 -3.3908 -0.317892 
2.17371 -3.38989 -0.247167 
2.06845 -3.38487 -0.249901 
1.83224 -3.38944 -0.0250511 
1.70419 -3.37532 -0.144986 
1.5906 -3.39043 0.151125 
1.47219 -3.36755 -0.102888 
1.36619 -3.3607 -0.131674 
1.23281 -3.36819 0.066811 
1.13801 -3.36665 0.107842 
0.998508 -3.36588 0.190065 
0.897691 -3.35613 0.115601 
0.762295 -3.36475 0.331898 
0.663068 -3.35863 0.309261 
0.533895 -3.34955 0.263467 
0.429277 -3.35487 0.411151 
0.298355 -3.35848 0.551441 
0.194883 -3.3509 0.510382 
-0.265178 -3.33242 0.549532 
-0.501937 -3.30684 0.335584 
6.6316 -3.67552 1.46825 
6.40602 -3.65348 1.29881 
6.28397 -3.64518 1.25982 
6.17225 -3.65138 1.42417 
6.03606 -3.65718 1.59894 
5.93825 -3.64612 1.50366 
5.82028 -3.62829 1.32375 
5.72464 -3.61906 1.25365 
5.4954 -3.60392 1.18677 
5.3741 -3.59521 1.14133 
5.26077 -3.60084 1.29847 
5.14568 -3.57903 1.05893 
5.05568 -3.55963 0.837574 
4.94001 -3.53568 0.567468 
4.82361 -3.54971 0.848506 
4.71815 -3.50746 0.306214 
4.6166 -3.50427 0.327546 
4.48384 -3.50066 0.363792 
4.37729 -3.50006 0.426049 
4.26156 -3.46992 0.0661945 
4.16118 -3.45881 -0.0279158 
4.0405 -3.44292 -0.177895 
3.92925 -3.45385 0.0547057 
3.70354 -3.43244 -0.105266 
3.56765 -3.43777 0.0627507 
3.46277 -3.4325 0.0561826 
3.33282 -3.42462 0.0286857 
3.23259 -3.41123 -0.0986019 
3.10409 -3.40542 -0.0971267 
3.00373 -3.39352 -0.202788 
2.766 -3.38595 -0.153942 
2.63912 -3.38467 -0.0878409 
2.53667 -3.36574 -0.293977 
2.40504 -3.3821 0.0310607 
2.30706 -3.33897 -0.529064 
2.17215 -3.34581 -0.339747 
2.0705 -3.35313 -0.165803 
1.9413 -3.34331 -0.222 
1.83686 -3.33993 -0.201276 
1.70266 -3.36034 0.184188 
1.59912 -3.34625 0.0489679 
1.4738 -3.32955 -0.109491 
1.36806 -3.32338 -0.1283 
1.23691 -3.3307 0.0653645 
1.1337 -3.33125 0.142295 
1.00456 -3.32738 0.172318 
0.897184 -3.3165 0.0862865 
0.770238 -3.32861 0.346652 
0.667334 -3.32449 0.355572 
0.534157 -3.32581 0.463654 
0.433906 -3.2967 0.10853 
0.303799 -3.30487 0.313947 
0.199149 -3.29485 0.238431 
-0.267044 -3.29732 0.585707 
-0.495458 -3.2699 0.340681 
-2.38389 -2.75872 -5.81056 
6.74258 -3.62893 1.25377 
6.40376 -3.62145 1.37073 
6.28279 -3.61333 1.33382 
6.17637 -3.61109 1.37206 
6.046 -3.61165 1.46673 
5.95037 -3.59879 1.34453 
5.8262 -3.58755 1.26482 
5.72462 -3.58125 1.24126 
5.50477 -3.56377 1.13494 
5.36767 -3.56503 1.24426 
5.26836 -3.55722 1.19738 
5.14969 -3.53651 0.977395 
5.04657 -3.53796 1.0668 
4.93598 -3.50658 0.68733 
4.71649 -3.47466 0.372308 
4.60133 -3.48863 0.650405 
4.49168 -3.45678 0.263574 
4.38732 -3.45087 0.247568 
4.26327 -3.44324 0.219991 
4.16676 -3.41803 -0.0798328 
4.03694 -3.41466 -0.0422144 
3.93683 -3.39889 -0.203293 
3.80707 -3.4077 0.0100807 
3.69799 -3.40868 0.0967215 
3.57409 -3.39492 -0.0195332 
3.46809 -3.39545 0.0585697 
3.33316 -3.38802 0.0410176 
3.23108 -3.38483 0.0629043 
3.10893 -3.36148 -0.193032 
3.00436 -3.34746 -0.325887 
2.86994 -3.37358 0.140554 
2.76835 -3.34663 -0.18088 
2.63845 -3.35127 -0.0276207 
2.53663 -3.3294 -0.275598 
2.40648 -3.32275 -0.285006 
2.30461 -3.32454 -0.191463 
2.17152 -3.3124 -0.278117 
2.07591 -3.29699 -0.436955 
1.93862 -3.31883 -0.0303471 
1.83437 -3.31397 -0.0311902 
1.70864 -3.30588 -0.0643138 
1.60145 -3.31192 0.0941728 
1.4719 -3.30764 0.118539 
1.36998 -3.29023 -0.0649793 
1.23878 -3.29679 0.117058 
1.13464 -3.27769 -0.0892797 
1.00467 -3.29056 0.183008 
0.902722 -3.28485 0.16838 
0.769704 -3.30165 0.499432 
0.665907 -3.28041 0.261924 
0.540124 -3.26824 0.169968 
0.435577 -3.27978 0.406134 
0.304682 -3.28043 0.502668 
0.203021 -3.26113 0.291685 
-0.262222 -3.26012 0.586883 
-0.499914 -3.22933 0.300766 
6.64603 -3.58869 1.26969 
6.41135 -3.57938 1.29117 
6.2822 -3.58036 1.39059 
6.18671 -3.5661 1.24898 
6.05231 -3.5687 1.37518 
5.95845 -3.55491 1.23922 
5.81857 -3.56336 1.45311 
5.71165 -3.56514 1.54949 
5.48858 -3.54414 1.39541 
5.36792 -3.53098 1.28616 
5.25849 -3.5345 1.40923 
5.15722 -3.49395 0.893549 
5.04662 -3.50391 1.10985 
4.92765 -3.4828 0.885256 
4.84086 -3.4577 0.582157 
4.71617 -3.44212 0.440747 
4.6077 -3.44699 0.58261 
4.4962 -3.41647 0.217859 
4.38544 -3.42427 0.403281 
4.2549 -3.41941 0.419892 
4.15893 -3.40511 0.277992 
4.03299 -3.39026 0.148 
3.93418 -3.3771 0.0243456 
3.70368 -3.35562 -0.131606 
3.57405 -3.35538 -0.0491659 
3.46629 -3.36061 0.0973394 
3.33623 -3.34735 -0.00696426 
3.23797 -3.33804 -0.0756457 
3.0974 -3.3516 0.212307 
3.0051 -3.31803 -0.208882 
2.77641 -3.29724 -0.356146 
2.64553 -3.30998 -0.0862759 
2.53994 -3.29434 -0.241057 
2.41209 -3.27318 -0.460369 
2.30946 -3.26728 -0.477068 
2.17626 -3.27944 -0.214073 
2.0746 -3.27327 -0.235304 
1.94432 -3.26825 -0.221044 
1.84185 -3.23361 -0.650909 
1.60215 -3.25061 -0.247648 
1.47449 -3.24771 -0.204639 
1.37221 -3.249 -0.118315 
1.23802 -3.25192 0.0125683 
1.14027 -3.23085 -0.225325 
1.00597 -3.25368 0.191878 
0.904321 -3.24965 0.201349 
0.772353 -3.25086 0.306244 
0.670009 -3.24443 0.281751 
0.535772 -3.24397 0.36426 
0.436919 -3.23584 0.312958 
0.30587 -3.22969 0.311621 
0.200212 -3.22587 0.326775 
-0.258504 -3.21992 0.545739 
-0.497568 -3.1923 0.307424 
-0.727839 -3.18968 0.422719 
6.75162 -3.54986 1.17244 
6.42572 -3.52932 1.09356 
6.28401 -3.54419 1.39969 
6.19299 -3.52352 1.1641 
6.04697 -3.54104 1.51091 
5.95147 -3.52836 1.39262 
5.82643 -3.51977 1.35221 
5.71646 -3.52818 1.54508 
5.5143 -3.47932 0.979455 
5.3677 -3.49723 1.33234 
5.2567 -3.50078 1.45644 
5.15246 -3.46622 1.03077 
5.05758 -3.45225 0.893505 
4.93383 -3.43614 0.744742 
4.83087 -3.43876 0.850259 
4.71638 -3.40504 0.443361 
4.6165 -3.39985 0.43507 
4.48848 -3.39198 0.407046 
4.39012 -3.37567 0.238658 
4.26025 -3.37676 0.339965 
4.15317 -3.37893 0.441656 
4.04048 -3.34882 0.0853707 
3.9306 -3.34406 0.0897718 
3.69842 -3.33774 0.152598 
3.57405 -3.32423 0.0415038 
3.47225 -3.30648 -0.145118 
3.33565 -3.31502 0.0672069 
3.23541 -3.31391 0.117495 
3.11003 -3.29028 -0.137743 
3.0092 -3.27363 -0.309236 
2.77846 -3.26327 -0.305133 
2.64704 -3.26548 -0.186606 
2.5409 -3.2646 -0.12907 
2.41501 -3.24129 -0.37944 
2.3059 -3.24843 -0.205107 
2.18058 -3.22615 -0.441066 
2.07566 -3.22828 -0.341347 
1.84086 -3.22985 -0.163712 
1.71315 -3.22703 -0.119591 
1.6039 -3.21331 -0.243623 
1.4775 -3.20884 -0.224007 
1.37355 -3.21138 -0.11902 
1.24104 -3.2228 0.132016 
1.14044 -3.21746 0.122131 
1.00588 -3.22454 0.312391 
0.901771 -3.21185 0.1996 
0.775176 -3.20688 0.212291 
0.673488 -3.20047 0.187749 
0.54143 -3.1972 0.228359 
0.434609 -3.19072 0.206217 
0.307307 -3.20171 0.447671 
0.200694 -3.19113 0.366915 
-0.494108 -3.14314 0.139936 
6.41138 -3.50852 1.33326 
6.27823 -3.51336 1.48968 
6.18212 -3.49948 1.35517 
6.05363 -3.49971 1.44291 
5.95338 -3.49298 1.41306 
5.82623 -3.48405 1.36942 
5.73648 -3.4645 1.15002 
5.50557 -3.45895 1.2229 
5.36765 -3.46242 1.36302 
5.28314 -3.43283 0.997095 
5.1577 -3.42265 0.934752 
5.05374 -3.42297 1.00764 
4.93383 -3.40428 0.820345 
4.84819 -3.37689 0.486576 
4.72108 -3.36552 0.408259 
4.60865 -3.37619 0.634175 
4.48545 -3.36252 0.520589 
4.37675 -3.36377 0.609914 
4.2562 -3.35113 0.509262 
4.16191 -3.33053 0.277929 
4.03075 -3.32364 0.266132 
3.94239 -3.29043 -0.14878 
3.70183 -3.3017 0.170063 
3.57568 -3.28162 -0.0328401 
3.47209 -3.295 0.225883 
3.34089 -3.27705 0.0566244 
3.2414 -3.26025 -0.117189 
3.10674 -3.26146 -0.0112984 
3.0073 -3.24909 -0.121907 
2.77843 -3.22917 -0.254982 
2.64629 -3.22197 -0.270487 
2.54222 -3.21754 -0.265019 
2.41689 -3.20158 -0.409815 
2.31206 -3.19457 -0.440572 
2.18338 -3.177 -0.606185 
2.07491 -3.19653 -0.25649 
1.94499 -3.19698 -0.164494 
1.84063 -3.19369 -0.142578 
1.71287 -3.19381 -0.0567945 
1.6073 -3.17766 -0.217154 
1.48003 -3.17413 -0.183706 
1.3774 -3.15453 -0.395228 
1.24486 -3.17539 -0.010805 
1.14442 -3.15799 -0.192317 
1.00938 -3.18734 0.314723 
0.905093 -3.16987 0.134609 
0.776045 -3.16907 0.208294 
0.670527 -3.18115 0.449784 
0.539614 -3.17739 0.48259 
0.440885 -3.15218 0.188536 
0.313005 -3.15334 0.289447 
0.204644 -3.11542 -0.179282 
-0.492937 -3.11199 0.231906 
6.42854 -3.45528 1.09034 
6.27996 -3.47674 1.49194 
6.18673 -3.45961 1.31026 
6.06751 -3.45072 1.26224 
5.94864 -3.4644 1.5341 
5.83193 -3.44023 1.26786 
5.73647 -3.42964 1.18033 
5.50514 -3.42267 1.23313 
5.38328 -3.40771 1.10091 
5.29479 -3.3827 0.804392 
5.15286 -3.39203 1.02974 
5.06499 -3.37101 0.789293 
4.9228 -3.391 1.16585 
4.83075 -3.36616 0.874146 
4.61119 -3.33981 0.644517 
4.48369 -3.33005 0.589692 
4.38584 -3.33084 0.665045 
4.2569 -3.31477 0.521805 
4.16113 -3.29737 0.337897 
4.03616 -3.28228 0.205934 
3.93692 -3.27298 0.139163 
3.80332 -3.27019 0.187205 
3.7072 -3.2538 0.0179875 
3.57892 -3.23511 -0.162968 
3.47597 -3.2474 0.0789203 
3.34887 -3.22781 -0.115449 
3.24716 -3.21926 -0.169975 
3.11585 -3.21092 -0.202018 
3.00938 -3.21995 -0.00414891 
2.8781 -3.20825 -0.0839127 
2.78204 -3.18071 -0.411335 
2.64902 -3.18596 -0.249509 
2.5497 -3.16082 -0.540833 
2.41829 -3.16048 -0.459395 
2.31504 -3.16654 -0.305736 
2.18311 -3.15718 -0.351771 
2.08212 -3.13854 -0.549718 
1.94898 -3.1566 -0.206324 
1.846 -3.14605 -0.288178 
1.71575 -3.15175 -0.121908 
1.60576 -3.14514 -0.143353 
1.48048 -3.16045 0.15599 
1.37707 -3.12673 -0.254223 
1.24486 -3.15661 0.256292 
1.14304 -3.11844 -0.217986 
1.00867 -3.1544 0.380131 
0.907939 -3.13656 0.193342 
0.772206 -3.14196 0.359044 
0.669725 -3.12422 0.174909 
0.544606 -3.12673 0.292659 
0.440506 -3.12443 0.328455 
0.312368 -3.11733 0.312057 
0.208472 -3.10393 0.190242 
-0.488721 -3.07706 0.267455 
6.42778 -3.42845 1.2341 
6.18068 -3.43328 1.46371 
6.04804 -3.43328 1.55034 
5.95884 -3.41585 1.36251 
5.84377 -3.39388 1.12757 
5.72822 -3.40755 1.39611 
5.51261 -3.37924 1.13728 
5.38343 -3.37064 1.10031 
5.28758 -3.35675 0.966862 
5.15656 -3.35315 1.00163 
5.05244 -3.35237 1.05874 
4.94144 -3.32745 0.779547 
4.83125 -3.33178 0.912669 
4.71165 -3.3142 0.74271 
4.61315 -3.303 0.648973 
4.4866 -3.28678 0.502725 
4.39467 -3.27551 0.403775 
4.27426 -3.25002 0.122684 
4.16094 -3.26139 0.357226 
4.04839 -3.23389 0.0425984 
3.93224 -3.24473 0.271649 
3.70705 -3.21874 0.0520665 
3.57581 -3.21015 0.0166013 
3.47918 -3.19171 -0.180582 
3.34988 -3.19456 -0.0556928 
3.24352 -3.19058 -0.0423129 
3.11466 -3.18665 -0.0135421 
3.00502 -3.19063 0.114447 
2.78222 -3.1542 -0.254148 
2.64918 -3.15144 -0.205975 
2.54351 -3.15476 -0.0899487 
2.42071 -3.11698 -0.542997 
2.31801 -3.11329 -0.527865 
2.18745 -3.10725 -0.527673 
2.08052 -3.12899 -0.15085 
1.8506 -3.08885 -0.567032 
1.72017 -3.10771 -0.215309 
1.60806 -3.11407 -0.0522103 
1.48465 -3.10001 -0.169923 
1.37916 -3.08779 -0.273333 
1.24447 -3.09502 -0.0830947 
1.14432 -3.09267 -0.0506274 
1.01256 -3.1227 0.459582 
0.909125 -3.09687 0.162655 
0.776562 -3.10754 0.400124 
0.678225 -3.09197 0.244633 
0.547618 -3.08713 0.2619 
0.439258 -3.0752 0.164506 
0.31735 -3.07239 0.204652 
0.209431 -3.06217 0.131103 
-0.254026 -3.07019 0.547965 
-0.487548 -3.04574 0.355742 
-0.727634 -3.04325 0.477933 
6.73936 -3.42745 1.53625 
6.42769 -3.38742 1.17669 
6.2932 -3.39316 1.34486 
6.19231 -3.38519 1.2985 
6.0584 -3.3894 1.44488 
5.95956 -3.37896 1.36258 
5.83462 -3.3713 1.33622 
5.73476 -3.36362 1.29336 
5.50707 -3.34889 1.23466 
5.3858 -3.33326 1.09398 
5.28569 -3.32266 1.01016 
5.16089 -3.31971 1.05002 
5.07492 -3.2865 0.639342 
4.93772 -3.29946 0.910779 
4.84715 -3.27415 0.614123 
4.70996 -3.27816 0.759868 
4.61051 -3.27576 0.790917 
4.48827 -3.25491 0.577607 
4.39818 -3.23129 0.30428 
4.25813 -3.23446 0.440202 
4.15545 -3.23968 0.580447 
4.04656 -3.1995 0.0867104 
3.93845 -3.20178 0.189175 
3.70786 -3.18484 0.101536 
3.58089 -3.16746 -0.0600041 
3.4725 -3.18063 0.195715 
3.34677 -3.16175 0.0123913 
3.24778 -3.13477 -0.302196 
3.11769 -3.13356 -0.234481 
3.01365 -3.1279 -0.246193 
2.78503 -3.11722 -0.247074 
2.64826 -3.12378 -0.065803 
2.55624 -3.08702 -0.52241 
2.42068 -3.08529 -0.458243 
2.31484 -3.10287 -0.142107 
2.17906 -3.10271 -0.0558228 
2.08232 -3.06955 -0.458728 
1.95381 -3.07089 -0.356031 
1.85259 -3.06583 -0.36109 
1.71969 -3.07211 -0.18621 
1.61294 -3.06321 -0.241643 
1.48346 -3.06083 -0.190564 
1.38128 -3.06228 -0.103418 
1.24704 -3.07088 0.10496 
1.14678 -3.05508 -0.0516841 
1.01025 -3.08935 0.519134 
0.910329 -3.05773 0.139954 
0.7772 -3.06841 0.377018 
0.676119 -3.06027 0.328631 
0.543451 -3.07938 0.683831 
0.445848 -3.04378 0.247112 
0.318727 -3.04181 0.302501 
0.208476 -3.0175 0.0327954 
-0.25108 -3.04065 0.658248 
-0.487537 -3.01651 0.47349 
6.30075 -3.35052 1.25976 
6.18953 -3.35375 1.3772 
6.04866 -3.36724 1.65738 
5.95659 -3.34919 1.46452 
5.83602 -3.32989 1.27275 
5.73605 -3.32222 1.23039 
5.52086 -3.29505 0.989877 
5.38112 -3.30886 1.27386 
5.28717 -3.28954 1.06453 
5.16513 -3.27561 0.948906 
5.07596 -3.25357 0.698385 
4.93706 -3.26475 0.945033 
4.84416 -3.2501 0.800413 
4.61364 -3.23239 0.702331 
4.5049 -3.19785 0.289583 
4.38641 -3.22335 0.723374 
4.26558 -3.19413 0.393036 
4.16287 -3.1944 0.463598 
4.03739 -3.18322 0.388629 
3.94346 -3.16233 0.15739 
3.70771 -3.16009 0.279175 
3.58208 -3.13765 0.0468203 
3.48107 -3.13279 0.0445155 
3.35193 -3.12356 -0.00073223 
3.24825 -3.09691 -0.306203 
3.11926 -3.10031 -0.174825 
3.01451 -3.08887 -0.266803 
2.78309 -3.09913 0.0272889 
2.65988 -3.05143 -0.560166 
2.55274 -3.07017 -0.228283 
2.42493 -3.04651 -0.476167 
2.32125 -3.05272 -0.321979 
2.18525 -3.0401 -0.410111 
2.08235 -3.03255 -0.448816 
1.95327 -3.04511 -0.189052 
1.85338 -3.0212 -0.458694 
1.72359 -3.02336 -0.344005 
1.61379 -3.02577 -0.238876 
1.48642 -3.03026 -0.0932096 
1.38346 -3.01811 -0.196201 
1.25104 -3.02114 -0.0677302 
1.14902 -3.02289 0.0231815 
0.915145 -3.00937 -0.0137925 
0.785155 -3.02104 0.234013 
0.677722 -3.01907 0.276478 
0.550918 -3.01497 0.301512 
0.448435 -2.98019 -0.118489 
0.32058 -2.99723 0.203283 
0.211485 -2.97099 -0.0929699 
-0.251734 -3.00211 0.644177 
-0.486644 -2.97929 0.477709 
6.30662 -3.30906 1.19301 
6.20136 -3.307 1.23246 
6.05873 -3.3203 1.51001 
5.97549 -3.29464 1.20638 
5.83907 -3.29687 1.32572 
5.7357 -3.29627 1.38421 
5.5184 -3.26404 1.07583 
5.38478 -3.2661 1.19108 
5.28807 -3.25518 1.10155 
5.15323 -3.25929 1.24601 
5.07054 -3.22644 0.842015 
4.93799 -3.22792 0.948368 
4.84567 -3.21112 0.774061 
4.71085 -3.21509 0.916643 
4.62063 -3.1864 0.575467 
4.49578 -3.17291 0.468273 
4.38927 -3.18326 0.681509 
4.25438 -3.18053 0.730899 
4.16011 -3.16262 0.54238 
4.03985 -3.14616 0.3909 
3.9441 -3.1256 0.166457 
3.71152 -3.11622 0.186514 
3.58203 -3.10242 0.0781575 
3.47909 -3.10057 0.119014 
3.35287 -3.08575 -0.00565215 
3.24865 -3.07469 -0.092241 
3.12286 -3.06198 -0.187795 
3.01705 -3.05574 -0.206149 
2.79021 -3.02106 -0.54236 
2.65697 -3.04108 -0.177031 
2.55567 -3.01418 -0.48619 
2.42822 -3.00959 -0.467526 
2.32243 -3.00897 -0.40753 
2.18747 -3.01872 -0.184149 
2.08965 -2.98344 -0.612397 
1.95121 -3.01794 -0.0418966 
1.85424 -2.99717 -0.268421 
1.72294 -3.00484 -0.0763816 
1.61771 -2.97567 -0.414577 
1.49 -2.99219 -0.101646 
1.38509 -2.98408 -0.146516 
1.25173 -2.98851 0.00169274 
1.14825 -2.98123 -0.0326357 
1.01676 -3.00232 0.346447 
0.916488 -2.96451 -0.115227 
0.78417 -2.97053 0.0544118 
0.68341 -2.96769 0.0802705 
0.551712 -2.98442 0.3988 
0.450137 -2.96215 0.154374 
0.320105 -2.96588 0.290748 
0.212377 -2.91994 -0.279435 
-0.249466 -2.94627 0.387131 
-0.481186 -2.93686 0.406437 
6.30639 -3.27498 1.23318 
6.20501 -3.26873 1.21176 
6.06064 -3.28412 1.51836 
5.96522 -3.27204 1.41241 
5.83774 -3.26486 1.395 
5.73867 -3.2595 1.38454 
5.51503 -3.23365 1.17026 
5.39217 -3.22327 1.1056 
5.28389 -3.22662 1.22203 
5.17357 -3.19882 0.907512 
5.07238 -3.19344 0.898274 
4.94746 -3.18282 0.831568 
4.84501 -3.17861 0.839207 
4.71885 -3.1634 0.709641 
4.61932 -3.15917 0.715232 
4.49205 -3.14688 0.626957 
4.3902 -3.13963 0.592162 
4.25683 -3.14407 0.739904 
4.15737 -3.13163 0.63151 
4.03532 -3.11773 0.517522 
3.94583 -3.08304 0.0940998 
3.71512 -3.08065 0.20988 
3.58794 -3.06488 0.0732398 
3.47894 -3.06997 0.214226 
3.35141 -3.06186 0.184153 
3.25111 -3.03833 -0.0774631 
3.11995 -3.03468 -0.0434088 
3.02229 -3.02166 -0.160891 
2.78817 -3.00777 -0.202386 
2.66287 -2.98332 -0.460557 
2.55299 -3.00322 -0.113516 
2.42398 -2.99932 -0.0842381 
2.32334 -2.9635 -0.516055 
2.19136 -2.9646 -0.415569 
2.09433 -2.92902 -0.84646 
1.96006 -2.9539 -0.41448 
1.85653 -2.93816 -0.565987 
1.72689 -2.95614 -0.232718 
1.61639 -2.94117 -0.368933 
1.49005 -2.94943 -0.172649 
1.38613 -2.95951 0.0344197 
1.25752 -2.95262 0.021878 
1.14974 -2.93008 -0.221027 
1.01843 -2.9438 0.0541534 
0.924389 -2.93706 0.0214578 
0.78038 -2.96176 0.457275 
0.6857 -2.9196 -0.0664453 
0.555906 -2.92601 0.106432 
0.449538 -2.91771 0.0601916 
0.322739 -2.93427 0.371887 
0.2188 -2.91185 0.128148 
-0.248979 -2.92206 0.572413 
-0.478338 -2.89633 0.363893 
6.3015 -3.24668 1.35572 
6.20937 -3.22771 1.15299 
6.0747 -3.23239 1.30421 
5.97695 -3.22092 1.2086 
5.84046 -3.22899 1.40792 
5.73894 -3.22561 1.42649 
5.51279 -3.20094 1.23124 
5.40423 -3.17768 0.979747 
5.28619 -3.18547 1.16338 
5.16969 -3.16453 0.949071 
5.05986 -3.1678 1.06487 
4.95655 -3.13399 0.664372 
4.8335 -3.1518 0.989591 
4.71974 -3.13287 0.801344 
4.61974 -3.12162 0.710348 
4.49694 -3.10646 0.579941 
4.39506 -3.09728 0.518709 
4.26316 -3.09591 0.584723 
4.16417 -3.08896 0.552469 
4.03697 -3.08117 0.526634 
3.7079 -3.05148 0.328484 
3.58537 -3.02886 0.0949131 
3.48209 -3.02581 0.119314 
3.35244 -3.01909 0.109902 
3.24973 -3.02144 0.208588 
3.12502 -2.98761 -0.178382 
3.02208 -2.98546 -0.141859 
2.79173 -2.96608 -0.26118 
2.6625 -2.95123 -0.383052 
2.55824 -2.95092 -0.320061 
2.43347 -2.92252 -0.632035 
2.32533 -2.94321 -0.276615 
2.19716 -2.90201 -0.763103 
2.09294 -2.9161 -0.501345 
1.95906 -2.94223 -0.0541314 
1.85553 -2.91294 -0.392027 
1.72745 -2.91321 -0.305787 
1.62202 -2.91217 -0.252138 
1.38805 -2.90583 -0.188927 
1.25564 -2.9094 -0.0543219 
1.15139 -2.90538 -0.0425951 
1.02325 -2.91019 0.106387 
0.927755 -2.88736 -0.147339 
0.790097 -2.8884 -0.0442873 
0.6828 -2.89434 0.107002 
0.555014 -2.90655 0.358096 
0.452549 -2.88108 0.072281 
0.325459 -2.87579 0.081191 
0.221959 -2.87048 0.0745808 
-0.246884 -2.87716 0.469251 
-0.481279 -2.85323 0.289934 
-0.714734 -2.8509 0.408311 
6.20056 -3.20615 1.37071 
6.07199 -3.19967 1.36402 
5.98984 -3.16999 1.00857 
5.84267 -3.18855 1.35807 
5.74248 -3.18722 1.40411 
5.52784 -3.14861 1.01073 
5.38631 -3.16421 1.3161 
5.29546 -3.14338 1.08779 
5.06002 -3.13499 1.12354 
4.94801 -3.11243 0.885105 
4.8421 -3.10996 0.918994 
4.71477 -3.10623 0.949494 
4.6207 -3.0875 0.752136 
4.49136 -3.08125 0.74917 
4.39355 -3.06551 0.595585 
4.26176 -3.07122 0.758572 
4.16171 -3.06272 0.705885 
4.04339 -3.03451 0.39384 
3.94579 -3.01882 0.240788 
3.72068 -2.99159 0.01076 
3.588 -2.9969 0.168923 
3.4857 -2.98993 0.138674 
3.35511 -2.98107 0.100666 
3.24504 -2.99253 0.328963 
3.12622 -2.96433 0.0174054 
3.02841 -2.93588 -0.311089 
2.79648 -2.9172 -0.419108 
2.66913 -2.90765 -0.468595 
2.56081 -2.90823 -0.391124 
2.43398 -2.89399 -0.505498 
2.32969 -2.88376 -0.579222 
2.19583 -2.88926 -0.417587 
2.09909 -2.85897 -0.77199 
1.85667 -2.8822 -0.296821 
1.73021 -2.87205 -0.35513 
1.62378 -2.87184 -0.289679 
1.49522 -2.86814 -0.258018 
1.38927 -2.88234 0.00548093 
1.25684 -2.87387 -0.0259594 
1.1558 -2.85556 -0.212859 
0.923529 -2.84235 -0.245369 
0.786907 -2.88904 0.484744 
0.684526 -2.85886 0.135359 
0.55986 -2.84055 -0.0363614 
0.454004 -2.83662 -0.0222912 
0.325092 -2.83985 0.105008 
0.222903 -2.83207 0.0635981 
-0.244498 -2.83838 0.451014 
-0.47844 -2.8225 0.382958 
-0.71511 -2.82257 0.536164 
6.45073 -3.15589 1.02827 
6.32761 -3.14591 0.970152 
6.20286 -3.16517 1.31369 
6.06066 -3.18151 1.62828 
5.98423 -3.14341 1.15542 
5.83843 -3.16139 1.49488 
5.73992 -3.1558 1.48125 
5.61856 -3.13739 1.30678 
5.51574 -3.13521 1.34263 
5.39547 -3.11948 1.20408 
5.28418 -3.12403 1.33749 
5.16117 -3.11358 1.27312 
5.04833 -3.1168 1.38933 
4.94273 -3.08021 0.955835 
4.84729 -3.06668 0.83164 
4.72463 -3.05649 0.770475 
4.61822 -3.05881 0.870396 
4.49243 -3.04537 0.76672 
4.39781 -3.02566 0.557439 
4.26931 -3.02361 0.611496 
4.16238 -3.02228 0.661651 
4.03226 -3.02344 0.760855 
3.94741 -2.98158 0.241959 
3.70793 -2.98514 0.443894 
3.59299 -2.95911 0.160916 
3.48825 -2.95329 0.14831 
3.35577 -2.95077 0.198539 
3.25072 -2.95444 0.316049 
3.12846 -2.92187 -0.0516751 
3.01954 -2.93073 0.139357 
2.7949 -2.89689 -0.180271 
2.66968 -2.87885 -0.347185 
2.56782 -2.8479 -0.705823 
2.43348 -2.85149 -0.570579 
2.33155 -2.85495 -0.458045 
2.19911 -2.8471 -0.480716 
2.09772 -2.8367 -0.558168 
1.96291 -2.85791 -0.181334 
1.86046 -2.83016 -0.495851 
1.73119 -2.85369 -0.0907798 
1.62463 -2.83375 -0.295662 
1.50034 -2.85086 0.0183792 
1.39281 -2.81704 -0.37591 
1.25908 -2.82553 -0.174084 
1.15828 -2.82587 -0.104836 
1.02418 -2.83426 0.095982 
0.922666 -2.82039 -0.0288097 
0.793058 -2.81948 0.0417325 
0.69103 -2.82881 0.234861 
0.561282 -2.81257 0.0956501 
0.454096 -2.80124 0.00917531 
0.323658 -2.79324 -0.0168751 
0.225 -2.81642 0.363831 
-0.239702 -2.79079 0.310659 
-0.477574 -2.78411 0.371768 
-0.714972 -2.7778 0.437553 
6.30732 -3.1354 1.34484 
6.20288 -3.13085 1.34934 
6.06564 -3.14133 1.57965 
5.97904 -3.1172 1.30589 
5.84275 -3.12418 1.48784 
5.74367 -3.114 1.41225 
5.51922 -3.0971 1.32488 
5.39094 -3.08793 1.28161 
5.29704 -3.0714 1.11606 
5.14861 -3.1002 1.60326 
5.03298 -3.11415 1.86731 
4.95903 -3.02921 0.756237 
4.84439 -3.03863 0.957749 
4.62481 -3.01364 0.75707 
4.4898 -3.0159 0.873888 
4.39276 -3.00735 0.819224 
4.26458 -2.99678 0.756858 
4.17409 -2.97185 0.474688 
4.04357 -2.96232 0.427971 
3.72326 -2.92399 0.109577 
3.58794 -2.9275 0.243722 
3.47232 -2.95276 0.661951 
3.36077 -2.90805 0.123546 
3.25954 -2.89378 -0.00653588 
3.12258 -2.90361 0.214948 
3.022 -2.88969 0.089317 
2.79734 -2.84199 -0.417751 
2.66821 -2.8389 -0.377479 
2.56373 -2.84394 -0.242117 
2.43492 -2.82636 -0.399534 
2.33435 -2.814 -0.503967 
2.20364 -2.80379 -0.559662 
2.09845 -2.78489 -0.750276 
1.96811 -2.79334 -0.551881 
1.86675 -2.79016 -0.530498 
1.73428 -2.79933 -0.320821 
1.6268 -2.79754 -0.276588 
1.4972 -2.79991 -0.161626 
1.39254 -2.77831 -0.389229 
1.26116 -2.77958 -0.28805 
1.15883 -2.76079 -0.4789 
1.02838 -2.77882 -0.149802 
0.924775 -2.75702 -0.380885 
0.797203 -2.78187 0.0395344 
0.688261 -2.76558 -0.113059 
0.562633 -2.78273 0.201148 
0.454353 -2.76551 0.0354609 
0.328835 -2.75817 0.0154792 
0.223163 -2.72453 -0.375735 
-0.474291 -2.75801 0.52667 
-0.711376 -2.74809 0.542931 
6.44377 -3.09387 1.19565 
6.31507 -3.09017 1.22718 
6.21837 -3.07817 1.12563 
6.06602 -3.10775 1.62409 
5.97079 -3.09069 1.45298 
5.84755 -3.08241 1.41878 
5.7448 -3.0776 1.41874 
5.51668 -3.06117 1.34062 
5.28641 -3.05525 1.40655 
5.16332 -3.04147 1.29772 
5.0728 -3.02225 1.09429 
4.94184 -3.01786 1.11797 
4.83456 -3.02195 1.24167 
4.72977 -2.98035 0.743469 
4.6168 -2.98786 0.917232 
4.49677 -2.96919 0.739995 
4.39103 -2.97504 0.886771 
4.26898 -2.95436 0.683571 
4.17352 -2.93286 0.452262 
4.03959 -2.93714 0.595612 
3.9437 -2.92306 0.465316 
3.70531 -2.92395 0.629045 
3.58309 -2.9054 0.454986 
3.49288 -2.87004 0.0322607 
3.3578 -2.87905 0.240508 
3.25153 -2.88193 0.347155 
3.13078 -2.84146 -0.125553 
3.02702 -2.84332 -0.0342706 
2.79958 -2.80306 -0.436157 
2.6701 -2.80327 -0.351022 
2.57163 -2.78602 -0.522593 
2.43932 -2.78166 -0.497608 
2.34042 -2.76272 -0.691752 
2.204 -2.77429 -0.447829 
2.0994 -2.74307 -0.805163 
1.86751 -2.75532 -0.49134 
1.73355 -2.78443 -0.0108003 
1.63067 -2.7476 -0.445327 
1.49744 -2.75754 -0.225605 
1.39598 -2.76363 -0.0782046 
1.26706 -2.74106 -0.302622 
1.16256 -2.72741 -0.421449 
0.932578 -2.75157 0.0530346 
0.797341 -2.73137 -0.135184 
0.687921 -2.70786 -0.384741 
0.564144 -2.71935 -0.149876 
0.455314 -2.71874 -0.0887601 
0.337097 -2.73982 0.272768 
0.225155 -2.7128 -0.0227918 
-0.237928 -2.7272 0.467729 
-0.474094 -2.69779 0.218943 
-0.708272 -2.70859 0.51474 
6.30886 -3.06613 1.40587 
6.21726 -3.04624 1.195 
6.07153 -3.06685 1.56581 
5.9748 -3.0521 1.42776 
5.85278 -3.04428 1.39927 
5.75356 -3.03276 1.3064 
5.61908 -3.03171 1.37741 
5.52725 -3.01443 1.20193 
5.39463 -3.01462 1.28854 
5.29103 -3.01216 1.32088 
5.16758 -3.00366 1.28419 
5.06783 -2.99655 1.25132 
4.92725 -3.00792 1.49409 
4.61347 -2.96092 1.05755 
4.4957 -2.93686 0.806833 
4.39504 -2.93986 0.91121 
4.26726 -2.92223 0.75381 
4.17257 -2.89902 0.500001 
4.04151 -2.90164 0.618509 
3.82746 -2.87033 0.330918 
3.71443 -2.87476 0.462485 
3.59483 -2.8431 0.110259 
3.48494 -2.85618 0.356804 
3.35961 -2.83647 0.169875 
3.26249 -2.81953 0.00231363 
3.12649 -2.83388 0.282634 
3.0181 -2.83018 0.301381 
2.90673 -2.7843 -0.248387 
2.80437 -2.76957 -0.382568 
2.67282 -2.7622 -0.398754 
2.57898 -2.71877 -0.92646 
2.44155 -2.74451 -0.491238 
2.33551 -2.74926 -0.359672 
2.20405 -2.74568 -0.324728 
2.09897 -2.71235 -0.708766 
1.97326 -2.70487 -0.730088 
1.86711 -2.70643 -0.641678 
1.7389 -2.7248 -0.311895 
1.63269 -2.71477 -0.380024 
1.50683 -2.72895 -0.108511 
1.3988 -2.70861 -0.31486 
1.26438 -2.71422 -0.153711 
1.16488 -2.71179 -0.123454 
1.03157 -2.71077 -0.0525942 
0.934449 -2.69898 -0.150346 
0.798501 -2.71211 0.11347 
0.693036 -2.70989 0.150437 
0.567962 -2.70389 0.148769 
0.458276 -2.67601 -0.158628 
0.338841 -2.70321 0.285136 
0.228527 -2.69832 0.289075 
-0.236521 -2.68542 0.41 
-0.471279 -2.67651 0.438694 
-0.604276 -2.68876 0.688813 
-0.705254 -2.6806 0.642659 
6.46094 -3.00261 0.951599 
6.31409 -3.02276 1.3156 
6.19619 -3.037 1.58179 
6.08031 -3.01985 1.42405 
5.97395 -3.01883 1.47743 
5.84915 -3.01287 1.47605 
5.75554 -2.99936 1.35318 
5.51585 -2.99667 1.4684 
5.39565 -2.98081 1.33085 
5.28942 -2.98457 1.44847 
5.17104 -2.96435 1.25112 
5.07073 -2.95364 1.17033 
4.94819 -2.93784 1.03492 
4.84276 -2.94332 1.17538 
4.6078 -2.93623 1.22831 
4.50382 -2.89457 0.733218 
4.39133 -2.91322 1.05532 
4.27614 -2.87401 0.600217 
4.17244 -2.87045 0.617811 
4.03732 -2.8769 0.790169 
3.94151 -2.85575 0.565903 
3.72024 -2.83123 0.375653 
3.59256 -2.81026 0.174021 
3.48551 -2.82735 0.471868 
3.35826 -2.79879 0.167711 
3.26153 -2.79956 0.239277 
3.13269 -2.78602 0.13851 
3.02954 -2.77508 0.0563576 
2.7986 -2.75195 -0.108948 
2.67606 -2.71379 -0.545285 
2.57342 -2.70002 -0.665718 
2.44124 -2.6975 -0.616049 
2.34079 -2.69529 -0.582263 
2.21109 -2.68217 -0.676904 
2.10239 -2.66758 -0.804535 
1.86783 -2.67871 -0.506318 
1.74179 -2.65852 -0.698463 
1.63289 -2.67444 -0.415112 
1.50698 -2.69561 -0.0504615 
1.39975 -2.67716 -0.231004 
1.26731 -2.67907 -0.121514 
1.16867 -2.66191 -0.290145 
0.931989 -2.65897 -0.179865 
0.801843 -2.65519 -0.148331 
0.69445 -2.64563 -0.209137 
0.572255 -2.65705 0.0220719 
0.461644 -2.65721 0.0941559 
0.33844 -2.64451 0.0012036 
0.227411 -2.64127 0.0278386 
-0.237719 -2.65702 0.534526 
-0.468758 -2.65034 0.590906 
-0.600757 -2.65893 0.79027 
-0.702488 -2.6542 0.790948 
6.45064 -2.98238 1.18359 
6.32189 -2.9765 1.18573 
6.2193 -2.9738 1.2141 
6.08128 -2.98665 1.47326 
5.9704 -2.98821 1.56402 
5.85059 -2.97692 1.4881 
5.75421 -2.96635 1.40705 
5.62099 -2.96258 1.44044 
5.53431 -2.93863 1.17391 
5.40002 -2.93807 1.25095 
5.30167 -2.93438 1.2634 
5.17307 -2.92782 1.25648 
5.06787 -2.92332 1.26236 
4.95458 -2.89914 1.00957 
4.83644 -2.91531 1.30084 
4.73193 -2.86959 0.753618 
4.63799 -2.85809 0.65867 
4.48539 -2.88716 1.14457 
4.38577 -2.88303 1.15188 
4.25772 -2.86925 1.04787 
4.157 -2.8561 0.935066 
4.04869 -2.82448 0.579339 
3.94595 -2.80808 0.42428 
3.71638 -2.79946 0.453294 
3.58442 -2.79986 0.541828 
3.49288 -2.78023 0.336339 
3.36179 -2.76531 0.219004 
3.26044 -2.76272 0.248144 
3.13454 -2.74497 0.0895542 
3.03597 -2.71854 -0.202715 
2.8072 -2.69214 -0.412383 
2.67683 -2.67641 -0.54106 
2.57817 -2.66047 -0.692528 
2.43963 -2.6761 -0.395594 
2.34469 -2.64387 -0.767971 
2.21025 -2.64666 -0.645733 
2.10514 -2.64564 -0.593024 
1.87676 -2.60561 -0.985772 
1.7453 -2.63741 -0.476392 
1.635 -2.64086 -0.360644 
1.50865 -2.62709 -0.465518 
1.40366 -2.64198 -0.199611 
1.26927 -2.62533 -0.338091 
1.16999 -2.59973 -0.618673 
0.935305 -2.6266 -0.110314 
0.799864 -2.62166 -0.0909934 
0.699645 -2.62773 0.0536265 
0.570014 -2.63036 0.170695 
0.462528 -2.60184 -0.143855 
0.338862 -2.6159 0.122719 
0.229792 -2.61254 0.146522 
-0.237697 -2.62776 0.645844 
-0.364611 -2.6147 0.55086 
-0.466977 -2.60134 0.436294 
-0.597825 -2.61965 0.764493 
-0.699913 -2.63503 1.03517 
-1.16898 -2.53784 0.0282043 
-1.40081 -2.54025 0.207063 
6.45498 -2.95019 1.24473 
6.3198 -2.94678 1.28398 
6.21771 -2.94232 1.2885 
6.07973 -2.95453 1.53813 
5.98176 -2.94125 1.42238 
5.85098 -2.93721 1.45052 
5.76357 -2.9175 1.24225 
5.62223 -2.92619 1.44699 
5.52052 -2.91794 1.40066 
5.3892 -2.92052 1.51763 
5.28996 -2.91486 1.50435 
5.17142 -2.89741 1.3458 
5.07218 -2.88459 1.23694 
4.95102 -2.86979 1.11546 
4.84606 -2.86602 1.13113 
4.62303 -2.84667 1.01278 
4.482 -2.85698 1.23901 
4.37811 -2.85885 1.32927 
4.27171 -2.81073 0.753698 
4.18007 -2.78953 0.528167 
4.05569 -2.77491 0.411147 
3.95418 -2.76891 0.394855 
3.7277 -2.74386 0.202711 
3.58918 -2.75407 0.426011 
3.49305 -2.74533 0.369833 
3.36191 -2.73232 0.278467 
3.2665 -2.71415 0.0958307 
3.13316 -2.71281 0.161851 
3.03393 -2.70468 0.115653 
2.8069 -2.65406 -0.417477 
2.67654 -2.64498 -0.456813 
2.57828 -2.64151 -0.441354 
2.44687 -2.63216 -0.483529 
2.34403 -2.61451 -0.654496 
2.21607 -2.57861 -1.05334 
2.10957 -2.60378 -0.650361 
1.87365 -2.58969 -0.69009 
1.73978 -2.6328 -0.0302822 
1.63326 -2.63121 0.0153944 
1.50944 -2.58881 -0.472826 
1.40682 -2.60202 -0.231889 
1.27472 -2.60199 -0.149117 
1.17092 -2.57425 -0.454206 
0.933951 -2.5777 -0.259086 
0.804269 -2.57832 -0.169244 
0.699131 -2.56778 -0.243752 
0.571704 -2.56223 -0.23763 
0.464872 -2.54591 -0.38838 
0.336337 -2.56735 -0.021174 
0.232096 -2.56893 0.0655052 
-0.236736 -2.56774 0.344813 
-0.363303 -2.55759 0.288991 
-0.464391 -2.57871 0.63465 
-0.596434 -2.59235 0.89988 
-0.699049 -2.59376 0.983395 
-1.1654 -2.51668 0.247893 
6.22041 -2.90595 1.29468 
6.0993 -2.89487 1.22317 
5.98299 -2.90685 1.45525 
5.86106 -2.88685 1.26567 
5.76133 -2.88533 1.30784 
5.52717 -2.87592 1.32935 
5.39537 -2.87812 1.44113 
5.29241 -2.87329 1.44133 
5.16461 -2.86603 1.4248 
5.0585 -2.8712 1.56 
4.95146 -2.83675 1.16896 
4.84339 -2.83447 1.20634 
4.71418 -2.83266 1.26316 
4.61802 -2.81783 1.12629 
4.49697 -2.80247 0.99784 
4.39956 -2.79029 0.896978 
4.27098 -2.78261 0.875398 
4.15862 -2.79255 1.07787 
4.04005 -2.76748 0.818928 
3.94508 -2.75285 0.68381 
3.72796 -2.71174 0.273315 
3.59058 -2.72345 0.514992 
3.48994 -2.71479 0.46297 
3.36042 -2.7034 0.392756 
3.25696 -2.70196 0.438406 
3.14035 -2.66062 -0.0382233 
3.03774 -2.66245 0.0504657 
2.80941 -2.6192 -0.381541 
2.67877 -2.60468 -0.492627 
2.57847 -2.59443 -0.566108 
2.44856 -2.59784 -0.439247 
2.34572 -2.57845 -0.632625 
2.21497 -2.58454 -0.469651 
2.11442 -2.55931 -0.742085 
1.97846 -2.57117 -0.499183 
1.87629 -2.54966 -0.721137 
1.74574 -2.55208 -0.607007 
1.6377 -2.56899 -0.314507 
1.5088 -2.54532 -0.5483 
1.40728 -2.56502 -0.22277 
1.27744 -2.53733 -0.509457 
1.16929 -2.52856 -0.558259 
1.0398 -2.55452 -0.131817 
0.931506 -2.53016 -0.387823 
0.805609 -2.53876 -0.19439 
0.701099 -2.53679 -0.155087 
0.574829 -2.54156 -0.0123483 
0.467103 -2.52019 -0.228975 
0.339892 -2.54406 0.168281 
0.234321 -2.53479 0.111193 
-0.127224 -2.56169 0.695941 
-0.232075 -2.52324 0.250378 
-0.366144 -2.5405 0.564074 
-0.466626 -2.53558 0.561813 
-0.595686 -2.55437 0.892697 
-0.698513 -2.52004 0.500774 
-1.05713 -2.50522 0.528781 
-1.16661 -2.49006 0.396013 
-1.28833 -2.49713 0.566468 
-1.39445 -2.47961 0.400118 
-1.76465 -2.46532 0.442671 
6.31505 -2.88617 1.46305 
6.21587 -2.87748 1.4099 
6.08719 -2.87469 1.45331 
5.98397 -2.86854 1.43624 
5.85251 -2.86921 1.52714 
5.76859 -2.84048 1.1991 
5.52572 -2.83926 1.3346 
5.30009 -2.8275 1.31973 
5.16761 -2.82997 1.43514 
5.05994 -2.83428 1.55936 
4.94176 -2.81558 1.38565 
4.84778 -2.79316 1.14737 
4.62937 -2.76813 0.952335 
4.49926 -2.76443 0.984649 
4.39697 -2.75941 0.982099 
4.26512 -2.75588 1.01761 
4.17201 -2.73791 0.837908 
4.04488 -2.72642 0.765141 
3.94139 -2.72175 0.767996 
3.71897 -2.69856 0.599905 
3.59033 -2.68675 0.523859 
3.4881 -2.68682 0.588623 
3.35895 -2.67397 0.499251 
3.25736 -2.66812 0.485203 
3.14472 -2.61932 -0.0905448 
3.03813 -2.62855 0.0982594 
2.80608 -2.59621 -0.184915 
2.68702 -2.55433 -0.665056 
2.58122 -2.54284 -0.751057 
2.4497 -2.55195 -0.548284 
2.34871 -2.53603 -0.695942 
2.21612 -2.54146 -0.541099 
2.11187 -2.52363 -0.712015 
1.87865 -2.50439 -0.821049 
1.74593 -2.53239 -0.367239 
1.63905 -2.53127 -0.31522 
1.51094 -2.52556 -0.310789 
1.40786 -2.51506 -0.385297 
1.27552 -2.5075 -0.40261 
1.16902 -2.52509 -0.103133 
0.93242 -2.51111 -0.14022 
0.805037 -2.51276 -0.0387746 
0.701132 -2.50312 -0.101313 
0.576296 -2.4962 -0.114848 
0.467444 -2.4839 -0.209704 
0.340997 -2.49952 0.0762479 
0.236108 -2.50605 0.22835 
-0.126269 -2.52975 0.769067 
-0.229731 -2.50644 0.525102 
-0.367034 -2.51028 0.661837 
-0.461226 -2.49801 0.558343 
-0.592122 -2.49601 0.613774 
-0.696686 -2.47914 0.455903 
-1.05407 -2.46859 0.53995 
-1.16301 -2.46012 0.495965 
-1.29454 -2.41704 0.00781137 
-1.3942 -2.42542 0.18119 
6.22541 -2.83109 1.27918 
6.09521 -2.83068 1.35477 
5.98178 -2.83662 1.50368 
5.85399 -2.83078 1.50623 
5.75569 -2.82594 1.50359 
5.52619 -2.80819 1.4124 
5.40761 -2.78706 1.20752 
5.30053 -2.79402 1.36595 
5.18018 -2.78087 1.26749 
5.06541 -2.79351 1.5056 
4.94869 -2.76729 1.2325 
4.84386 -2.767 1.29393 
4.73006 -2.73747 0.975465 
4.62555 -2.74452 1.13347 
4.49577 -2.7345 1.08209 
4.39056 -2.73394 1.14029 
4.27475 -2.71004 0.897213 
4.16759 -2.70808 0.938042 
4.05282 -2.67732 0.604037 
3.95479 -2.66725 0.532304 
3.71218 -2.67347 0.765417 
3.58222 -2.66846 0.78032 
3.48737 -2.66237 0.759051 
3.36247 -2.63052 0.416872 
3.26233 -2.62822 0.448975 
3.14151 -2.59283 0.0575099 
3.03774 -2.58873 0.0681232 
2.80624 -2.57047 -0.0284367 
2.68587 -2.53096 -0.474375 
2.58184 -2.51656 -0.599443 
2.45674 -2.49552 -0.798916 
2.35784 -2.47951 -0.948364 
2.22057 -2.48549 -0.783968 
2.11301 -2.49981 -0.528132 
1.88007 -2.48117 -0.628773 
1.74655 -2.49827 -0.320034 
1.64224 -2.50323 -0.189499 
1.50956 -2.48505 -0.346488 
1.40987 -2.48777 -0.24845 
1.2773 -2.47061 -0.392103 
1.1743 -2.43883 -0.746947 
0.939039 -2.46088 -0.309472 
0.809249 -2.46129 -0.22311 
0.7038 -2.45497 -0.240656 
0.576829 -2.46281 -0.0580748 
0.470178 -2.45503 -0.0941147 
0.341964 -2.45649 0.00509961 
0.238673 -2.45207 0.0112053 
0.0102553 -2.46195 0.284031 
-0.124745 -2.47127 0.491183 
-0.228029 -2.45328 0.318396 
-0.361185 -2.46044 0.495994 
-0.460351 -2.44651 0.37415 
-0.591927 -2.46207 0.661496 
-0.695619 -2.45065 0.57564 
-1.05476 -2.41736 0.360816 
-1.16288 -2.40291 0.237671 
-1.30316 -2.35789 -0.268485 
-1.39094 -2.39766 0.310882 
-1.76495 -2.38157 0.332165 
6.31438 -2.81525 1.50144 
6.2309 -2.78689 1.18091 
6.08795 -2.80454 1.50126 
5.98501 -2.79928 1.49611 
5.85694 -2.79255 1.48717 
5.76539 -2.78204 1.4059 
5.5236 -2.78293 1.56771 
5.39895 -2.76827 1.45254 
5.29095 -2.77091 1.55418 
5.17577 -2.75474 1.41341 
5.06786 -2.75593 1.49595 
4.94275 -2.74406 1.41768 
4.85286 -2.72179 1.18113 
4.62562 -2.70482 1.09928 
4.51045 -2.67549 0.785605 
4.40377 -2.67872 0.894262 
4.28045 -2.66418 0.779957 
4.1787 -2.65849 0.768413 
4.05512 -2.64519 0.67054 
3.9442 -2.64724 0.766338 
3.72214 -2.62429 0.602785 
3.58979 -2.62658 0.715086 
3.48931 -2.61293 0.598301 
3.36643 -2.59774 0.475074 
3.26299 -2.5942 0.4929 
3.14107 -2.55895 0.10576 
3.03535 -2.56134 0.202749 
2.81054 -2.5226 -0.16634 
2.68806 -2.49007 -0.51743 
2.57985 -2.49643 -0.366692 
2.46185 -2.45232 -0.872604 
2.35083 -2.46001 -0.702596 
2.22 -2.46284 -0.584163 
2.11884 -2.43446 -0.893938 
1.88252 -2.45261 -0.508747 
1.74912 -2.45041 -0.454701 
1.64878 -2.449 -0.410783 
1.51413 -2.43354 -0.530183 
1.41405 -2.43892 -0.397279 
1.2823 -2.41399 -0.642808 
1.17466 -2.42611 -0.416614 
0.942111 -2.41216 -0.45521 
0.810062 -2.41429 -0.345118 
0.705811 -2.41039 -0.331509 
0.580439 -2.42651 -0.0418503 
0.471274 -2.40572 -0.247001 
0.348183 -2.4405 0.286408 
0.241153 -2.43855 0.327283 
0.00914278 -2.44326 0.533614 
-0.120392 -2.43976 0.568227 
-0.221626 -2.44576 0.70993 
-0.357525 -2.41078 0.335183 
-0.455316 -2.4152 0.454013 
-0.589366 -2.41651 0.554685 
-0.69403 -2.40435 0.460114 
-1.05409 -2.39993 0.626177 
-1.1598 -2.39406 0.614878 
-1.28721 -2.3629 0.284895 
-1.38858 -2.37957 0.567033 
6.46227 -2.75776 1.14072 
6.23229 -2.75298 1.22041 
6.09439 -2.76021 1.40022 
5.98706 -2.7635 1.50963 
5.84842 -2.76984 1.67836 
5.76402 -2.74705 1.4325 
5.52776 -2.74141 1.50491 
5.39829 -2.73692 1.5264 
5.29764 -2.72741 1.46419 
5.16517 -2.72985 1.57815 
5.07244 -2.7147 1.43739 
4.94433 -2.71068 1.46407 
4.84457 -2.70124 1.40242 
4.61898 -2.68436 1.32123 
4.48836 -2.67962 1.34016 
4.39624 -2.65577 1.08523 
4.28008 -2.63252 0.853176 
4.17003 -2.63616 0.968832 
4.05118 -2.61612 0.780379 
3.95029 -2.60728 0.727245 
3.82255 -2.60186 0.735482 
3.71433 -2.60268 0.813201 
3.59307 -2.58651 0.676781 
3.49049 -2.57426 0.580069 
3.36754 -2.56208 0.496909 
3.2586 -2.56646 0.621714 
3.14004 -2.53496 0.283252 
3.04205 -2.51145 0.0364386 
2.81328 -2.4918 -0.0788816 
2.69363 -2.45233 -0.520922 
2.58417 -2.44508 -0.54796 
2.45796 -2.42224 -0.768501 
2.35343 -2.4184 -0.753877 
2.22226 -2.41241 -0.750941 
2.12076 -2.39636 -0.897956 
1.88554 -2.3875 -0.868099 
1.7494 -2.4188 -0.374299 
1.65126 -2.39308 -0.649961 
1.51866 -2.41776 -0.244932 
1.41292 -2.3951 -0.475768 
1.28074 -2.39618 -0.379596 
1.17629 -2.37299 -0.618204 
0.943492 -2.38804 -0.276994 
0.81308 -2.38048 -0.294987 
0.710337 -2.39084 -0.0958025 
0.581715 -2.39297 0.0117906 
0.474445 -2.37154 -0.201985 
0.349006 -2.38526 0.0553711 
0.24339 -2.37415 -0.0244924 
0.00531913 -2.38306 0.239741 
-0.118843 -2.41666 0.756312 
-0.220964 -2.41679 0.821355 
-0.355875 -2.38494 0.488477 
-0.453046 -2.39648 0.69976 
-0.588826 -2.37813 0.543951 
-0.690002 -2.36764 0.469467 
-0.925362 -2.36528 0.584763 
-1.05129 -2.37298 0.763659 
-1.15873 -2.36121 0.676299 
-1.29119 -2.29338 -0.128734 
-1.39034 -2.30643 0.103632 
-1.75248 -2.32052 0.512779 
6.45517 -2.73343 1.31022 
6.2338 -2.71818 1.24808 
6.09356 -2.72917 1.47769 
5.98987 -2.7253 1.49119 
5.86515 -2.7158 1.44442 
5.75948 -2.7147 1.49527 
5.62889 -2.71299 1.55357 
5.53008 -2.70425 1.50066 
5.39881 -2.70361 1.57329 
5.29858 -2.69355 1.50409 
5.17612 -2.6826 1.43715 
5.07246 -2.68075 1.47701 
4.95755 -2.65501 1.21259 
4.8517 -2.65926 1.33329 
4.63686 -2.62323 0.996637 
4.48984 -2.64263 1.34011 
4.39926 -2.61928 1.09178 
4.26822 -2.61828 1.15976 
4.17821 -2.58947 0.840091 
4.04636 -2.58812 0.903853 
3.93889 -2.59317 1.03601 
3.72011 -2.55954 0.733033 
3.58502 -2.56749 0.920019 
3.4939 -2.53601 0.566207 
3.3701 -2.52081 0.444701 
3.26144 -2.53018 0.633862 
3.14755 -2.48314 0.0914532 
3.04379 -2.48636 0.197478 
2.81373 -2.4487 -0.150865 
2.6913 -2.42328 -0.40636 
2.58383 -2.41537 -0.443034 
2.46111 -2.38097 -0.815305 
2.35442 -2.39056 -0.624423 
2.23098 -2.3486 -1.09465 
2.12351 -2.36427 -0.824118 
1.88445 -2.35316 -0.821137 
1.75288 -2.35928 -0.660082 
1.6481 -2.35579 -0.640826 
1.51893 -2.37455 -0.316616 
1.41869 -2.34771 -0.60425 
1.28513 -2.3586 -0.379833 
1.18087 -2.33044 -0.682222 
0.948474 -2.33888 -0.428545 
0.81524 -2.33293 -0.423662 
0.713696 -2.3486 -0.156843 
0.584382 -2.3606 0.079465 
0.475986 -2.33846 -0.141842 
0.355721 -2.35612 0.162581 
0.245162 -2.34876 0.135073 
0.0155786 -2.35095 0.305608 
-0.122558 -2.37243 0.670844 
-0.218835 -2.37087 0.710156 
-0.352943 -2.34499 0.45596 
-0.452775 -2.35887 0.698592 
-0.586828 -2.34701 0.62694 
-0.689948 -2.33681 0.557916 
-0.921501 -2.32559 0.555122 
-1.04584 -2.35282 0.986825 
-1.15556 -2.32351 0.672837 
-1.28884 -2.28494 0.252869 
-1.38521 -2.2907 0.387634 
6.46496 -2.69166 1.24162 
6.22385 -2.69502 1.43346 
6.08937 -2.6971 1.54313 
5.99735 -2.68286 1.41507 
5.86989 -2.67651 1.41111 
5.76419 -2.67743 1.48801 
5.62695 -2.68227 1.63524 
5.53369 -2.66758 1.50203 
5.39761 -2.67171 1.6394 
5.30684 -2.64654 1.36872 
5.16828 -2.66059 1.63619 
5.07648 -2.64183 1.44927 
4.95143 -2.63273 1.40828 
4.847 -2.63359 1.4837 
4.64281 -2.57532 0.853404 
4.49256 -2.60318 1.30737 
