ply
format ascii 1.0
element vertex 1778
property float x
property float y
property float z
end_header
0.758102 -5.82034 2.30046 
0.629626 -5.81276 2.25706 
0.530133 -5.80958 2.27837 
0.398415 -5.81503 2.50347 
0.298654 -5.80968 2.48078 
0.169285 -5.81106 2.621 
0.0685895 -5.81244 2.73631 
-0.162242 -5.78139 2.30277 
-1.59072 -5.46853 -2.84281 
-1.72526 -5.46329 -2.8332 
-1.83471 -5.44216 -3.16945 
-1.96533 -5.44117 -3.07637 
-2.0745 -5.42695 -3.2719 
-2.20598 -5.43236 -3.04778 
-2.31604 -5.41217 -3.36435 
-2.44611 -5.4108 -3.27955 
-2.55246 -5.40394 -3.32727 
-2.69074 -5.40004 -3.2871 
-2.79999 -5.3885 -3.42773 
-2.92732 -5.39392 -3.20701 
-3.04009 -5.37466 -3.50203 
-3.18728 -5.33245 -4.23576 
-3.28789 -5.34845 -3.82204 
-3.43171 -5.32897 -4.09487 
-3.52943 -5.33697 -3.84687 
-3.67299 -5.32028 -4.06312 
5.15866 -5.89863 0.847172 
4.92701 -5.8916 0.903758 
4.79137 -5.89543 1.09798 
4.68602 -5.89481 1.17592 
4.55548 -5.89378 1.26729 
4.45593 -5.88155 1.10479 
4.32783 -5.87621 1.10675 
4.22783 -5.86895 1.04548 
4.09813 -5.8695 1.1682 
3.98878 -5.87183 1.30943 
3.86421 -5.86477 1.27352 
3.76071 -5.86034 1.27278 
3.63628 -5.85206 1.21176 
3.53543 -5.84557 1.167 
3.40875 -5.83717 1.10583 
3.30275 -5.83677 1.18877 
3.17432 -5.83365 1.23597 
3.06991 -5.83029 1.25769 
2.94819 -5.81971 1.148 
2.84488 -5.81443 1.12979 
2.71628 -5.81164 1.18403 
2.61486 -5.8079 1.19539 
2.48411 -5.8064 1.27738 
2.38341 -5.7943 1.11896 
2.25507 -5.79994 1.34363 
2.15636 -5.78567 1.13932 
2.02146 -5.79253 1.39439 
1.91977 -5.78443 1.31789 
1.79066 -5.78288 1.39751 
1.68877 -5.78153 1.4578 
1.55653 -5.77966 1.53379 
1.45736 -5.77116 1.44694 
1.32455 -5.78617 1.86548 
1.21933 -5.7772 1.77416 
1.09294 -5.78529 2.04708 
0.990865 -5.78156 2.05932 
0.633557 -5.77105 2.15395 
0.530344 -5.77042 2.23007 
0.401583 -5.77242 2.38157 
0.301765 -5.76789 2.37555 
0.168248 -5.77811 2.69773 
0.0708586 -5.76158 2.44669 
-0.280166 -5.7198 1.90204 
-1.48284 -5.4313 -2.90997 
-1.58959 -5.42326 -2.98106 
-1.72187 -5.42703 -2.79065 
-1.82809 -5.42071 -2.82722 
-1.95935 -5.41413 -2.84739 
-2.07317 -5.39151 -3.20788 
-2.20543 -5.38318 -3.26266 
-2.31726 -5.36556 -3.52363 
-2.44325 -5.37759 -3.17097 
-2.55106 -5.36546 -3.32395 
-2.69051 -5.35542 -3.40741 
-2.79652 -5.35211 -3.38298 
-3.03858 -5.33487 -3.52389 
-3.17504 -5.32184 -3.67028 
-3.28567 -5.30415 -3.93351 
-3.42797 -5.2939 -4.01857 
-3.52775 -5.2961 -3.88793 
-3.66753 -5.28549 -3.98242 
4.92116 -5.86148 1.04659 
4.79894 -5.85069 0.933887 
4.69254 -5.85131 1.0373 
4.56105 -5.8507 1.13749 
4.46022 -5.84755 1.16018 
4.3318 -5.83743 1.06617 
4.22912 -5.83499 1.10485 
4.10634 -5.82364 0.9813 
3.99758 -5.82613 1.12458 
3.8661 -5.82717 1.25794 
3.76855 -5.81606 1.11767 
3.6374 -5.8161 1.23075 
3.53603 -5.80928 1.1801 
3.409 -5.80378 1.17795 
3.30174 -5.80686 1.33177 
3.17422 -5.79847 1.27195 
3.07052 -5.79478 1.28643 
2.94536 -5.78794 1.25585 
2.84434 -5.78134 1.20939 
2.71817 -5.77638 1.2174 
2.61556 -5.77002 1.17714 
2.48886 -5.76518 1.18826 
2.38494 -5.76266 1.22636 
2.25597 -5.76023 1.2879 
2.15311 -5.75794 1.32983 
2.02648 -5.74561 1.18992 
1.91997 -5.75201 1.41011 
1.79016 -5.75815 1.64491 
1.68808 -5.75137 1.5958 
1.562 -5.73359 1.34569 
1.45797 -5.74093 1.58267 
1.32797 -5.74039 1.68304 
1.22229 -5.74213 1.80862 
1.09727 -5.74456 1.96469 
0.990468 -5.74543 2.07367 
0.636741 -5.73341 2.13467 
0.534749 -5.73489 2.25197 
0.403646 -5.73289 2.32394 
0.301975 -5.73283 2.40988 
0.171629 -5.74481 2.76306 
0.0733461 -5.73232 2.59558 
-1.48243 -5.38831 -3.00046 
-1.59042 -5.38495 -2.97568 
-1.72051 -5.38078 -2.94806 
-1.82549 -5.38317 -2.8098 
-1.95715 -5.37388 -2.88402 
-2.06665 -5.36199 -3.02963 
-2.20295 -5.35538 -3.04607 
-2.31267 -5.33532 -3.35598 
-2.44535 -5.32192 -3.51216 
-2.54927 -5.32031 -3.45548 
-2.68787 -5.31719 -3.39938 
-2.79949 -5.30205 -3.60865 
-2.93162 -5.29573 -3.62254 
-3.04413 -5.28171 -3.80857 
-3.17158 -5.28644 -3.60382 
-3.27988 -5.27447 -3.75194 
-3.42034 -5.26085 -3.90594 
-3.52296 -5.26207 -3.79322 
-3.67148 -5.23904 -4.12972 
5.78808 -5.69636 -2.25615 
5.66294 -5.68008 -2.47561 
4.80152 -5.81109 0.878876 
4.57404 -5.80197 0.889912 
4.4636 -5.8023 0.990466 
4.34012 -5.79329 0.915337 
4.2337 -5.7986 1.11212 
4.11305 -5.78176 0.877893 
4.00124 -5.78838 1.10545 
3.86691 -5.79187 1.2897 
3.76799 -5.78404 1.21721 
3.64149 -5.77493 1.14247 
3.5348 -5.77643 1.2635 
3.41298 -5.76561 1.15059 
3.31175 -5.76203 1.16511 
3.17601 -5.76371 1.31442 
3.07251 -5.75799 1.28803 
2.94828 -5.75173 1.26849 
2.84595 -5.74518 1.2247 
2.71663 -5.74614 1.35391 
2.61394 -5.7397 1.31255 
2.48938 -5.73222 1.26891 
2.38813 -5.71765 1.06352 
2.25833 -5.71554 1.13193 
2.15166 -5.71618 1.23559 
2.02681 -5.71184 1.25516 
1.92279 -5.70828 1.27263 
1.79621 -5.71127 1.44025 
1.69044 -5.7086 1.47708 
1.55905 -5.70525 1.52198 
1.45963 -5.70817 1.66512 
1.33079 -5.70413 1.69398 
1.22192 -5.71026 1.90964 
1.09762 -5.70436 1.8974 
0.995814 -5.70177 1.93244 
0.638099 -5.69543 2.11049 
0.536216 -5.69757 2.24022 
0.405227 -5.70099 2.4204 
0.302924 -5.70484 2.58473 
0.177011 -5.69765 2.54811 
0.0757009 -5.6909 2.49949 
-1.481 -5.34739 -3.04926 
-1.58544 -5.35362 -2.8355 
-1.71822 -5.33894 -3.01608 
-1.82467 -5.33524 -2.99924 
-1.95846 -5.32798 -3.03039 
-2.06884 -5.31359 -3.22438 
-2.19853 -5.31595 -3.06642 
-2.30537 -5.3099 -3.09629 
-2.44144 -5.28819 -3.41482 
-2.54561 -5.2938 -3.21362 
-2.687 -5.27965 -3.37613 
-2.79284 -5.27066 -3.46584 
-2.92781 -5.26625 -3.43886 
-3.03783 -5.24978 -3.6746 
-3.17465 -5.23574 -3.83895 
-3.27772 -5.23742 -3.71725 
-3.41783 -5.219 -3.96638 
-3.51935 -5.23 -3.65937 
-3.6633 -5.20433 -4.05052 
-3.77924 -5.18804 -4.27752 
5.8023 -5.64774 -2.48125 
4.80461 -5.77833 0.960439 
4.69364 -5.78192 1.12579 
4.57277 -5.76653 0.92201 
4.46526 -5.76652 1.01273 
4.34061 -5.76002 0.989054 
4.23809 -5.75556 0.987194 
4.10443 -5.75559 1.10105 
4.00234 -5.7534 1.144 
3.87343 -5.75145 1.21447 
3.77201 -5.74617 1.19534 
3.54141 -5.73568 1.18209 
3.41201 -5.73059 1.19042 
3.31237 -5.72325 1.12891 
3.18219 -5.71941 1.16278 
3.07491 -5.72196 1.30452 
2.95138 -5.71439 1.25847 
2.84571 -5.71201 1.30084 
2.6149 -5.70019 1.26125 
2.49159 -5.69594 1.28126 
2.38533 -5.69163 1.28576 
2.26091 -5.68331 1.2257 
2.15349 -5.68382 1.32687 
2.02757 -5.68024 1.36255 
1.92143 -5.67988 1.44523 
1.79209 -5.6806 1.56927 
1.69233 -5.67325 1.50768 
1.5619 -5.66739 1.50183 
1.46243 -5.66862 1.61057 
1.33107 -5.67479 1.84472 
1.22736 -5.66257 1.68975 
1.10413 -5.66639 1.87025 
0.994851 -5.67046 2.04385 
0.537282 -5.65987 2.22153 
0.405551 -5.67067 2.54818 
0.306272 -5.65979 2.41594 
0.177751 -5.64856 2.30157 
0.0791832 -5.64274 2.2695 
-1.34251 -5.32983 -2.74896 
-1.47474 -5.31425 -2.94662 
-1.58336 -5.31073 -2.92455 
-1.71124 -5.3191 -2.6494 
-1.82649 -5.28243 -3.28114 
-2.0653 -5.27713 -3.18369 
-2.19769 -5.28103 -2.99369 
-2.30178 -5.27416 -3.04196 
-2.43764 -5.25242 -3.35904 
-2.55094 -5.24054 -3.49916 
-2.68698 -5.23714 -3.45136 
-2.79095 -5.23248 -3.45564 
-3.03984 -5.20227 -3.84531 
-3.17162 -5.19389 -3.90006 
-3.27881 -5.19256 -3.83545 
-3.41658 -5.1871 -3.82692 
-3.51969 -5.18878 -3.706 
-3.65862 -5.17174 -3.92684 
-3.7716 -5.15717 -4.12079 
5.91738 -5.60032 -2.76483 
5.80901 -5.60282 -2.62413 
5.66513 -5.60755 -2.40959 
5.57245 -5.59314 -2.61649 
5.43691 -5.58735 -2.61673 
4.57435 -5.73129 0.95519 
4.47288 -5.72709 0.9576 
4.33614 -5.73254 1.18061 
4.24535 -5.71813 0.972351 
4.10967 -5.71266 0.978468 
4.01013 -5.70865 0.983239 
3.88486 -5.70147 0.946917 
3.76802 -5.71559 1.32461 
3.64683 -5.70181 1.15434 
3.54112 -5.69723 1.15289 
3.42007 -5.68587 1.03048 
3.31519 -5.68767 1.15454 
3.18452 -5.68395 1.19115 
3.08198 -5.67475 1.09566 
2.955 -5.6744 1.19594 
2.85095 -5.67221 1.24036 
2.71916 -5.66978 1.30357 
2.61809 -5.66551 1.30432 
2.49182 -5.65921 1.28637 
2.39253 -5.64777 1.14397 
2.26151 -5.64624 1.22432 
2.15696 -5.64978 1.38253 
2.02914 -5.64366 1.36926 
1.92119 -5.6457 1.5008 
1.794 -5.64327 1.56013 
1.69434 -5.63662 1.51279 
1.56431 -5.63233 1.53776 
1.46399 -5.62736 1.52412 
1.33323 -5.63717 1.82845 
1.22412 -5.63152 1.80882 
1.10547 -5.63428 1.96359 
0.99805 -5.62809 1.93193 
0.639024 -5.62034 2.08185 
0.538618 -5.6264 2.28647 
0.407961 -5.62464 2.36194 
0.306535 -5.63801 2.7121 
0.178874 -5.6173 2.41029 
0.0804761 -5.60297 2.21012 
-1.23192 -5.29544 -2.76198 
-1.34036 -5.29022 -2.77342 
-1.47411 -5.27233 -3.01421 
-1.58134 -5.26763 -3.01645 
-1.71233 -5.26509 -2.95611 
-1.8218 -5.26454 -2.87434 
-2.06692 -5.22452 -3.45864 
-2.20154 -5.22591 -3.31722 
-2.30282 -5.22421 -3.26538 
-2.43852 -5.20874 -3.45649 
-2.54568 -5.20793 -3.38202 
-2.68446 -5.19783 -3.46433 
-2.77759 -5.21708 -3.00501 
-3.03483 -5.17033 -3.71198 
-3.16764 -5.16395 -3.72582 
-3.27609 -5.15496 -3.81176 
-3.40692 -5.16478 -3.50696 
-3.52023 -5.14597 -3.78305 
-3.63657 -5.17429 -3.12459 
6.07046 -5.55196 -3.09542 
5.83676 -5.53994 -3.13575 
5.58655 -5.54329 -2.86028 
5.42061 -5.56772 -2.24144 
5.33556 -5.54649 -2.58718 
5.17875 -5.56229 -2.14537 
4.34404 -5.68549 0.975109 
4.24164 -5.68212 0.994727 
4.11299 -5.67697 1.00152 
4.01134 -5.67132 0.97574 
3.88336 -5.66573 0.973387 
3.7731 -5.67174 1.18385 
3.64659 -5.66607 1.17865 
3.54535 -5.65987 1.14192 
3.41475 -5.65862 1.22683 
3.31631 -5.6534 1.20689 
3.18577 -5.64891 1.22824 
3.08276 -5.64009 1.14152 
2.95413 -5.63963 1.2404 
2.84882 -5.63979 1.33201 
2.71957 -5.63697 1.38497 
2.62088 -5.62913 1.31381 
2.49317 -5.62382 1.31676 
2.39255 -5.61701 1.26746 
2.26391 -5.61134 1.264 
2.16589 -5.60453 1.21248 
2.03043 -5.60638 1.36259 
1.92567 -5.60425 1.4087 
1.69504 -5.60169 1.55225 
1.56458 -5.60095 1.64721 
1.46125 -5.59853 1.68657 
1.33446 -5.60125 1.84649 
1.23149 -5.58826 1.67773 
1.104 -5.60165 2.04792 
0.999441 -5.59295 1.96492 
0.773805 -5.59408 2.17677 
0.641404 -5.58426 2.09492 
0.540647 -5.58444 2.18325 
0.409113 -5.58819 2.36738 
0.308235 -5.59538 2.59351 
0.184521 -5.56947 2.18843 
0.0807408 -5.57046 2.29499 
-1.23282 -5.25625 -2.77533 
-1.34076 -5.2476 -2.85457 
-1.47293 -5.24013 -2.89037 
-1.57952 -5.23421 -2.91696 
-1.70836 -5.23584 -2.77669 
-1.81983 -5.22164 -2.96194 
-1.95626 -5.19872 -3.29769 
-2.06216 -5.19767 -3.22914 
-2.19885 -5.18596 -3.34436 
-2.301 -5.18646 -3.24851 
-2.44087 -5.16529 -3.54689 
-2.54153 -5.1742 -3.28715 
-2.68259 -5.159 -3.46718 
-2.78368 -5.15963 -3.36971 
-3.03405 -5.12946 -3.75205 
-3.1648 -5.1345 -3.54283 
-3.27675 -5.11049 -3.92066 
-3.42136 -5.09249 -4.15275 
-3.52458 -5.09127 -4.08977 
-3.65493 -5.08922 -4.02038 
5.92227 -5.5254 -2.7454 
5.83118 -5.51009 -2.96844 
5.43008 -5.52428 -2.35686 
5.3494 -5.49946 -2.77427 
5.18079 -5.52473 -2.14028 
5.08971 -5.50815 -2.38807 
4.24818 -5.64326 0.952717 
4.11027 -5.64746 1.1499 
4.01005 -5.63887 1.0659 
3.8865 -5.62963 0.988602 
3.78085 -5.62771 1.03927 
3.65309 -5.62503 1.09364 
3.54553 -5.62381 1.15966 
3.41849 -5.62019 1.19505 
3.31649 -5.61801 1.23771 
3.18734 -5.61131 1.21473 
3.08637 -5.60565 1.1885 
2.95697 -5.59835 1.15415 
2.84361 -5.61515 1.57702 
2.72103 -5.60114 1.40577 
2.6239 -5.59239 1.31598 
2.49199 -5.58969 1.37354 
2.39197 -5.58166 1.30023 
2.26484 -5.57729 1.32117 
2.1606 -5.57987 1.4587 
2.02871 -5.5756 1.48549 
1.92864 -5.56481 1.35854 
1.79402 -5.57628 1.69497 
1.7003 -5.56019 1.45905 
1.56849 -5.55548 1.47723 
1.46636 -5.55302 1.51458 
1.33736 -5.56114 1.78111 
1.23274 -5.55713 1.79036 
1.10558 -5.56173 1.98656 
1.00175 -5.55466 1.93513 
0.772859 -5.55656 2.16377 
0.641104 -5.5489 2.12436 
0.542034 -5.54986 2.22591 
0.410203 -5.54744 2.28899 
0.312655 -5.54178 2.26009 
0.186512 -5.53569 2.24653 
0.0836702 -5.52795 2.1815 
-1.22884 -5.23101 -2.52034 
-1.3384 -5.20861 -2.86621 
-1.4725 -5.19643 -2.99183 
-1.57891 -5.19474 -2.93586 
-1.70835 -5.18729 -2.97303 
-1.81802 -5.17037 -3.21158 
-1.95067 -5.17899 -2.9323 
-2.05759 -5.16986 -3.02104 
-2.19257 -5.15809 -3.13807 
-2.29893 -5.15352 -3.13825 
-2.43502 -5.13796 -3.32817 
-2.54061 -5.13972 -3.20532 
-2.68334 -5.10846 -3.69648 
-2.7828 -5.12091 -3.37009 
-3.02557 -5.1055 -3.46766 
-3.16863 -5.07857 -3.87404 
-3.27422 -5.07378 -3.8792 
-3.40775 -5.07575 -3.72876 
-3.52596 -5.04929 -4.14661 
-3.65858 -5.052 -3.98265 
-3.77353 -5.03389 -4.24017 
6.04775 -5.502 -2.56502 
5.93953 -5.47506 -2.99801 
5.83347 -5.47027 -3.00307 
5.67062 -5.49337 -2.41956 
5.59223 -5.46362 -2.93189 
5.46275 -5.45759 -2.94163 
5.35368 -5.4582 -2.8392 
5.19941 -5.46944 -2.493 
5.09099 -5.47029 -2.38647 
4.94507 -5.47737 -2.12787 
4.24616 -5.60442 0.918685 
4.12235 -5.5954 0.846582 
4.01855 -5.59652 0.954659 
3.88275 -5.5975 1.08651 
3.78024 -5.59626 1.14759 
3.65317 -5.5916 1.16267 
3.55552 -5.57679 0.956507 
3.42154 -5.57991 1.12849 
3.31766 -5.57518 1.12286 
3.18969 -5.57356 1.19784 
3.08518 -5.57724 1.35627 
2.95547 -5.56878 1.29978 
2.84982 -5.5717 1.44434 
2.62356 -5.55562 1.32043 
2.49507 -5.55142 1.34572 
2.39878 -5.53767 1.15888 
2.2647 -5.54372 1.38794 
2.16442 -5.53511 1.30417 
2.03066 -5.54198 1.54876 
1.92756 -5.53781 1.55357 
1.69911 -5.52462 1.48762 
1.56946 -5.52458 1.59475 
1.46814 -5.51607 1.51395 
1.33914 -5.52556 1.80556 
1.23371 -5.52446 1.87187 
1.10802 -5.52454 1.97804 
1.00201 -5.52332 2.04253 
0.776833 -5.51916 2.14926 
0.646251 -5.50084 1.90231 
0.541557 -5.51198 2.20569 
0.411018 -5.51505 2.37399 
0.31691 -5.50598 2.27623 
0.0866171 -5.4925 2.20642 
-1.09411 -5.17315 -3.0104 
-1.23104 -5.17076 -2.94273 
-1.33399 -5.17237 -2.82582 
-1.47104 -5.15151 -3.11662 
-1.57976 -5.14756 -3.10275 
-1.7086 -5.15121 -2.92457 
-1.81725 -5.14386 -2.97684 
-2.05702 -5.12213 -3.1988 
-2.19357 -5.10424 -3.43251 
-2.30154 -5.10505 -3.32668 
-2.43072 -5.10824 -3.15717 
-2.5453 -5.08084 -3.59359 
-2.67508 -5.08921 -3.32297 
-2.78152 -5.08148 -3.38428 
-3.02427 -5.06683 -3.46646 
-3.16567 -5.04206 -3.82959 
-3.27362 -5.03595 -3.85816 
-3.41414 -5.02279 -3.99653 
-3.51234 -5.03154 -3.74476 
-3.66103 -5.00604 -4.11592 
-3.765 -5.00042 -4.13849 
6.17676 -5.45149 -2.91292 
5.95036 -5.42837 -3.17195 
5.82886 -5.43854 -2.87547 
5.5778 -5.44134 -2.61419 
5.44639 -5.44008 -2.52981 
5.34187 -5.43308 -2.5786 
5.2011 -5.43398 -2.44497 
5.095 -5.4309 -2.41667 
4.94195 -5.44342 -2.04862 
4.83211 -5.4431 -1.96407 
4.0167 -5.56227 1.0095 
3.88733 -5.55673 1.00961 
3.78717 -5.55261 1.0131 
3.65601 -5.55064 1.08357 
3.55136 -5.54661 1.09236 
3.42919 -5.53646 0.997581 
3.32197 -5.53654 1.0879 
3.19491 -5.53071 1.08056 
3.08566 -5.53672 1.28692 
2.95885 -5.5279 1.2216 
2.8523 -5.52868 1.32488 
2.62227 -5.52022 1.352 
2.49891 -5.51345 1.32347 
2.39803 -5.50674 1.27757 
2.26867 -5.50446 1.34059 
2.16672 -5.50326 1.40194 
2.0355 -5.49873 1.42322 
1.93362 -5.49133 1.36471 
1.69773 -5.49309 1.59398 
1.57352 -5.47959 1.43644 
1.4693 -5.4864 1.65411 
1.34075 -5.48532 1.73979 
1.24221 -5.47605 1.64257 
1.1084 -5.48591 1.94362 
1.0067 -5.47461 1.80983 
0.780627 -5.4649 1.80976 
0.648657 -5.47621 2.13739 
0.549516 -5.4658 2.01864 
0.415712 -5.46762 2.16452 
0.317335 -5.45672 2.03587 
0.190376 -5.45527 2.11296 
-1.09043 -5.15701 -2.58115 
-1.22645 -5.13837 -2.82828 
-1.3311 -5.14455 -2.62219 
-1.46714 -5.12775 -2.83365 
-1.57997 -5.10839 -3.1136 
-1.70295 -5.12231 -2.74308 
-1.81927 -5.09051 -3.26022 
-2.0545 -5.08108 -3.24714 
-2.29696 -5.06681 -3.32148 
-2.42949 -5.06414 -3.26311 
-2.54466 -5.04454 -3.54582 
-2.67602 -5.04008 -3.52297 
-2.7835 -5.03309 -3.5687 
-2.9157 -5.02634 -3.5894 
-3.0307 -5.00457 -3.91414 
-3.16406 -5.00121 -3.86832 
-3.27033 -4.99798 -3.84253 
-3.40426 -4.99329 -3.82175 
-3.5188 -4.97375 -4.1039 
-3.65728 -4.97157 -4.03107 
-3.76392 -4.9594 -4.17746 
6.06424 -5.41395 -2.80966 
5.92777 -5.41189 -2.73712 
5.83923 -5.39364 -3.0142 
5.58741 -5.39823 -2.71914 
5.45643 -5.39157 -2.73928 
5.34908 -5.38977 -2.68539 
5.19468 -5.40338 -2.29743 
5.08628 -5.40123 -2.24948 
4.95039 -5.40129 -2.13661 
4.85598 -5.38282 -2.41313 
3.88792 -5.51721 0.961032 
3.78487 -5.51903 1.08077 
3.65638 -5.51587 1.12606 
3.55707 -5.50683 1.03436 
3.42821 -5.50026 1.01457 
3.32525 -5.49656 1.02836 
3.19613 -5.49363 1.07857 
3.09036 -5.49545 1.20059 
2.96524 -5.48299 1.06463 
2.86027 -5.48655 1.21939 
2.7318 -5.48051 1.20933 
2.62765 -5.47846 1.25586 
2.49961 -5.4736 1.26811 
2.39645 -5.46943 1.2731 
2.27294 -5.46601 1.30938 
2.1688 -5.46414 1.35932 
2.03871 -5.4598 1.38327 
1.93414 -5.46135 1.49918 
1.70092 -5.44955 1.46503 
1.5703 -5.45393 1.65679 
1.47146 -5.4423 1.5151 
1.34502 -5.44267 1.62649 
1.23822 -5.44958 1.847 
1.10952 -5.45001 1.96145 
1.00811 -5.44171 1.8859 
0.776671 -5.44464 2.13299 
0.650267 -5.4327 2.00808 
0.54986 -5.42733 1.98789 
0.417819 -5.43133 2.17347 
0.318539 -5.43049 2.23924 
0.188351 -5.43807 2.49214 
-0.986048 -5.11894 -2.6608 
-1.08848 -5.10736 -2.79849 
-1.22765 -5.0835 -3.14128 
-1.33552 -5.07675 -3.18176 
-1.46838 -5.06749 -3.24978 
-1.57775 -5.07695 -2.97806 
-1.70294 -5.07534 -2.90563 
-1.81681 -5.06554 -2.99971 
-1.94395 -5.05644 -3.06923 
-2.05296 -5.04401 -3.21772 
-2.18672 -5.03574 -3.26595 
-2.29286 -5.0387 -3.1217 
-2.43049 -5.02214 -3.32572 
-2.53681 -5.01882 -3.30162 
-2.67347 -5.0027 -3.49799 
-2.78395 -4.99366 -3.58018 
-3.02453 -4.98165 -3.61201 
-3.16074 -4.96988 -3.72531 
-3.27118 -4.94974 -4.02039 
-3.41579 -4.93574 -4.1696 
-3.51238 -4.94056 -3.99742 
-3.64778 -4.94424 -3.815 
-3.76711 -4.91403 -4.296 
-9.03535 -4.74472 -3.18656 
5.93489 -5.36928 -2.82955 
5.84626 -5.35071 -3.11101 
5.69022 -5.36729 -2.66736 
5.58681 -5.3634 -2.65691 
5.45851 -5.35445 -2.72237 
5.34529 -5.35747 -2.57211 
5.19183 -5.36859 -2.23449 
5.08961 -5.36097 -2.29624 
4.94245 -5.37402 -1.92683 
4.8633 -5.34221 -2.46845 
4.61374 -5.34628 -2.1866 
4.47932 -5.34465 -2.10741 
3.78395 -5.48714 1.17893 
3.55092 -5.48286 1.2883 
3.423 -5.47345 1.21372 
3.3294 -5.45463 0.93159 
3.19829 -5.45859 1.11463 
3.09007 -5.46202 1.26881 
2.97105 -5.44389 1.02072 
2.86268 -5.44733 1.17515 
2.73446 -5.44549 1.24532 
2.62907 -5.44204 1.2659 
2.50086 -5.44091 1.34953 
2.39905 -5.43059 1.23628 
2.27029 -5.42927 1.31668 
2.17178 -5.42676 1.34969 
2.04037 -5.42647 1.45181 
1.93682 -5.42406 1.49081 
1.80378 -5.42661 1.64867 
1.70397 -5.41687 1.54483 
1.57485 -5.41299 1.57683 
1.46818 -5.4186 1.77139 
1.3435 -5.41536 1.8118 
1.24015 -5.40857 1.76719 
1.10776 -5.41479 1.99442 
1.00726 -5.41379 2.0579 
0.784223 -5.39952 1.96876 
0.654441 -5.39887 2.06302 
0.55184 -5.38324 1.84917 
0.422031 -5.38741 2.03516 
0.193306 -5.38495 2.17604 
-0.848237 -5.07073 -2.96058 
-0.980457 -5.0784 -2.70561 
-1.08606 -5.06825 -2.81257 
-1.22024 -5.05823 -2.89334 
-1.33 -5.06244 -2.72299 
-1.46392 -5.04431 -2.9586 
-1.57712 -5.03497 -3.04384 
-1.70368 -5.0293 -3.04797 
-1.80773 -5.0359 -2.83664 
-1.93951 -5.02988 -2.84309 
-2.05183 -5.00655 -3.1958 
-2.18282 -5.00143 -3.18583 
-2.2926 -4.99362 -3.24451 
-2.42819 -4.98925 -3.21646 
-2.53649 -4.98218 -3.26221 
-2.67014 -4.96617 -3.4577 
-2.78047 -4.95866 -3.51029 
-3.02144 -4.94538 -3.56535 
-3.15848 -4.9337 -3.67551 
-3.2694 -4.91623 -3.91746 
-3.40782 -4.90381 -4.04061 
-3.50816 -4.90938 -3.85192 
-3.65052 -4.89522 -4.00483 
-3.76498 -4.87526 -4.29139 
6.20219 -5.31937 -3.27113 
6.10053 -5.31372 -3.29541 
5.92869 -5.33884 -2.67952 
5.83594 -5.32447 -2.87632 
5.69475 -5.32867 -2.68165 
5.59192 -5.32306 -2.70417 
5.4589 -5.31774 -2.69672 
5.34448 -5.32305 -2.50282 
5.20846 -5.31747 -2.49765 
5.0956 -5.32185 -2.32271 
4.9562 -5.32271 -2.19276 
4.85352 -5.314 -2.27425 
4.61277 -5.31205 -2.11494 
4.47934 -5.31414 -1.9664 
4.37537 -5.30437 -2.06682 
4.2324 -5.30743 -1.89236 
3.3257 -5.42708 1.11516 
3.19855 -5.42416 1.16365 
3.09933 -5.42072 1.17927 
2.96873 -5.40641 1.01476 
2.86917 -5.4027 1.02571 
2.63412 -5.40161 1.19686 
2.50855 -5.40115 1.29065 
2.40109 -5.39705 1.30069 
2.27509 -5.38842 1.2399 
2.1749 -5.38284 1.21612 
2.03886 -5.39527 1.56272 
1.93818 -5.38769 1.5013 
1.70474 -5.38367 1.61579 
1.57667 -5.37898 1.63144 
1.47584 -5.36963 1.53648 
1.3453 -5.376 1.76393 
1.24087 -5.37405 1.81228 
1.11547 -5.37203 1.87631 
1.01171 -5.36802 1.88518 
0.785169 -5.36607 2.03322 
0.659282 -5.35357 1.89918 
0.554071 -5.35831 2.07497 
-0.739447 -5.06203 -2.48423 
-0.848458 -5.0538 -2.55111 
-0.977509 -5.03958 -2.71522 
-1.08486 -5.0433 -2.55683 
-1.22022 -5.0214 -2.86128 
-1.32758 -5.01166 -2.95832 
-1.45954 -5.00903 -2.90024 
-1.57124 -4.99949 -2.98968 
-1.70465 -4.99363 -2.99171 
-1.80674 -4.99727 -2.83926 
-1.94344 -4.96802 -3.28204 
-2.05079 -4.96643 -3.22436 
-2.18329 -4.96264 -3.18776 
-2.28959 -4.95787 -3.19126 
-2.42683 -4.94103 -3.39817 
-2.52692 -4.95507 -3.0502 
-2.66405 -4.94503 -3.12833 
-2.7831 -4.91052 -3.68526 
-2.90779 -4.91439 -3.50979 
-3.01968 -4.90486 -3.59891 
-3.15719 -4.88767 -3.8123 
-3.26814 -4.8773 -3.9181 
-3.40685 -4.86472 -4.04308 
-3.50718 -4.86615 -3.93398 
-3.66173 -4.83526 -4.39314 
-3.7609 -4.83721 -4.27497 
5.9517 -5.27946 -3.10003 
5.84327 -5.27917 -3.01755 
5.59428 -5.28554 -2.69567 
5.45472 -5.28674 -2.55985 
5.34999 -5.27942 -2.61279 
5.20935 -5.28149 -2.45972 
5.11286 -5.26882 -2.62018 
4.94879 -5.29649 -1.96583 
4.85561 -5.27699 -2.25754 
4.61755 -5.27088 -2.17941 
4.47998 -5.27773 -1.93875 
4.38238 -5.26008 -2.19212 
4.2355 -5.26694 -1.94355 
4.13064 -5.26366 -1.92019 
3.98666 -5.27333 -1.62117 
2.86002 -5.38638 1.4241 
2.63749 -5.36025 1.11255 
2.51172 -5.36274 1.2617 
2.40444 -5.35273 1.16018 
2.27281 -5.36145 1.43159 
2.17391 -5.3564 1.4168 
2.04089 -5.356 1.51725 
1.94081 -5.34625 1.41491 
1.7093 -5.33829 1.45319 
1.58121 -5.33742 1.54091 
1.48066 -5.32647 1.41634 
1.35001 -5.33303 1.64621 
1.24229 -5.33053 1.68675 
1.11566 -5.33468 1.86794 
1.01256 -5.33499 1.95745 
0.78633 -5.32336 1.9223 
0.657105 -5.31668 1.90162 
0.556197 -5.30925 1.84369 
-0.737327 -5.00914 -2.75954 
-0.849857 -5.00166 -2.80898 
-0.980086 -4.98809 -2.95886 
-1.08308 -4.99827 -2.68303 
-1.21718 -4.99157 -2.70016 
-1.3255 -4.96693 -3.07654 
-1.45536 -4.97881 -2.74696 
-1.56802 -4.95675 -3.07095 
-1.70489 -4.95102 -3.06758 
-1.80741 -4.95158 -2.97348 
-1.93795 -4.95023 -2.89275 
-2.04543 -4.94324 -2.9369 
-2.18393 -4.91932 -3.27495 
-2.28901 -4.90813 -3.40027 
-2.53595 -4.88643 -3.60818 
-2.66496 -4.89983 -3.25064 
-2.77852 -4.87575 -3.61202 
-2.90579 -4.87595 -3.50457 
-3.01886 -4.85942 -3.72401 
-3.1589 -4.83972 -3.98123 
-3.26992 -4.82872 -4.09808 
-3.4099 -4.81935 -4.16061 
-3.50873 -4.82145 -4.04062 
-3.65516 -4.80615 -4.20967 
5.95024 -5.24387 -3.05035 
5.83704 -5.24958 -2.85201 
5.58133 -5.26067 -2.43775 
5.45843 -5.24543 -2.62411 
5.3514 -5.23882 -2.6614 
5.19476 -5.26162 -2.10784 
5.10594 -5.24029 -2.43573 
4.97511 -5.22907 -2.54017 
4.85313 -5.2438 -2.16584 
4.62266 -5.22819 -2.27202 
4.47814 -5.24301 -1.8777 
4.37864 -5.22902 -2.05932 
4.23881 -5.2295 -1.93725 
4.13583 -5.22572 -1.92487 
4.00225 -5.22124 -1.9009 
3.89225 -5.22692 -1.70548 
2.86848 -5.33849 1.21219 
2.64063 -5.32181 1.08421 
2.51501 -5.3223 1.19494 
2.40749 -5.31337 1.11467 
2.27748 -5.31641 1.27671 
2.17519 -5.31375 1.30971 
2.04786 -5.30912 1.32599 
1.94641 -5.30767 1.38091 
1.7128 -5.29674 1.36511 
1.57958 -5.30168 1.56554 
1.48052 -5.29612 1.54168 
1.34962 -5.29696 1.66335 
1.24708 -5.29919 1.7881 
1.11744 -5.30123 1.9313 
1.01684 -5.28881 1.77998 
0.790441 -5.28124 1.82153 
0.660013 -5.2768 1.84392 
0.556172 -5.2792 1.97286 
-0.498527 -4.99203 -2.55312 
-0.735408 -4.98058 -2.57585 
-0.84632 -4.97276 -2.63248 
-0.975402 -4.96528 -2.66811 
-1.0808 -4.95795 -2.72005 
-1.21832 -4.94354 -2.87865 
-1.32496 -4.94382 -2.78698 
-1.46011 -4.91693 -3.18131 
-1.56748 -4.92375 -2.96648 
-1.69634 -4.9254 -2.8312 
-1.8067 -4.90344 -3.15323 
-1.93749 -4.91664 -2.79993 
-2.0457 -4.89704 -3.07946 
-2.17851 -4.88577 -3.18289 
-2.28611 -4.88091 -3.18676 
-2.52008 -4.88892 -2.84698 
-2.6668 -4.84141 -3.61824 
-2.76693 -4.86445 -3.10536 
-2.90155 -4.85063 -3.25519 
-3.01254 -4.83418 -3.47349 
-3.15807 -4.79862 -4.0217 
-3.26624 -4.79522 -3.9977 
-3.40106 -4.79539 -3.88518 
-3.50975 -4.77603 -4.1599 
-3.64329 -4.78111 -3.95641 
-3.76836 -4.7487 -4.46231 
5.97275 -5.19059 -3.34966 
5.84756 -5.20432 -2.99352 
5.61916 -5.18959 -3.08436 
5.45808 -5.20755 -2.62034 
5.35105 -5.20526 -2.57706 
5.21256 -5.20854 -2.40467 
5.10235 -5.20936 -2.30078 
4.965 -5.20422 -2.28596 
4.60815 -5.20828 -1.92348 
4.48629 -5.19586 -2.05675 
4.38897 -5.18303 -2.21737 
4.23771 -5.19193 -1.92992 
4.14233 -5.18531 -1.97652 
3.99969 -5.18959 -1.78192 
3.89439 -5.18653 -1.75433 
3.63976 -5.19585 -1.37581 
3.52123 -5.17994 -1.5766 
3.29071 -5.16022 -1.75841 
2.41267 -5.27014 0.995799 
2.28107 -5.27911 1.26893 
2.17512 -5.28094 1.38818 
2.04871 -5.27242 1.33149 
1.9448 -5.27836 1.52575 
1.71447 -5.26398 1.44338 
1.58452 -5.26047 1.48274 
1.48336 -5.25354 1.43526 
1.35385 -5.24908 1.45657 
1.24818 -5.26219 1.78577 
1.12004 -5.26773 1.99222 
1.01799 -5.25363 1.81185 
0.788676 -5.24628 1.8598 
-0.497512 -4.95794 -2.47409 
-0.604221 -4.93408 -2.83257 
-0.733193 -4.93591 -2.69435 
-0.842264 -4.9305 -2.70715 
-0.974453 -4.9365 -2.48881 
-1.07743 -4.91607 -2.78631 
-1.21524 -4.91172 -2.75619 
-1.32112 -4.89954 -2.89771 
-1.45812 -4.8867 -3.02645 
-1.56342 -4.88551 -2.96357 
-1.69631 -4.87355 -3.07926 
-1.80167 -4.87644 -2.9404 
-2.04331 -4.85976 -3.05619 
-2.17878 -4.83969 -3.32072 
-2.2831 -4.84293 -3.17624 
-2.4157 -4.83188 -3.27514 
-2.52812 -4.82625 -3.28924 
-2.66129 -4.81752 -3.34439 
-2.77155 -4.81149 -3.36775 
-3.01156 -4.79002 -3.57396 
-3.1527 -4.77757 -3.69193 
-3.25593 -4.78152 -3.53502 
-3.39779 -4.75284 -3.95481 
-3.50383 -4.74589 -3.99869 
-3.6367 -4.74816 -3.8491 
-3.7612 -4.71848 -4.30146 
6.2065 -5.17002 -3.20918 
5.95491 -5.17218 -2.9679 
5.83195 -5.18458 -2.64 
5.69115 -5.18515 -2.5168 
5.58408 -5.18456 -2.44216 
5.463 -5.16912 -2.63103 
5.35943 -5.16164 -2.68675 
5.19559 -5.18766 -2.07381 
5.10958 -5.16342 -2.45382 
4.96593 -5.16766 -2.26035 
4.86902 -5.15729 -2.37477 
4.73856 -5.15241 -2.36057 
4.5975 -5.18361 -1.67006 
4.47371 -5.17288 -1.76954 
4.3972 -5.13336 -2.44004 
4.2453 -5.14776 -2.05181 
4.14291 -5.14781 -1.9688 
4.00047 -5.15132 -1.78969 
3.8953 -5.1477 -1.77247 
3.75597 -5.15118 -1.59645 
3.64448 -5.15346 -1.4649 
3.52138 -5.14287 -1.56242 
3.41403 -5.13879 -1.55197 
3.29313 -5.12222 -1.76188 
2.41325 -5.23702 1.06921 
2.28688 -5.23952 1.21687 
2.18479 -5.23221 1.16342 
2.04783 -5.2377 1.37479 
1.94791 -5.23676 1.43751 
1.71518 -5.23267 1.54847 
1.58631 -5.2233 1.4783 
1.48387 -5.22649 1.61958 
1.35595 -5.2198 1.59837 
1.25048 -5.22573 1.79266 
1.12292 -5.2244 1.87045 
1.02096 -5.21507 1.77939 
0.79085 -5.2152 1.96652 
-0.49416 -4.90699 -2.70993 
-0.602644 -4.89567 -2.83259 
-0.733314 -4.91145 -2.43545 
-0.840108 -4.88893 -2.7668 
-0.976204 -4.8825 -2.7765 
-1.07448 -4.88705 -2.61347 
-1.2177 -4.86296 -2.94464 
-1.3217 -4.84762 -3.1452 
-1.45525 -4.83735 -3.2281 
-1.56178 -4.83944 -3.10383 
-1.69532 -4.83014 -3.16891 
-1.80423 -4.8211 -3.24885 
-1.93448 -4.83175 -2.94707 
-2.03964 -4.82753 -2.94061 
-2.1749 -4.80532 -3.2433 
-2.2847 -4.7965 -3.31845 
-2.41615 -4.7925 -3.28695 
-2.5255 -4.79051 -3.23607 
-2.6604 -4.78358 -3.25607 
-2.77359 -4.76189 -3.56686 
-2.90258 -4.75839 -3.52804 
-3.00907 -4.75823 -3.4453 
-3.15719 -4.71803 -4.07093 
-3.25937 -4.72816 -3.80121 
-3.38829 -4.72953 -3.67208 
-3.49522 -4.72574 -3.65646 
-3.65098 -4.68626 -4.26252 
-3.76229 -4.6744 -4.3927 
6.19125 -5.14834 -2.8928 
5.95376 -5.13732 -2.90648 
5.83835 -5.14089 -2.7489 
5.69648 -5.14354 -2.58709 
5.59638 -5.13732 -2.62195 
5.45131 -5.14694 -2.32931 
5.34127 -5.14542 -2.26964 
5.22556 -5.12033 -2.6392 
5.11031 -5.12477 -2.4656 
4.97652 -5.12238 -2.40304 
4.86962 -5.11875 -2.38469 
4.74106 -5.1126 -2.39536 
4.62865 -5.11712 -2.22255 
4.49438 -5.11644 -2.12817 
4.39495 -5.10504 -2.25872 
4.24762 -5.11084 -2.03446 
4.15051 -5.10469 -2.07023 
4.00192 -5.11292 -1.80021 
3.89393 -5.11541 -1.66819 
3.76158 -5.11011 -1.6603 
3.65158 -5.11149 -1.54709 
3.52515 -5.10364 -1.59086 
3.4205 -5.09595 -1.64885 
3.29473 -5.08158 -1.81322 
3.19022 -5.08166 -1.72838 
3.0626 -5.0662 -1.91106 
2.94689 -5.0734 -1.68622 
2.42299 -5.18283 0.746557 
2.28414 -5.20768 1.31494 
2.18482 -5.20157 1.28176 
2.05279 -5.19875 1.33524 
1.94693 -5.20065 1.45489 
1.81839 -5.1974 1.49765 
1.7192 -5.18871 1.4168 
1.58677 -5.194 1.62003 
1.48545 -5.19284 1.67945 
1.35325 -5.19682 1.85833 
1.25172 -5.18878 1.79141 
1.12525 -5.1882 1.88184 
1.02165 -5.18106 1.83314 
-0.491113 -4.86996 -2.68658 
-0.601437 -4.86285 -2.7294 
-0.731503 -4.86976 -2.49817 
-0.83658 -4.8514 -2.7522 
-1.0753 -4.84794 -2.62529 
-1.21491 -4.83097 -2.82606 
-1.31401 -4.84035 -2.57409 
-1.45514 -4.80374 -3.13542 
-1.559 -4.80623 -3.00665 
-1.69207 -4.80876 -2.85353 
-1.80421 -4.79139 -3.08373 
-2.03733 -4.78968 -2.92885 
-2.17798 -4.76028 -3.35773 
-2.27881 -4.77198 -3.06167 
-2.4146 -4.75633 -3.2412 
-2.52371 -4.74746 -3.31728 
-2.66235 -4.73008 -3.52644 
-2.76931 -4.72922 -3.45686 
-3.01006 -4.71602 -3.50729 
-3.14529 -4.70028 -3.68905 
-3.25237 -4.70524 -3.51199 
-3.39743 -4.66585 -4.12121 
-3.50341 -4.6641 -4.06867 
5.95724 -5.09546 -2.97752 
5.84877 -5.09426 -2.91341 
5.60896 -5.08844 -2.82987 
5.47105 -5.08947 -2.70169 
5.34788 -5.10046 -2.4028 
5.22008 -5.09098 -2.47492 
5.11094 -5.08765 -2.44939 
4.97683 -5.08725 -2.35027 
4.8738 -5.08239 -2.35743 
4.72867 -5.0944 -2.02244 
4.63274 -5.07555 -2.29131 
4.48261 -5.09216 -1.86821 
4.39039 -5.07591 -2.09249 
4.25187 -5.07196 -2.05468 
4.14707 -5.06899 -2.02596 
4.00782 -5.07441 -1.81609 
3.90048 -5.06822 -1.84421 
3.65683 -5.0688 -1.64016 
3.52062 -5.07365 -1.4431 
3.42459 -5.05792 -1.65479 
3.29991 -5.04343 -1.82109 
3.18841 -5.04437 -1.71527 
3.05618 -5.04288 -1.63747 
2.95608 -5.03451 -1.71129 
2.71151 -5.02958 -1.60712 
2.58492 -5.01519 -1.77004 
2.05039 -5.16777 1.44799 
1.94868 -5.16188 1.42106 
1.71925 -5.15094 1.40305 
1.58833 -5.15114 1.51089 
1.48663 -5.15236 1.61398 
1.3577 -5.14579 1.59638 
1.25589 -5.14354 1.63611 
-0.253482 -4.84241 -2.67651 
-0.356602 -4.8414 -2.613 
-0.488983 -4.82795 -2.75397 
-0.601707 -4.84178 -2.41095 
-0.728645 -4.82502 -2.61684 
-0.833942 -4.81831 -2.6559 
-0.974946 -4.79757 -2.92354 
-1.07424 -4.80106 -2.78046 
-1.21445 -4.78387 -2.98362 
-1.31323 -4.78008 -2.97453 
-1.45167 -4.77768 -2.90823 
-1.55459 -4.76668 -3.0278 
-1.6889 -4.77083 -2.84477 
-1.80191 -4.74412 -3.24394 
-1.92897 -4.74634 -3.10213 
-2.0392 -4.73384 -3.24313 
-2.17656 -4.72015 -3.38461 
-2.27911 -4.72368 -3.23817 
-2.41583 -4.70873 -3.40319 
-2.52552 -4.7016 -3.44623 
-2.65777 -4.69921 -3.38469 
-2.77238 -4.67532 -3.7309 
-2.89724 -4.69165 -3.33241 
-3.01098 -4.66598 -3.71194 
-3.14428 -4.65796 -3.75261 
-3.26378 -4.62915 -4.18496 
-3.39459 -4.63257 -4.01819 
-3.50026 -4.62513 -4.07008 
-3.64763 -4.60744 -4.2767 
6.23437 -5.03726 -3.56098 
5.96536 -5.05379 -3.04795 
5.8515 -5.05694 -2.90069 
5.71235 -5.06232 -2.693 
5.59952 -5.06218 -2.6065 
5.4517 -5.07359 -2.28205 
5.377 -5.03573 -2.91208 
5.23534 -5.04228 -2.68093 
5.11749 -5.04523 -2.5343 
4.97217 -5.0574 -2.19795 
4.8768 -5.04038 -2.43232 
4.7355 -5.05063 -2.13408 
4.63237 -5.04125 -2.22343 
4.4872 -5.0499 -1.95133 
4.37264 -5.05917 -1.692 
4.24848 -5.03806 -1.97808 
4.14947 -5.03498 -1.95593 
4.00999 -5.03411 -1.86153 
3.90215 -5.03571 -1.74709 
3.77254 -5.0289 -1.76859 
3.65953 -5.02974 -1.66391 
3.52499 -5.03132 -1.52887 
3.42226 -5.02643 -1.5365 
3.30511 -5.00662 -1.80447 
3.19121 -5.00716 -1.70459 
3.06082 -4.99724 -1.78207 
2.95998 -4.9933 -1.77397 
2.71913 -4.9822 -1.7856 
2.59245 -4.96939 -1.9185 
2.19155 -5.11396 1.03024 
1.95195 -5.12333 1.39048 
1.7214 -5.11257 1.37704 
1.48804 -5.11169 1.54571 
-0.118237 -4.80278 -2.80587 
-0.251965 -4.80745 -2.61481 
-0.355094 -4.808 -2.52324 
-0.4868 -4.80167 -2.53402 
-0.599802 -4.79241 -2.61322 
-0.726218 -4.80088 -2.35886 
-0.831994 -4.76595 -2.9109 
-0.97169 -4.77186 -2.6927 
-1.07212 -4.76701 -2.70145 
-1.20551 -4.76355 -2.65872 
-1.31191 -4.74379 -2.93416 
-1.44852 -4.73658 -2.95713 
-1.55775 -4.73009 -2.98863 
-1.68886 -4.73272 -2.837 
-1.7995 -4.71799 -3.01743 
-1.9281 -4.71185 -3.02726 
-2.04063 -4.68569 -3.41432 
-2.17199 -4.69176 -3.19975 
-2.2741 -4.69264 -3.1027 
-2.41386 -4.67384 -3.33413 
-2.52011 -4.67504 -3.22808 
-2.65922 -4.65281 -3.52251 
-2.77237 -4.63091 -3.83161 
-2.89576 -4.65058 -3.37553 
-3.01321 -4.61476 -3.93459 
-3.14035 -4.62346 -3.67547 
-3.25594 -4.60245 -3.96616 
-3.39188 -4.59413 -4.00995 
-3.49079 -4.60308 -3.76855 
-3.64499 -4.57041 -4.24095 
6.11272 -5.01152 -3.23771 
5.9421 -5.04037 -2.58153 
5.86864 -5.0024 -3.21094 
5.60489 -5.02265 -2.63714 
5.45551 -5.03214 -2.34805 
5.375 -5.00291 -2.81373 
5.21757 -5.02605 -2.27108 
5.10635 -5.02487 -2.20511 
4.9678 -5.02674 -2.06225 
4.87228 -5.00843 -2.31842 
4.73366 -5.01569 -2.07795 
4.63347 -5.00426 -2.20605 
4.50087 -5.00114 -2.15818 
4.39551 -4.99808 -2.13061 
4.25089 -5.00364 -1.91618 
4.14766 -5.00158 -1.87234 
4.01464 -4.99176 -1.94541 
3.91769 -4.98387 -2.01186 
3.77205 -4.99428 -1.70883 
3.66427 -4.99133 -1.67729 
3.52964 -4.98793 -1.63287 
3.42782 -4.98249 -1.65122 
3.30271 -4.96981 -1.78213 
3.19234 -4.9728 -1.64104 
3.06236 -4.95627 -1.83804 
2.96532 -4.95045 -1.86685 
2.73099 -4.934 -1.98 
2.5939 -4.94026 -1.75879 
2.48852 -4.93265 -1.81348 
0.227293 -4.78789 -2.65175 
0.123321 -4.79357 -2.46697 
-0.0110576 -4.79081 -2.41113 
-0.112187 -4.78409 -2.45299 
-0.248094 -4.76088 -2.76592 
-0.352923 -4.7645 -2.61772 
-0.487234 -4.76795 -2.44939 
-0.596016 -4.74218 -2.83008 
-0.725507 -4.72937 -2.9597 
-0.831342 -4.74363 -2.6182 
-0.966206 -4.74711 -2.44874 
-1.0702 -4.73732 -2.54397 
-1.21026 -4.69773 -3.15023 
-1.31009 -4.71764 -2.71097 
-1.44699 -4.69716 -2.97377 
-1.54767 -4.71571 -2.55849 
-1.68746 -4.69595 -2.80589 
-1.79821 -4.68054 -2.99737 
-2.03667 -4.66446 -3.10041 
-2.27643 -4.64584 -3.24827 
-2.41563 -4.62201 -3.56978 
-2.52312 -4.62088 -3.50541 
-2.65207 -4.62915 -3.25388 
-2.76285 -4.60885 -3.53395 
-3.00357 -4.59653 -3.56689 
-3.13989 -4.58013 -3.7562 
-3.25164 -4.56632 -3.91796 
-3.38734 -4.5564 -3.99044 
-3.50163 -4.53943 -4.20727 
-3.64242 -4.5335 -4.20342 
-3.74974 -4.52156 -4.33483 
6.21965 -4.97633 -3.26674 
5.95247 -4.99359 -2.74698 
5.851 -4.98221 -2.87243 
5.72326 -4.97261 -2.94522 
5.61407 -4.97567 -2.80466 
5.47313 -4.98122 -2.59438 
5.35913 -4.98488 -2.43941 
5.22272 -4.98146 -2.39404 
5.11895 -4.97522 -2.42517 
4.9819 -4.97475 -2.3262 
4.63885 -4.96295 -2.2699 
4.50393 -4.96283 -2.16645 
4.38927 -4.96774 -1.98818 
4.25939 -4.95255 -2.15978 
4.1548 -4.95395 -2.0526 
4.01475 -4.95726 -1.88342 
3.90761 -4.95274 -1.88074 
3.66655 -4.94996 -1.74186 
3.53342 -4.94855 -1.66294 
3.42954 -4.94636 -1.6209 
3.29936 -4.93372 -1.74636 
3.20076 -4.92619 -1.80455 
3.0602 -4.92282 -1.75496 
2.96776 -4.90654 -1.97552 
2.72194 -4.91333 -1.66051 
2.5946 -4.90103 -1.78207 
2.36086 -4.8904 -1.79004 
2.11559 -4.88537 -1.68818 
0.466594 -4.77633 -2.35685 
0.360897 -4.76474 -2.48261 
0.229038 -4.76978 -2.28834 
0.122386 -4.77238 -2.1577 
-0.0096294 -4.74431 -2.55931 
-0.112829 -4.73252 -2.69056 
-0.24591 -4.72618 -2.70018 
-0.355611 -4.70943 -2.91559 
-0.484574 -4.7165 -2.68701 
-0.592663 -4.71269 -2.67082 
-0.723603 -4.7061 -2.6866 
-0.834486 -4.7012 -2.68768 
-0.961078 -4.70383 -2.54084 
-1.06901 -4.6801 -2.88335 
-1.20873 -4.66272 -3.08636 
-1.30977 -4.66172 -3.02494 
-1.44122 -4.66746 -2.81846 
-1.55175 -4.65747 -2.91141 
-1.68722 -4.64178 -3.08739 
-1.79367 -4.65113 -2.83542 
-1.92077 -4.64183 -2.90297 
-2.03495 -4.62122 -3.18427 
-2.16951 -4.61336 -3.22011 
-2.2779 -4.59592 -3.44882 
-2.41095 -4.60005 -3.26986 
-2.51716 -4.59017 -3.36439 
-2.65465 -4.58026 -3.43459 
-2.75772 -4.57876 -3.38066 
-3.00787 -4.542 -3.84571 
-3.24615 -4.53809 -3.72876 
-3.38748 -4.5195 -3.95234 
-3.50181 -4.49982 -4.2167 
6.11561 -4.93352 -3.26752 
5.95765 -4.95041 -2.84207 
5.85969 -4.93839 -2.98101 
5.60885 -4.94363 -2.69159 
5.46549 -4.95425 -2.38985 
5.36739 -4.93808 -2.60283 
5.22549 -4.93999 -2.458 
5.11934 -4.93842 -2.40337 
4.98561 -4.93442 -2.37055 
4.74037 -4.93849 -2.10654 
4.64795 -4.91816 -2.39832 
4.50902 -4.91954 -2.2652 
4.40447 -4.91277 -2.30478 
4.24915 -4.93238 -1.8326 
4.15584 -4.91422 -2.08488 
4.00907 -4.92979 -1.69167 
3.91095 -4.91683 -1.8471 
3.76957 -4.92354 -1.61656 
3.6675 -4.912 -1.74343 
3.54005 -4.90559 -1.75869 
3.43766 -4.90216 -1.74026 
3.31106 -4.89095 -1.84207 
3.19865 -4.89641 -1.65656 
3.06198 -4.88803 -1.69982 
2.96048 -4.87751 -1.80891 
2.83354 -4.87147 -1.81796 
2.7265 -4.86816 -1.79364 
2.59709 -4.86128 -1.81568 
2.4921 -4.85162 -1.90647 
2.36666 -4.84098 -1.99902 
2.26439 -4.8333 -2.05654 
2.12603 -4.83553 -1.90874 
2.01793 -4.84095 -1.72723 
0.710744 -4.74786 -2.37219 
0.603853 -4.73054 -2.59862 
0.468063 -4.72898 -2.5204 
0.361765 -4.74258 -2.19388 
0.232863 -4.72533 -2.40192 
0.125059 -4.71692 -2.46814 
-0.00876202 -4.71053 -2.47796 
-0.109856 -4.70138 -2.56271 
-0.243634 -4.69425 -2.58577 
-0.35354 -4.68214 -2.71652 
-0.482384 -4.68114 -2.63376 
-0.589902 -4.67159 -2.72065 
-0.720101 -4.68368 -2.40237 
-0.829454 -4.65455 -2.83833 
-0.962638 -4.65183 -2.78277 
-1.0671 -4.64473 -2.82821 
-1.20663 -4.62144 -3.13607 
-1.30828 -4.62262 -3.03543 
-1.44139 -4.61764 -3.0203 
-1.54636 -4.62512 -2.80438 
-1.6822 -4.61502 -2.8789 
-1.79157 -4.61293 -2.83074 
-2.02714 -4.60346 -2.81604 
-2.16642 -4.57166 -3.27619 
-2.27584 -4.56314 -3.34307 
-2.40669 -4.55854 -3.32313 
-2.51527 -4.55261 -3.34434 
-2.65297 -4.54612 -3.35275 
-2.75931 -4.53429 -3.48128 
-3.00114 -4.51408 -3.6538 
-3.13999 -4.50551 -3.69845 
-3.24806 -4.49071 -3.87875 
-3.39793 -4.45978 -4.31523 
-3.48957 -4.47843 -3.90966 
-3.62455 -4.48015 -3.77308 
6.21636 -4.9059 -3.15646 
5.96651 -4.90591 -2.96254 
5.85784 -4.90465 -2.9006 
5.61641 -4.90128 -2.77325 
5.46936 -4.91175 -2.47282 
5.35498 -4.9201 -2.23543 
5.23009 -4.90064 -2.48473 
5.1266 -4.89088 -2.57818 
4.97976 -4.90614 -2.19255 
4.88556 -4.88886 -2.42697 
4.62874 -4.90283 -1.97893 
4.495 -4.90325 -1.8674 
4.3878 -4.89972 -1.84698 
4.24844 -4.89902 -1.75114 
4.15828 -4.87835 -2.04908 
4.02218 -4.87916 -1.92886 
3.91901 -4.87434 -1.93457 
3.77719 -4.88109 -1.70416 
3.66921 -4.87786 -1.67771 
3.54294 -4.87049 -1.71073 
3.44124 -4.86134 -1.79456 
3.30791 -4.85879 -1.7364 
3.19634 -4.86111 -1.60828 
3.07159 -4.84215 -1.84877 
2.96506 -4.83702 -1.8573 
2.83437 -4.83414 -1.80697 
2.72933 -4.83071 -1.7863 
2.602 -4.81973 -1.88275 
2.49373 -4.81671 -1.85238 
2.3585 -4.816 -1.75991 
2.25926 -4.80448 -1.88777 
2.13132 -4.79147 -2.01982 
1.89151 -4.78706 -1.91168 
1.66091 -4.76124 -2.19188 
1.4181 -4.75301 -2.1495 
1.18176 -4.73378 -2.3079 
0.841387 -4.71614 -2.35708 
0.713299 -4.70031 -2.53919 
0.606075 -4.68973 -2.64418 
0.469439 -4.69913 -2.37039 
0.365086 -4.6942 -2.37706 
0.233194 -4.67886 -2.54739 
0.125444 -4.67736 -2.49017 
-0.00708323 -4.67213 -2.4801 
-0.113222 -4.64915 -2.80655 
-0.242927 -4.6613 -2.48937 
-0.351531 -4.64265 -2.73687 
-0.480506 -4.63475 -2.7771 
-0.588556 -4.63834 -2.62905 
-0.719291 -4.6242 -2.77885 
-0.824774 -4.62696 -2.64757 
-0.960534 -4.62086 -2.65057 
-1.06524 -4.60871 -2.7853 
-1.20074 -4.58586 -3.08649 
-1.30619 -4.57547 -3.18936 
-1.44057 -4.58663 -2.8859 
-1.54878 -4.57094 -3.08102 
-1.67957 -4.58104 -2.79923 
-1.7905 -4.56267 -3.03992 
-2.02759 -4.55854 -2.92863 
-2.16478 -4.53782 -3.19063 
-2.27328 -4.52184 -3.3906 
-2.40382 -4.51779 -3.36104 
-2.51287 -4.51719 -3.28677 
-2.65179 -4.50429 -3.40811 
-2.76377 -4.48053 -3.74375 
-3.00013 -4.47989 -3.57107 
-3.14009 -4.46105 -3.79732 
-3.24148 -4.46462 -3.65466 
-3.38438 -4.44344 -3.92041 
-3.49174 -4.43815 -3.93095 
-3.62921 -4.42561 -4.04688 
6.11741 -4.85985 -3.21893 
5.95523 -4.88336 -2.67758 
5.84059 -4.88959 -2.47864 
5.62413 -4.85795 -2.87146 
5.47475 -4.86736 -2.58937 
5.36567 -4.86893 -2.47725 
5.2311 -4.86254 -2.48632 
5.11213 -4.87183 -2.23002 
4.98467 -4.86563 -2.24116 
4.88034 -4.85986 -2.26258 
4.74641 -4.86091 -2.14043 
4.63799 -4.85593 -2.14472 
4.50665 -4.85548 -2.05111 
4.40683 -4.84093 -2.23141 
4.26518 -4.84356 -2.07534 
4.15954 -4.84352 -1.99431 
4.04007 -4.82176 -2.28709 
3.92114 -4.83474 -1.96527 
3.77916 -4.84302 -1.70879 
3.67323 -4.83726 -1.72875 
3.54421 -4.83252 -1.71287 
3.44195 -4.82142 -1.83025 
3.31239 -4.81549 -1.83483 
3.20599 -4.81246 -1.80615 
3.07672 -4.80366 -1.86185 
2.97091 -4.79898 -1.86279 
2.83507 -4.80071 -1.72703 
2.73284 -4.78474 -1.93054 
2.60169 -4.78041 -1.9057 
2.50149 -4.77305 -1.95842 
2.36046 -4.7736 -1.83932 
2.26025 -4.76988 -1.82763 
2.12552 -4.77057 -1.71106 
2.02645 -4.74629 -2.06412 
1.89822 -4.7383 -2.10629 
1.78912 -4.73617 -2.05954 
1.6638 -4.72069 -2.23638 
1.55467 -4.71822 -2.19554 
1.4174 -4.72871 -1.90359 
1.321 -4.69458 -2.4331 
1.18693 -4.69029 -2.40522 
1.08082 -4.69064 -2.31668 
0.842529 -4.68293 -2.26861 
0.712625 -4.66797 -2.43272 
0.60563 -4.66227 -2.45068 
0.472069 -4.66228 -2.34706 
0.368467 -4.66611 -2.19893 
0.234586 -4.64873 -2.40284 
0.128292 -4.63811 -2.50845 
-0.112891 -4.61783 -2.68059 
-0.241785 -4.62003 -2.54166 
-0.348295 -4.59697 -2.86741 
-0.477791 -4.59784 -2.75162 
-0.587942 -4.59213 -2.76723 
-0.717136 -4.59387 -2.63624 
-0.825197 -4.58575 -2.69624 
-0.959876 -4.58704 -2.56899 
-1.06279 -4.563 -2.91477 
-1.19907 -4.54944 -3.04914 
-1.30331 -4.54966 -2.96434 
-1.43969 -4.53616 -3.09753 
-1.54801 -4.53466 -3.04018 
-1.67848 -4.5384 -2.87269 
-1.78975 -4.51403 -3.2178 
-1.91447 -4.52714 -2.889 
-2.02797 -4.51162 -3.07561 
-2.16384 -4.49837 -3.20484 
-2.2706 -4.48819 -3.30226 
-2.40266 -4.47996 -3.34538 
-2.5165 -4.45987 -3.61288 
-2.75325 -4.46161 -3.39833 
-2.99881 -4.44107 -3.57135 
-3.1339 -4.43066 -3.65074 
-3.24283 -4.41387 -3.86347 
-3.38035 -4.40663 -3.88496 
-3.49611 -4.39358 -4.02617 
-3.74268 -4.36935 -4.26372 
6.22017 -4.83006 -3.14938 
5.96661 -4.83531 -2.86183 
5.85424 -4.836 -2.76323 
5.72721 -4.82519 -2.85574 
5.61542 -4.83078 -2.67136 
5.46464 -4.84188 -2.35998 
5.37676 -4.82202 -2.64189 
5.22615 -4.83433 -2.30925 
5.12611 -4.81921 -2.49843 
4.98325 -4.83152 -2.1716 
4.87648 -4.83384 -2.04872 
4.64549 -4.81041 -2.28318 
4.50055 -4.8258 -1.90068 
4.39325 -4.82257 -1.87491 
4.15697 -4.81355 -1.85159 
4.02464 -4.80387 -1.92008 
3.91777 -4.7976 -1.94809 
3.67603 -4.7967 -1.77763 
3.54725 -4.79554 -1.69887 
3.44482 -4.78045 -1.88554 
3.31098 -4.78387 -1.72211 
3.20269 -4.77601 -1.77698 
3.06769 -4.78166 -1.57352 
2.97198 -4.76759 -1.74742 
2.73051 -4.74752 -1.91463 
2.60138 -4.74748 -1.81569 
2.49952 -4.74299 -1.81627 
2.37048 -4.71758 -2.16405 
2.26466 -4.73007 -1.86248 
2.12875 -4.72506 -1.84593 
2.02912 -4.71532 -1.94058 
1.79313 -4.70397 -1.95837 
1.66826 -4.66948 -2.46921 
1.56036 -4.66568 -2.45297 
1.42336 -4.6745 -2.19198 
1.31913 -4.67202 -2.15527 
1.18667 -4.65843 -2.29224 
1.084 -4.65606 -2.25484 
0.843162 -4.64436 -2.27492 
0.714533 -4.63873 -2.27472 
0.60755 -4.62968 -2.35161 
0.475106 -4.61395 -2.52635 
0.37525 -4.61058 -2.50857 
0.238068 -4.6222 -2.19806 
0.132248 -4.59905 -2.52398 
-0.108175 -4.58421 -2.59972 
-0.237865 -4.58669 -2.45588 
-0.347873 -4.55989 -2.8428 
-0.478698 -4.5658 -2.63781 
-0.585108 -4.565 -2.56975 
-0.716156 -4.5481 -2.76601 
-0.824111 -4.54335 -2.76631 
-0.959121 -4.54365 -2.6568 
-1.06155 -4.52694 -2.8719 
-1.19579 -4.52042 -2.88295 
-1.30545 -4.50963 -2.98827 
-1.43547 -4.5156 -2.78279 
-1.54488 -4.50237 -2.9311 
-1.67687 -4.4853 -3.12985 
-1.78611 -4.48562 -3.03976 
-1.91459 -4.47946 -3.04901 
-2.02784 -4.47516 -3.03719 
-2.16186 -4.45509 -3.28698 
-2.26524 -4.46202 -3.08504 
-2.40199 -4.43946 -3.37665 
-2.50633 -4.44749 -3.15465 
-2.64573 -4.43124 -3.33301 
-2.76115 -4.39891 -3.81305 
-2.88555 -4.41465 -3.43977 
-2.99527 -4.40558 -3.51476 
-3.13554 -4.38142 -3.83169 
-3.24181 -4.36991 -3.95217 
-3.38229 -4.36094 -4.00152 
-3.50155 -4.34168 -4.24861 
5.95833 -4.80729 -2.67843 
5.85797 -4.79483 -2.81976 
5.71648 -4.80247 -2.57753 
5.62555 -4.78555 -2.80405 
5.48346 -4.78744 -2.66211 
5.37444 -4.79105 -2.51523 
5.2302 -4.79504 -2.33485 
5.13302 -4.77793 -2.55982 
4.98866 -4.7876 -2.27987 
4.89518 -4.77397 -2.44688 
4.73675 -4.80228 -1.82973 
4.63268 -4.79069 -1.95291 
4.39501 -4.78797 -1.81809 
4.15774 -4.77215 -1.91307 
3.91903 -4.7627 -1.89529 
3.67716 -4.76311 -1.70258 
3.54888 -4.75588 -1.73074 
3.44047 -4.75061 -1.73973 
3.31487 -4.7443 -1.75385 
3.20937 -4.73601 -1.81795 
3.0761 -4.73099 -1.80365 
2.97035 -4.72799 -1.77487 
2.73749 -4.70881 -1.93203 
2.61344 -4.69126 -2.14397 
2.50045 -4.69907 -1.92042 
2.37155 -4.68233 -2.11455 
2.27188 -4.67277 -2.20538 
2.13139 -4.67676 -2.02773 
2.03221 -4.67857 -1.91983 
1.79328 -4.66625 -1.95202 
1.66198 -4.64956 -2.14333 
1.56002 -4.63111 -2.38806 
1.42745 -4.63159 -2.27784 
1.31956 -4.63339 -2.16351 
1.18945 -4.62092 -2.28186 
1.08253 -4.61559 -2.29302 
0.847241 -4.61086 -2.19496 
0.716778 -4.6026 -2.23943 
0.608573 -4.59836 -2.23052 
0.477447 -4.57465 -2.54479 
0.375718 -4.57724 -2.42128 
0.241122 -4.57337 -2.38557 
0.134146 -4.56447 -2.45925 
-0.00217999 -4.54424 -2.70869 
-0.104722 -4.53794 -2.74015 
-0.236969 -4.54974 -2.43186 
-0.34725 -4.52309 -2.81373 
-0.47556 -4.52352 -2.70765 
-0.582822 -4.51909 -2.70264 
-0.71063 -4.51864 -2.61225 
-0.823509 -4.50183 -2.81978 
-0.958889 -4.50203 -2.71218 
-1.0623 -4.48896 -2.86149 
-1.19712 -4.48251 -2.87077 
-1.30242 -4.46948 -3.01794 
-1.43523 -4.47167 -2.87753 
-1.54209 -4.45014 -3.1723 
-1.67212 -4.46485 -2.81477 
-1.78544 -4.45139 -2.96322 
-1.90864 -4.46116 -2.69744 
-2.0268 -4.43941 -2.98729 
-2.15885 -4.4171 -3.27644 
-2.26858 -4.40764 -3.35758 
-2.39957 -4.40315 -3.33555 
-2.51091 -4.3848 -3.57115 
-2.75458 -4.36918 -3.65718 
-2.9939 -4.36781 -3.49699 
-3.13185 -4.34181 -3.84614 
-3.23846 -4.34175 -3.76508 
-3.38258 -4.32133 -4.01174 
-3.50008 -4.29825 -4.3255 
-3.63056 -4.29584 -4.26725 
-3.7259 -4.31497 -3.85876 
5.96505 -4.76458 -2.76412 
5.85593 -4.76321 -2.70485 
5.61225 -4.76399 -2.50522 
5.47092 -4.76261 -2.42141 
5.37932 -4.75108 -2.5522 
5.12871 -4.74599 -2.44946 
4.9593 -4.78624 -1.61941 
4.87682 -4.75631 -2.07747 
4.63273 -4.75708 -1.87762 
3.67519 -4.73251 -1.57383 
3.44382 -4.71287 -1.73907 
3.31632 -4.69911 -1.88115 
3.22107 -4.68735 -2.01318 
3.08284 -4.68602 -1.93065 
2.97083 -4.692 -1.74078 
2.84015 -4.68742 -1.7207 
2.73857 -4.6774 -1.81752 
2.61756 -4.64706 -2.25335 
2.50426 -4.65833 -1.97048 
2.37436 -4.65113 -1.9965 
2.26719 -4.64751 -1.97751 
2.13482 -4.63559 -2.08392 
2.03784 -4.6215 -2.25496 
1.79512 -4.61476 -2.18672 
1.66712 -4.60405 -2.27534 
1.55723 -4.60028 -2.25701 
1.43094 -4.59776 -2.2042 
1.32182 -4.59109 -2.23682 
1.19502 -4.58038 -2.32632 
1.08951 -4.56312 -2.54628 
0.850797 -4.55128 -2.56979 
0.718864 -4.55721 -2.36556 
0.613279 -4.55056 -2.40044 
0.480835 -4.53871 -2.50553 
0.379328 -4.52234 -2.71289 
0.238944 -4.54488 -2.21288 
0.134202 -4.53646 -2.27932 
-0.104373 -4.5017 -2.70212 
-0.234814 -4.51242 -2.4156 
-0.343853 -4.50138 -2.52425 
-0.473871 -4.48753 -2.66605 
-0.580742 -4.47842 -2.74286 
-0.710725 -4.47231 -2.74963 
-0.821022 -4.46976 -2.70966 
-0.950878 -4.46409 -2.70893 
-1.0623 -4.45125 -2.84719 
-1.19586 -4.43338 -3.0562 
-1.29511 -4.43583 -2.93749 
-1.43425 -4.42374 -3.04139 
-1.53817 -4.4185 -3.05315 
-1.67422 -4.41762 -2.96413 
-1.78141 -4.41949 -2.84948 
-1.91295 -4.40231 -3.04793 
-2.02355 -4.39332 -3.11974 
-2.15982 -4.38016 -3.24464 
-2.26588 -4.36999 -3.34046 
-2.40336 -4.34969 -3.5886 
-2.50298 -4.36824 -3.18923 
-2.64649 -4.33458 -3.66549 
-2.75037 -4.3354 -3.57157 
-2.996 -4.31739 -3.69705 
-3.13762 -4.28853 -4.09103 
-3.23995 -4.29001 -3.98688 
-3.38224 -4.27588 -4.12397 
-3.48225 -4.28396 -3.90646 
-3.62631 -4.25816 -4.24534 
5.97898 -4.71491 -2.97506 
5.85898 -4.72596 -2.6925 
5.71696 -4.73058 -2.50457 
5.62745 -4.71197 -2.7588 
5.48627 -4.71069 -2.67366 
5.38796 -4.704 -2.71463 
4.86247 -4.73593 -1.7621 
3.21951 -4.64659 -2.05913 
3.08154 -4.65393 -1.82703 
2.9634 -4.66926 -1.47151 
2.74422 -4.63274 -1.93717 
2.61114 -4.62657 -1.94275 
2.51037 -4.60999 -2.15308 
2.37899 -4.6067 -2.11 
2.27279 -4.60399 -2.0762 
2.13787 -4.59836 -2.0708 
2.03849 -4.59544 -2.04569 
1.90564 -4.59206 -2.00304 
1.79764 -4.57473 -2.22099 
1.66883 -4.5694 -2.21516 
1.56471 -4.55565 -2.37391 
1.43071 -4.56618 -2.08961 
1.32451 -4.55188 -2.25632 
1.19718 -4.54361 -2.30247 
1.09035 -4.53222 -2.41846 
0.851546 -4.52671 -2.33192 
0.713039 -4.53458 -2.0899 
0.613775 -4.5182 -2.29805 
0.487041 -4.50301 -2.46449 
