ply
format ascii 1.0
element vertex 1803
property float x
property float y
property float z
end_header
3.10283 -7.30475 1.16344 
3.00287 -7.2952 1.01373 
2.86742 -7.30106 1.31978 
2.76839 -7.29268 1.20055 
2.6398 -7.28948 1.25376 
2.54147 -7.28 1.10404 
2.40639 -7.27796 1.19584 
2.30422 -7.28094 1.38794 
2.17667 -7.27634 1.40211 
2.07545 -7.2703 1.34871 
1.95032 -7.25942 1.19041 
1.84423 -7.26198 1.37515 
1.70955 -7.26766 1.67573 
1.61159 -7.26027 1.58224 
1.47881 -7.25996 1.7184 
1.37811 -7.26148 1.86932 
1.25375 -7.24626 1.59244 
1.14616 -7.252 1.86514 
1.02188 -7.25073 1.96627 
0.914631 -7.2503 2.07139 
0.788045 -7.25392 2.30763 
0.684933 -7.25274 2.38787 
0.556471 -7.25412 2.56533 
0.453305 -7.25965 2.82749 
0.326358 -7.25206 2.76028 
0.225731 -7.25204 2.86953 
0.0990512 -7.25574 3.10768 
-0.000266912 -7.2561 3.22587 
-0.351284 -7.24795 3.38761 
-0.449551 -7.24774 3.4892 
-0.575685 -7.2376 3.3521 
-0.678196 -7.23477 3.38719 
-0.801625 -7.2335 3.48727 
-0.904063 -7.22387 3.33822 
-1.26365 -7.19256 2.88205 
-1.36551 -7.18185 2.70301 
-1.49356 -7.17704 2.71221 
-1.59671 -7.16615 2.5297 
-2.84451 -6.93847 -2.27802 
-2.97964 -6.9271 -2.43871 
-3.08967 -6.91533 -2.6377 
-3.21991 -6.91397 -2.53243 
-3.33504 -6.89604 -2.89264 
-3.46393 -6.89985 -2.64848 
-3.57297 -6.88953 -2.80929 
-3.70694 -6.88205 -2.86572 
-3.81384 -6.87858 -2.84311 
-3.94611 -6.87538 -2.78535 
-4.05228 -6.87064 -2.79773 
-4.20065 -6.85091 -3.17062 
-4.30798 -6.84444 -3.22864 
-4.4481 -6.82864 -3.50394 
-4.56762 -6.81166 -3.83345 
-4.69892 -6.80709 -3.81386 
-4.80299 -6.80855 -3.66078 
-6.31902 -6.51704 -9.90509 
-6.61611 -6.47272 -10.7816 
-6.75014 -6.47851 -10.4782 
-6.87423 -6.46453 -10.7216 
5.21932 -7.40729 2.62305 
4.99646 -7.39911 2.64369 
4.88109 -7.38673 2.43585 
4.78366 -7.37975 2.35345 
4.65656 -7.37598 2.3896 
4.55637 -7.37152 2.37794 
4.43241 -7.36561 2.3531 
4.32757 -7.36268 2.38737 
4.21012 -7.34977 2.1677 
4.12237 -7.33385 1.83468 
4.00982 -7.31732 1.51233 
3.91 -7.30907 1.3985 
3.78439 -7.30357 1.38658 
3.68872 -7.29197 1.17834 
3.55619 -7.29272 1.3415 
3.45693 -7.28623 1.27454 
3.33363 -7.27423 1.08548 
3.23391 -7.26877 1.04639 
3.10203 -7.2704 1.23293 
3.00297 -7.26047 1.07305 
2.8709 -7.25977 1.19719 
2.77047 -7.25606 1.20605 
2.64711 -7.2485 1.13632 
2.53971 -7.2498 1.28745 
2.41236 -7.23915 1.13892 
2.30578 -7.24773 1.4846 
2.17949 -7.23559 1.29516 
2.07775 -7.23468 1.38069 
1.95221 -7.22268 1.19408 
1.84446 -7.22445 1.35806 
1.71066 -7.22933 1.63389 
1.61534 -7.21762 1.42249 
1.47998 -7.22409 1.74277 
1.38209 -7.21653 1.64566 
1.25309 -7.21346 1.70275 
1.15041 -7.20823 1.67324 
1.01997 -7.21584 2.01869 
0.916948 -7.21614 2.13825 
0.788633 -7.21817 2.33173 
0.683009 -7.22792 2.70785 
0.557226 -7.22221 2.69063 
0.454648 -7.21678 2.65585 
0.326961 -7.21433 2.72814 
0.22781 -7.22074 3.00775 
0.101764 -7.21563 3.00701 
0.00121222 -7.21717 3.15713 
-0.350397 -7.20967 3.33632 
-0.448117 -7.21207 3.50671 
-0.573916 -7.20386 3.42237 
-0.67722 -7.19317 3.24696 
-0.799822 -7.19805 3.51072 
-0.904198 -7.18344 3.23136 
-1.25985 -7.15912 2.96321 
-1.36471 -7.14706 2.75273 
-1.49351 -7.13224 2.49383 
-1.59597 -7.12133 2.31194 
-2.73668 -6.90055 -2.38469 
-2.84949 -6.88909 -2.57036 
-3.08951 -6.87558 -2.67331 
-3.21717 -6.88064 -2.39907 
-3.3356 -6.8542 -2.98111 
-3.46438 -6.85753 -2.75197 
-3.57165 -6.85181 -2.78955 
-3.70218 -6.84679 -2.78276 
-3.81445 -6.8374 -2.91343 
-4.06076 -6.81968 -3.12263 
-4.20068 -6.80706 -3.30997 
-4.30914 -6.80273 -3.30892 
-4.44732 -6.78978 -3.50713 
-4.54896 -6.7892 -3.41251 
-4.69454 -6.77253 -3.70243 
-4.7951 -6.77711 -3.47034 
-4.90136 -6.79854 -2.77909 
-5.04593 -6.75567 -3.77443 
5.22935 -7.36786 2.52959 
4.99496 -7.36456 2.69303 
4.88112 -7.35211 2.48331 
4.78893 -7.34156 2.30112 
4.67006 -7.3304 2.13128 
4.56446 -7.3306 2.24985 
4.42409 -7.3342 2.4962 
4.33863 -7.31981 2.20473 
4.21661 -7.31012 2.07736 
4.12612 -7.29455 1.75963 
4.00363 -7.28533 1.64549 
3.90661 -7.27795 1.55313 
3.78121 -7.27409 1.5847 
3.68687 -7.26075 1.33066 
3.55931 -7.25417 1.29224 
3.45868 -7.2486 1.25168 
3.33678 -7.23725 1.08017 
3.23201 -7.2344 1.11667 
3.10201 -7.23543 1.28384 
3.00292 -7.22695 1.16432 
2.87159 -7.22631 1.28801 
2.77298 -7.21662 1.13592 
2.64616 -7.21035 1.10489 
2.54288 -7.20878 1.17397 
2.41163 -7.20321 1.16662 
2.30698 -7.21174 1.50619 
2.18407 -7.19551 1.20589 
2.07857 -7.19918 1.41679 
1.95578 -7.1825 1.10424 
1.84963 -7.18621 1.31734 
1.71469 -7.18973 1.55608 
1.61402 -7.18601 1.56492 
1.48706 -7.17878 1.5088 
1.38511 -7.18135 1.68668 
1.25591 -7.17737 1.71955 
1.15279 -7.17539 1.77746 
1.02208 -7.18173 2.08687 
0.919377 -7.17593 2.04288 
0.790208 -7.1821 2.34593 
0.687088 -7.17847 2.36005 
0.56079 -7.17634 2.43902 
0.457099 -7.18408 2.75671 
0.329374 -7.18118 2.81679 
0.228811 -7.18062 2.91005 
0.103879 -7.18179 3.07547 
0.00282244 -7.17793 3.08143 
-0.221938 -7.18287 3.45472 
-0.347879 -7.17608 3.40924 
-0.447067 -7.1734 3.44431 
-0.573112 -7.16561 3.37238 
-0.674848 -7.15838 3.28913 
-0.80033 -7.15491 3.33163 
-0.900996 -7.15237 3.37227 
-1.13216 -7.13127 3.05861 
-1.26081 -7.11776 2.83709 
-1.36387 -7.10833 2.6966 
-1.48898 -7.09995 2.60791 
-2.73238 -6.86548 -2.30231 
-2.84718 -6.84975 -2.59816 
-2.97421 -6.85123 -2.42183 
-3.09579 -6.82722 -2.93088 
-3.21958 -6.83542 -2.57902 
-3.32702 -6.82421 -2.76226 
-3.46725 -6.8123 -2.92857 
-3.57608 -6.80516 -3.00184 
-3.70272 -6.80667 -2.82512 
-3.81864 -6.79183 -3.0958 
-3.94603 -6.79487 -2.87772 
-4.05969 -6.78075 -3.13171 
-4.19484 -6.77319 -3.18753 
-4.31173 -6.75838 -3.45641 
-4.44236 -6.75313 -3.45566 
-4.55774 -6.73939 -3.69769 
-4.68913 -6.73972 -3.54735 
-4.80085 -6.72816 -3.73507 
-6.60064 -6.40432 -10.4274 
5.22369 -7.3354 2.63861 
4.99991 -7.32468 2.59382 
4.88792 -7.31203 2.37871 
4.78584 -7.30827 2.38818 
4.66889 -7.29662 2.20483 
4.56549 -7.29621 2.30417 
4.43334 -7.29229 2.34144 
4.34936 -7.27727 2.03402 
4.21995 -7.27168 2.024 
4.12084 -7.2648 1.94801 
4.00797 -7.24737 1.6078 
3.91206 -7.23812 1.46548 
3.79325 -7.22684 1.29407 
3.69067 -7.22216 1.27979 
3.5588 -7.22015 1.36708 
3.46542 -7.20916 1.17626 
3.3372 -7.20443 1.18804 
3.23462 -7.19954 1.16803 
3.10405 -7.19841 1.27756 
3.00338 -7.19108 1.19107 
2.87081 -7.18821 1.25664 
2.77161 -7.18525 1.28417 
2.64616 -7.17773 1.21933 
2.54322 -7.17289 1.20113 
2.41301 -7.16747 1.1967 
2.31541 -7.1663 1.26999 
2.18449 -7.16167 1.28731 
2.07953 -7.16031 1.36326 
1.95435 -7.15102 1.25141 
1.84872 -7.14887 1.30736 
1.71786 -7.15115 1.50712 
1.61613 -7.14917 1.56346 
1.48796 -7.14724 1.64898 
1.38753 -7.14138 1.60148 
1.25715 -7.1465 1.87571 
1.15803 -7.13365 1.64213 
1.02636 -7.1386 1.91348 
0.923335 -7.14029 2.06802 
0.793325 -7.14477 2.32504 
0.686351 -7.15334 2.66589 
0.561917 -7.1442 2.55701 
0.461705 -7.14562 2.70166 
0.331744 -7.14378 2.7917 
0.229911 -7.14256 2.86821 
0.105573 -7.14561 3.08161 
0.00488224 -7.14573 3.19227 
-0.220093 -7.14507 3.41516 
-0.347325 -7.13779 3.35849 
-0.446297 -7.13337 3.34761 
-0.573295 -7.12708 3.31691 
-0.672861 -7.12298 3.31481 
-0.796161 -7.12838 3.58926 
-0.897017 -7.11847 3.43522 
-1.13052 -7.09125 2.96534 
-1.25521 -7.08807 3.01456 
-1.36221 -7.07413 2.76049 
-2.73664 -6.82144 -2.44923 
-2.84595 -6.80993 -2.63686 
-2.97422 -6.81255 -2.43027 
-3.08782 -6.79605 -2.74516 
-3.22599 -6.78445 -2.90396 
-3.31792 -6.79764 -2.45717 
-3.46101 -6.77933 -2.78804 
-3.57227 -6.77172 -2.87018 
-3.70009 -6.76855 -2.81745 
-3.81648 -6.75258 -3.1151 
-3.94467 -6.75638 -2.87754 
-4.04747 -6.75528 -2.79663 
-4.19569 -6.72838 -3.34913 
-4.29889 -6.73115 -3.1655 
-4.44741 -6.7073 -3.63707 
-4.55656 -6.69834 -3.75723 
-4.69264 -6.69561 -3.68374 
-4.80937 -6.67833 -4.01575 
-6.76564 -6.33285 -11.0552 
5.00639 -7.28557 2.51461 
4.88831 -7.27654 2.40297 
4.78356 -7.2751 2.47592 
4.66521 -7.26468 2.32809 
4.56933 -7.25786 2.25068 
4.33961 -7.24665 2.20009 
4.22804 -7.2302 1.88702 
4.12851 -7.22531 1.86427 
4.01192 -7.20888 1.55712 
3.9257 -7.19032 1.16188 
3.79031 -7.19563 1.44447 
3.68823 -7.18811 1.35532 
3.56031 -7.18403 1.38383 
3.46373 -7.1725 1.18402 
3.33953 -7.16669 1.16324 
3.23941 -7.15857 1.05632 
3.10956 -7.15698 1.15216 
3.00165 -7.158 1.29326 
2.87681 -7.14882 1.18479 
2.7777 -7.14176 1.10485 
2.54349 -7.13658 1.21691 
2.41569 -7.13252 1.24596 
2.31738 -7.12804 1.23276 
2.1869 -7.12359 1.2544 
2.08588 -7.11435 1.11923 
1.95414 -7.11727 1.33536 
1.85445 -7.10704 1.17278 
1.61571 -7.1167 1.67895 
1.49111 -7.10198 1.42521 
1.38827 -7.10425 1.59377 
1.26188 -7.1025 1.68191 
1.15587 -7.10303 1.80797 
1.02862 -7.10429 1.976 
0.924072 -7.10732 2.16613 
0.794871 -7.11061 2.38932 
0.691458 -7.10555 2.36634 
0.562679 -7.10931 2.60168 
0.460991 -7.11392 2.83036 
0.334399 -7.09996 2.59855 
0.235366 -7.1026 2.77291 
0.107119 -7.10645 3.00968 
0.00632103 -7.09965 2.93839 
-0.219278 -7.10389 3.28884 
-0.343351 -7.1063 3.48354 
-0.444772 -7.09544 3.30664 
-0.571861 -7.08961 3.28855 
-0.670866 -7.08768 3.34309 
-0.797025 -7.08498 3.40604 
-0.898502 -7.07546 3.26409 
-1.12759 -7.05824 3.056 
-1.25606 -7.04202 2.76716 
-1.3601 -7.03711 2.74876 
-2.72851 -6.79162 -2.23415 
-2.84525 -6.77178 -2.63035 
-3.07908 -6.76953 -2.44125 
-3.21982 -6.75416 -2.69465 
-3.32911 -6.74238 -2.88752 
-3.46026 -6.73864 -2.84612 
-3.57534 -6.7276 -3.01346 
-3.70694 -6.71583 -3.18209 
-3.81726 -6.70997 -3.21863 
-4.05786 -6.7028 -3.15101 
-4.19161 -6.69158 -3.30307 
-4.30494 -6.68181 -3.43905 
-4.43902 -6.67473 -3.48209 
-4.55092 -6.66695 -3.56733 
-4.69702 -6.65088 -3.83321 
-4.79694 -6.65324 -3.66533 
-5.02815 -6.65115 -3.47426 
-6.32434 -6.3484 -10.0347 
5.00526 -7.25334 2.6238 
4.89741 -7.23408 2.23636 
4.7917 -7.23433 2.35399 
4.67199 -7.22547 2.24953 
4.56993 -7.22164 2.25721 
4.32751 -7.22364 2.56372 
4.22009 -7.20103 2.08906 
4.13511 -7.18196 1.68267 
4.01655 -7.17081 1.51735 
3.91598 -7.16509 1.47454 
3.79416 -7.15461 1.33011 
3.69594 -7.14612 1.21268 
3.57279 -7.13962 1.17324 
3.46594 -7.13733 1.226 
3.33684 -7.13457 1.29013 
3.23734 -7.12619 1.17699 
3.10992 -7.12015 1.15386 
3.00233 -7.12225 1.32171 
2.87724 -7.11678 1.31096 
2.77712 -7.10898 1.21348 
2.64485 -7.11156 1.41983 
2.54997 -7.09831 1.17531 
2.4207 -7.09217 1.15161 
2.31438 -7.09321 1.29061 
2.18821 -7.08767 1.27923 
2.08759 -7.08182 1.23314 
1.95637 -7.07887 1.29438 
1.85322 -7.07453 1.29032 
1.72318 -7.07846 1.52936 
1.61974 -7.07697 1.59948 
1.4913 -7.07392 1.65538 
1.39153 -7.06425 1.50889 
1.26148 -7.07019 1.8002 
1.16101 -7.0644 1.75542 
1.02952 -7.06618 1.94037 
0.927198 -7.06748 2.08171 
0.797443 -7.07 2.28399 
0.693346 -7.06887 2.36413 
0.565466 -7.06572 2.41694 
0.462509 -7.07743 2.82981 
0.335617 -7.06536 2.64983 
0.234731 -7.06918 2.85544 
0.109136 -7.07138 3.04478 
0.00897435 -7.06888 3.08529 
-0.21766 -7.06613 3.25257 
-0.342222 -7.06755 3.4208 
-0.443198 -7.05831 3.28709 
-0.570735 -7.04772 3.14615 
-0.669856 -7.04801 3.25818 
-0.794593 -7.04937 3.425 
-0.89747 -7.03585 3.18167 
-1.12722 -7.01753 2.94755 
-1.25596 -7.00588 2.78043 
-1.35689 -7.00201 2.78625 
-2.73623 -6.73882 -2.60326 
-2.84164 -6.7351 -2.58901 
-3.07981 -6.72802 -2.52183 
-3.21287 -6.72557 -2.4453 
-3.32217 -6.70788 -2.79007 
-3.46158 -6.69398 -3.00436 
-3.57334 -6.68791 -3.04436 
-3.69838 -6.68752 -2.92266 
-3.81335 -6.67398 -3.15349 
-4.05275 -6.6665 -3.09532 
-4.19442 -6.64754 -3.43904 
-4.29965 -6.64611 -3.36505 
-4.43414 -6.64147 -3.34393 
-4.54844 -6.62998 -3.522 
-4.70056 -6.60209 -4.08679 
-4.80703 -6.60044 -4.0175 
-6.74865 -6.26532 -10.6835 
5.23277 -7.22611 2.62145 
5.00674 -7.21631 2.60462 
4.90146 -7.19611 2.19368 
4.80094 -7.19218 2.19711 
4.67173 -7.19046 2.28771 
4.57064 -7.18715 2.30788 
4.33335 -7.18527 2.50723 
4.22518 -7.16197 2.01913 
4.14518 -7.14001 1.53651 
4.02331 -7.12937 1.38952 
3.91323 -7.13191 1.56975 
3.79504 -7.11925 1.36673 
3.69533 -7.11134 1.26696 
3.57208 -7.10424 1.21277 
3.46888 -7.10033 1.21967 
3.33881 -7.10074 1.36612 
3.24161 -7.08949 1.17756 
3.10795 -7.09029 1.33779 
3.00428 -7.08566 1.32663 
2.87952 -7.07993 1.30929 
2.77761 -7.07667 1.3317 
2.65299 -7.06454 1.14928 
2.55075 -7.0612 1.16981 
2.42077 -7.05487 1.14243 
2.31759 -7.05745 1.31704 
2.18889 -7.05308 1.33887 
2.08711 -7.04587 1.2593 
1.95958 -7.0413 1.27461 
1.85687 -7.03455 1.2079 
1.72421 -7.0425 1.55188 
1.62498 -7.0334 1.42078 
1.49366 -7.03587 1.62199 
1.39102 -7.03431 1.689 
1.26227 -7.02865 1.67768 
1.158 -7.02941 1.80643 
1.02947 -7.03749 2.14921 
0.928619 -7.03332 2.14719 
0.696135 -7.03756 2.49953 
0.568499 -7.03357 2.5302 
0.463834 -7.03362 2.64106 
0.336276 -7.03163 2.72311 
0.239296 -7.03162 2.82441 
0.110059 -7.03966 3.16715 
0.0110125 -7.03596 3.17533 
-0.216031 -7.03161 3.30063 
-0.339859 -7.02935 3.37197 
-0.44134 -7.02449 3.35283 
-0.566606 -7.01673 3.28397 
-0.668742 -7.00832 3.17403 
-0.793042 -7.00914 3.32532 
-0.892411 -7.0015 3.23206 
-1.12561 -6.97957 2.91078 
-1.25302 -6.97398 2.89987 
-1.35446 -6.96302 2.72346 
-2.59002 -6.72995 -1.99457 
-2.73066 -6.70449 -2.50406 
-2.8396 -6.69571 -2.6164 
-3.06974 -6.70062 -2.24853 
-3.21432 -6.67996 -2.62999 
-3.3129 -6.68064 -2.50934 
-3.45679 -6.66117 -2.86078 
-3.57045 -6.65114 -3.00026 
-3.69391 -6.65509 -2.76899 
-3.81117 -6.63843 -3.07601 
-4.05123 -6.62903 -3.06679 
-4.19727 -6.6057 -3.51557 
-4.303 -6.60188 -3.50328 
-4.43415 -6.59787 -3.46929 
-4.55418 -6.58375 -3.70786 
-4.67883 -6.58718 -3.48869 
-4.79894 -6.56892 -3.83391 
-6.75698 -6.21187 -10.9923 
5.01219 -7.17719 2.52825 
4.90117 -7.16101 2.22943 
4.79798 -7.15811 2.2624 
4.67601 -7.15415 2.28745 
4.57372 -7.15082 2.30831 
4.34794 -7.14036 2.27502 
4.23629 -7.11902 1.84481 
4.13938 -7.10932 1.69738 
4.02556 -7.09236 1.38154 
3.9221 -7.08907 1.4047 
3.80084 -7.08036 1.3075 
3.69812 -7.07543 1.28812 
3.56888 -7.07334 1.36876 
3.47006 -7.06741 1.31953 
3.34435 -7.05956 1.24915 
3.23895 -7.05644 1.27887 
3.10068 -7.06316 1.59437 
3.01157 -7.04029 1.10169 
2.8779 -7.04714 1.41577 
2.77851 -7.03884 1.30642 
2.657 -7.02643 1.11509 
2.55355 -7.02249 1.12174 
2.42078 -7.0212 1.22667 
2.32312 -7.0175 1.23327 
2.18976 -7.0149 1.30528 
2.09071 -7.00605 1.18192 
1.96192 -7.00546 1.3004 
1.85805 -7.0029 1.3428 
1.7284 -7.00191 1.45223 
1.62629 -6.9965 1.41981 
1.49444 -7.00186 1.69398 
1.3936 -6.99384 1.5935 
1.26556 -6.99212 1.68256 
1.15867 -6.99206 1.79205 
1.03353 -6.98981 1.86468 
0.929608 -6.99078 1.99745 
0.797491 -7.00502 2.49911 
0.696009 -7.00355 2.56689 
0.568956 -7.00106 2.63518 
0.466884 -6.99774 2.65649 
0.33723 -6.99432 2.70379 
0.240087 -6.98868 2.66039 
0.112193 -6.99441 2.93989 
0.0106742 -6.99173 2.977 
-0.21533 -6.99116 3.19735 
-0.337686 -6.98909 3.27148 
-0.439999 -6.99068 3.4186 
-0.563869 -6.98237 3.33477 
-0.666403 -6.97465 3.24398 
-0.790264 -6.97115 3.28327 
-0.891949 -6.96112 3.13223 
-1.12496 -6.94271 2.90353 
-1.25362 -6.92745 2.64706 
-1.35531 -6.92106 2.58932 
-2.72823 -6.66918 -2.42806 
-2.83443 -6.66334 -2.46682 
-2.96907 -6.65468 -2.54847 
-3.08175 -6.64249 -2.7431 
-3.2095 -6.64512 -2.54278 
-3.31211 -6.63954 -2.57881 
-3.45236 -6.62418 -2.82596 
-3.55661 -6.62519 -2.69149 
-3.69667 -6.61061 -2.91873 
-3.80581 -6.60543 -2.93767 
-3.93649 -6.59787 -2.99509 
-4.0478 -6.59102 -3.05453 
-4.18877 -6.57759 -3.25152 
-4.30001 -6.56427 -3.47667 
-4.43226 -6.56113 -3.41921 
-4.55082 -6.54429 -3.72664 
-4.6867 -6.53601 -3.79706 
-6.34056 -6.20574 -10.5275 
-6.59908 -6.19114 -10.6318 
5.0151 -7.13912 2.48251 
4.90059 -7.12627 2.27429 
4.7995 -7.12297 2.29482 
4.67878 -7.11471 2.20956 
4.57864 -7.11188 2.24066 
4.35326 -7.10128 2.20386 
4.23918 -7.07989 1.77869 
4.14018 -7.07285 1.70203 
4.02339 -7.06016 1.50021 
3.92603 -7.04982 1.33835 
3.80314 -7.04285 1.28791 
3.69915 -7.03997 1.32206 
3.57515 -7.03253 1.26106 
3.46722 -7.03291 1.38214 
3.34697 -7.0196 1.16815 
3.24446 -7.01337 1.1157 
3.11582 -7.01019 1.1676 
3.00613 -7.01348 1.3644 
2.87803 -7.00986 1.40447 
2.7852 -6.99605 1.1497 
2.55293 -6.98952 1.22365 
2.42485 -6.98556 1.25517 
2.32345 -6.98008 1.2208 
2.19017 -6.98027 1.3632 
2.09095 -6.97506 1.33323 
1.96193 -6.96973 1.33106 
1.86143 -6.96165 1.22974 
1.62504 -6.96442 1.544 
1.49638 -6.96537 1.70096 
1.39545 -6.95565 1.55834 
1.27009 -6.9448 1.41243 
1.16627 -6.95198 1.70181 
1.03416 -6.95353 1.87759 
0.927478 -6.96228 2.20968 
0.801149 -6.96401 2.38423 
0.700221 -6.95912 2.3642 
0.571981 -6.9577 2.46063 
0.468717 -6.9609 2.64848 
0.338463 -6.95964 2.75109 
0.240045 -6.96043 2.87276 
0.11224 -6.95833 2.95144 
0.0139692 -6.95801 3.04478 
-0.212646 -6.95702 3.25365 
-0.335704 -6.95274 3.27231 
-0.438484 -6.94797 3.25739 
-0.563433 -6.93911 3.16145 
-0.665803 -6.93239 3.09653 
-0.788695 -6.93615 3.3191 
-0.890571 -6.92925 3.24925 
-1.12146 -6.90946 2.98546 
-1.25294 -6.8892 2.60691 
-1.35499 -6.87937 2.4628 
-2.59636 -6.63183 -2.53869 
-2.7356 -6.61834 -2.73725 
-2.83357 -6.62415 -2.48841 
-3.07216 -6.61503 -2.47341 
-3.21488 -6.59563 -2.81835 
-3.31579 -6.59228 -2.799 
-3.45243 -6.5844 -2.85774 
-3.56146 -6.57252 -3.04656 
-3.69587 -6.57065 -2.95501 
-3.80071 -6.5741 -2.75897 
-3.93493 -6.56066 -2.96146 
-4.05624 -6.53947 -3.37395 
-4.18903 -6.53937 -3.23908 
-4.29326 -6.53072 -3.35106 
-4.43692 -6.51447 -3.61482 
-4.54828 -6.50701 -3.68919 
-4.67918 -6.50471 -3.61205 
-6.49126 -6.148 -10.7948 
-6.7547 -6.13254 -10.9145 
5.24766 -7.10984 2.42369 
5.01074 -7.10816 2.62383 
4.90421 -7.09005 2.277 
4.80244 -7.08661 2.29437 
4.68338 -7.07694 2.17285 
4.58297 -7.07268 2.16827 
4.3563 -7.06081 2.10154 
4.24562 -7.04038 1.70029 
4.1458 -7.03439 1.65169 
4.02635 -7.02023 1.4174 
3.93307 -7.00804 1.20597 
3.80063 -7.00947 1.37761 
3.70486 -6.99945 1.22356 
3.57465 -6.99382 1.21508 
3.47265 -6.99204 1.27471 
3.34982 -6.98151 1.13532 
3.23881 -6.98178 1.25597 
3.11352 -6.97945 1.3255 
3.009 -6.97535 1.32932 
2.88961 -6.95898 1.03961 
2.78186 -6.96471 1.2942 
2.55275 -6.9578 1.35515 
2.427 -6.94595 1.18551 
2.32413 -6.94585 1.28833 
2.19492 -6.94649 1.437 
2.0896 -6.94155 1.42056 
1.96438 -6.9323 1.31589 
1.86066 -6.93016 1.36855 
1.62918 -6.92301 1.42562 
1.5 -6.92435 1.59197 
1.39785 -6.91897 1.56114 
1.26661 -6.92299 1.79701 
1.16979 -6.91067 1.58596 
1.03684 -6.9168 1.87673 
0.936021 -6.9104 1.81915 
0.806356 -6.9195 2.18116 
0.702974 -6.9247 2.4182 
0.571113 -6.927 2.61147 
0.471868 -6.92255 2.60133 
0.344056 -6.91315 2.49558 
0.242427 -6.92396 2.87209 
0.114924 -6.92381 2.99918 
0.0159686 -6.92518 3.13543 
-0.209953 -6.92169 3.27923 
-0.335142 -6.91281 3.18423 
-0.436419 -6.91246 3.27918 
-0.56245 -6.90386 3.19192 
-0.663003 -6.89934 3.18136 
-0.78943 -6.89359 3.16643 
-0.891028 -6.88999 3.1799 
-1.12097 -6.86778 2.85661 
-1.24962 -6.85457 2.65596 
-2.59289 -6.60383 -2.28057 
-2.72185 -6.59833 -2.28676 
-2.83302 -6.58142 -2.59845 
-3.07814 -6.56664 -2.71903 
-3.21365 -6.55601 -2.84748 
-3.31802 -6.54904 -2.91588 
-3.45324 -6.54111 -2.97682 
-3.5618 -6.53488 -3.02203 
-3.69726 -6.52561 -3.11653 
-3.80705 -6.52568 -3.00189 
-4.0451 -6.51389 -3.05424 
-4.1903 -6.49562 -3.36532 
-4.29453 -6.48872 -3.43198 
-4.43872 -6.47217 -3.7005 
-4.54473 -6.47321 -3.56555 
-4.6829 -6.46055 -3.74223 
-6.30324 -6.15242 -9.83932 
-6.5927 -6.11138 -10.5757 
-6.84455 -6.10379 -10.5078 
5.24256 -7.07799 2.54293 
5.0263 -7.06295 2.387 
4.903 -7.05508 2.31566 
4.80431 -7.0505 2.30161 
4.68198 -7.04157 2.2029 
4.58299 -7.03735 2.19807 
4.45838 -7.02831 2.09891 
4.3554 -7.02617 2.15027 
4.24011 -7.0097 1.85613 
4.14667 -6.998 1.65875 
4.02997 -6.98304 1.40383 
3.92207 -6.98424 1.54355 
3.80582 -6.96849 1.26833 
3.70178 -6.96623 1.31761 
3.57677 -6.95492 1.16236 
3.47362 -6.95707 1.32094 
3.34497 -6.95268 1.34236 
3.24449 -6.94363 1.21839 
3.10474 -6.95597 1.66908 
3.01113 -6.94077 1.38444 
2.89059 -6.92731 1.17104 
2.78923 -6.92122 1.12207 
2.64974 -6.93373 1.5767 
2.55408 -6.92345 1.41712 
2.4235 -6.91763 1.40471 
2.32184 -6.91238 1.37701 
2.19783 -6.90533 1.32717 
2.09737 -6.8968 1.21646 
1.96617 -6.89618 1.33467 
1.86492 -6.88842 1.24388 
1.73333 -6.89421 1.52248 
1.62971 -6.8895 1.51042 
1.50082 -6.89128 1.68623 
1.3992 -6.88541 1.64301 
1.27667 -6.87028 1.38985 
1.17088 -6.87516 1.6196 
1.03809 -6.88262 1.94128 
0.931866 -6.88776 2.17801 
0.808515 -6.89048 2.37181 
0.702286 -6.89211 2.52084 
0.573689 -6.88762 2.53976 
0.472145 -6.88684 2.62371 
0.346474 -6.8855 2.7184 
0.245705 -6.88716 2.86255 
0.116208 -6.89099 3.09025 
0.0163922 -6.87855 2.88124 
-0.208669 -6.88454 3.26043 
-0.332532 -6.88459 3.38795 
-0.434148 -6.87625 3.2833 
-0.561658 -6.86586 3.15355 
-0.661317 -6.8649 3.23133 
-0.786672 -6.85942 3.22211 
-0.888529 -6.85462 3.20617 
-1.1181 -6.82819 2.77987 
-1.25198 -6.80901 2.43695 
-2.48202 -6.56626 -2.37536 
-2.59531 -6.55269 -2.59871 
-2.72894 -6.54373 -2.68635 
-2.83032 -6.54664 -2.51032 
-3.07328 -6.52813 -2.72475 
-3.20768 -6.52254 -2.72746 
-3.31181 -6.51823 -2.72883 
-3.4479 -6.50946 -2.80904 
-3.56132 -6.49678 -3.01032 
-3.69296 -6.49039 -3.03552 
-3.80843 -6.48191 -3.12961 
-4.03888 -6.47992 -2.94405 
-4.18691 -6.45613 -3.38762 
-4.28925 -6.45602 -3.28564 
-4.43358 -6.43628 -3.63179 
-4.54948 -6.42507 -3.79354 
-4.67924 -6.42563 -3.64694 
-4.89067 -6.44668 -2.90474 
-6.31085 -6.10345 -10.0343 
5.25227 -7.03754 2.43184 
5.12359 -7.03417 2.47837 
5.02604 -7.02751 2.41179 
4.90549 -7.01877 2.31688 
4.8097 -7.01058 2.21057 
4.68424 -7.00626 2.23024 
4.5906 -6.99586 2.06705 
4.36103 -6.98675 2.07338 
4.24704 -6.96844 1.73461 
4.14417 -6.96469 1.74555 
4.02445 -6.95417 1.60575 
3.92535 -6.9468 1.52319 
3.80422 -6.93623 1.38366 
3.70654 -6.92791 1.27624 
3.58247 -6.91694 1.1297 
3.47826 -6.91664 1.22748 
3.34731 -6.91501 1.31974 
3.24487 -6.90966 1.29054 
3.12025 -6.90176 1.22089 
3.01074 -6.90772 1.47935 
2.88361 -6.9027 1.4836 
2.79078 -6.88457 1.12794 
2.64619 -6.90265 1.72261 
2.55262 -6.89043 1.51431 
2.4309 -6.87439 1.23977 
2.32205 -6.87706 1.4161 
2.19203 -6.8758 1.51645 
2.09393 -6.86939 1.45685 
1.96617 -6.86084 1.37414 
1.86125 -6.86131 1.4919 
1.73429 -6.85883 1.55903 
1.63298 -6.85215 1.4958 
1.50608 -6.8468 1.49155 
1.40389 -6.8424 1.48603 
1.27422 -6.84527 1.68843 
1.17744 -6.82604 1.30957 
1.03883 -6.85048 2.05603 
0.935301 -6.84679 2.06943 
0.808416 -6.8496 2.26754 
0.705636 -6.84985 2.37791 
0.574937 -6.84751 2.45237 
0.473145 -6.85372 2.70946 
0.346253 -6.8551 2.87212 
0.246044 -6.84801 2.79792 
0.119445 -6.85352 3.06289 
0.0202276 -6.85364 3.16624 
-0.205448 -6.84991 3.30266 
-0.332715 -6.84183 3.23111 
-0.432558 -6.83913 3.26545 
-0.559229 -6.82959 3.1572 
-0.660046 -6.8287 3.23718 
-0.78681 -6.81855 3.11414 
-0.889813 -6.80672 2.925 
-1.11816 -6.78709 2.66966 
-1.24704 -6.78288 2.69593 
-2.4799 -6.53029 -2.31865 
-2.59305 -6.51505 -2.58197 
-2.72444 -6.50589 -2.67593 
-2.83198 -6.5005 -2.70058 
-2.96186 -6.50408 -2.47993 
-3.07056 -6.49433 -2.61151 
-3.20772 -6.48371 -2.73597 
-3.3137 -6.48205 -2.66946 
-3.45037 -6.46516 -2.94972 
-3.55915 -6.46132 -2.93469 
-3.6927 -6.44867 -3.11296 
-3.79705 -6.45506 -2.84856 
-3.93035 -6.44774 -2.89491 
-4.04402 -6.43365 -3.12907 
-4.17937 -6.42658 -3.16714 
-4.29065 -6.41304 -3.38997 
-4.431 -6.39854 -3.60721 
-4.54328 -6.39088 -3.68331 
-4.68976 -6.36927 -4.07063 
-6.35383 -6.01889 -11.0731 
-6.57296 -6.04316 -10.2484 
-6.86153 -6.00051 -11.0135 
5.26789 -6.99078 2.16152 
5.13409 -6.99268 2.34269 
5.02461 -6.99353 2.47339 
4.91563 -6.9763 2.15908 
4.81201 -6.9745 2.21876 
4.69189 -6.96547 2.11708 
4.58996 -6.96203 2.13487 
4.35903 -6.95566 2.21006 
4.24744 -6.93393 1.78757 
4.14997 -6.92431 1.64882 
4.03367 -6.90907 1.39077 
3.93077 -6.9061 1.421 
3.81137 -6.89523 1.27356 
3.70569 -6.89334 1.33322 
3.57177 -6.8933 1.46679 
3.47723 -6.88294 1.30696 
3.35067 -6.87503 1.23951 
3.24083 -6.8827 1.53863 
3.12205 -6.86506 1.22394 
3.01066 -6.87339 1.54099 
2.89556 -6.85131 1.1133 
2.80124 -6.83628 0.838369 
2.55854 -6.8486 1.38572 
2.4282 -6.84392 1.40161 
2.3244 -6.842 1.4588 
2.19791 -6.83335 1.37306 
2.10272 -6.81766 1.08275 
1.96822 -6.8243 1.38131 
1.86966 -6.82118 1.40371 
1.63185 -6.81978 1.60857 
1.50436 -6.81414 1.59801 
1.40854 -6.8001 1.34886 
1.27596 -6.80792 1.67486 
1.173 -6.80491 1.70431 
1.0453 -6.81146 1.99402 
0.938396 -6.80669 1.98423 
0.80919 -6.809 2.17125 
0.706836 -6.81242 2.35843 
0.580383 -6.79961 2.17034 
0.476935 -6.81219 2.58406 
0.34816 -6.81047 2.67143 
0.246691 -6.81521 2.89034 
0.12043 -6.81449 2.99975 
0.0211161 -6.81221 3.04345 
-0.204229 -6.80566 3.10918 
-0.329323 -6.80704 3.26921 
-0.431798 -6.80025 3.20537 
-0.558755 -6.79315 3.15842 
-0.656944 -6.79607 3.32923 
-0.785121 -6.78394 3.1597 
-0.887369 -6.76817 2.87475 
-2.48146 -6.48244 -2.55166 
-2.59082 -6.47696 -2.5764 
-2.71862 -6.47537 -2.4868 
-2.82739 -6.46637 -2.59878 
-3.06703 -6.45658 -2.59817 
-3.20323 -6.4493 -2.63986 
-3.31794 -6.4355 -2.86393 
-3.45348 -6.42046 -3.0976 
-3.55734 -6.42503 -2.88035 
-3.68578 -6.41926 -2.89301 
-3.79716 -6.41031 -3.00084 
-4.04634 -6.3873 -3.3159 
-4.17265 -6.39155 -3.08403 
-4.29037 -6.37293 -3.4237 
-4.42581 -6.36697 -3.43369 
-4.5375 -6.35908 -3.5152 
-4.67979 -6.34187 -3.79539 
-6.48063 -5.98874 -10.6716 
5.74374 -6.96165 1.8668 
5.63378 -6.94284 1.51713 
5.50708 -6.95899 2.0379 
5.37414 -6.957 2.12191 
5.25967 -6.96129 2.3407 
5.13093 -6.95931 2.4208 
5.02809 -6.95577 2.43716 
4.91364 -6.94427 2.27037 
4.81244 -6.93937 2.25176 
4.7026 -6.9227 1.95441 
4.5951 -6.92256 2.05815 
4.37017 -6.9117 2.01756 
4.25426 -6.89408 1.70303 
4.14419 -6.89696 1.88326 
4.03069 -6.87883 1.55382 
3.93707 -6.86559 1.32405 
3.80844 -6.86325 1.39532 
3.7055 -6.85985 1.41532 
3.57714 -6.85154 1.34039 
3.47619 -6.85182 1.44815 
3.33545 -6.85993 1.78679 
3.24966 -6.83876 1.35557 
3.1147 -6.83988 1.5176 
3.02078 -6.82515 1.25193 
2.89056 -6.82208 1.30695 
2.77777 -6.83028 1.61997 
2.55794 -6.81452 1.45489 
2.42573 -6.80948 1.46373 
2.32989 -6.79896 1.30261 
2.19838 -6.79821 1.41591 
2.09908 -6.79109 1.34135 
1.96956 -6.79005 1.44523 
1.87022 -6.77977 1.29362 
1.63237 -6.7865 1.69578 
1.50852 -6.77059 1.43112 
1.40623 -6.7728 1.58738 
1.27986 -6.76618 1.55186 
1.17302 -6.76778 1.69801 
1.04465 -6.76885 1.8523 
0.942733 -6.76216 1.79096 
0.81259 -6.77677 2.27803 
0.707937 -6.76895 2.19169 
0.586878 -6.74439 1.71303 
0.485542 -6.7368 1.6289 
0.349881 -6.77403 2.67403 
0.249163 -6.77435 2.78242 
0.119813 -6.77474 2.92159 
0.0218912 -6.77346 2.98822 
-0.202255 -6.77096 3.15146 
-0.327349 -6.7714 3.28741 
-0.429665 -6.76049 3.12328 
-0.556333 -6.75683 3.16068 
-0.656165 -6.7544 3.20138 
-0.783829 -6.7378 2.92363 
-0.886278 -6.72829 2.79397 
-1.11674 -6.71064 2.59362 
-1.24417 -6.7001 2.46368 
-2.47996 -6.44175 -2.60928 
-2.58327 -6.45205 -2.25418 
-2.71895 -6.43653 -2.49736 
-2.82271 -6.43444 -2.44464 
-3.0693 -6.41195 -2.74697 
-3.20048 -6.41383 -2.56969 
-3.31267 -6.39775 -2.85002 
-3.43909 -6.40359 -2.58062 
-3.56347 -6.37758 -3.0914 
-3.69172 -6.37077 -3.12935 
-3.78877 -6.37876 -2.83676 
-4.03923 -6.35646 -3.13061 
-4.18351 -6.33691 -3.46363 
-4.29466 -6.328 -3.5698 
-4.42319 -6.32723 -3.45975 
-4.54244 -6.31088 -3.73987 
-4.67402 -6.30816 -3.67437 
-6.3403 -5.94129 -10.9664 
-6.60013 -5.92897 -11.0069 
-6.83294 -5.94655 -10.344 
5.51309 -6.91985 1.96841 
5.28499 -6.91136 1.9888 
5.13801 -6.919 2.31961 
5.03985 -6.91315 2.27517 
4.91793 -6.90522 2.204 
4.8177 -6.90006 2.1783 
4.69137 -6.89655 2.21859 
4.60352 -6.88156 1.94246 
4.47354 -6.87577 1.93105 
4.37168 -6.87439 1.9988 
4.24787 -6.86536 1.90264 
4.15403 -6.85217 1.67618 
4.03889 -6.83527 1.38097 
3.93631 -6.83243 1.41375 
3.81044 -6.82503 1.35948 
3.7157 -6.815 1.21036 
3.57317 -6.82489 1.59158 
3.47905 -6.81352 1.4095 
3.35259 -6.80746 1.38822 
3.23857 -6.81539 1.69357 
3.11747 -6.80164 1.48043 
3.01732 -6.79598 1.44269 
2.89341 -6.77865 1.14578 
2.78226 -6.79199 1.5795 
2.55728 -6.78004 1.51335 
2.42716 -6.77347 1.48343 
2.32681 -6.76872 1.4679 
2.19706 -6.76758 1.56922 
2.09681 -6.75922 1.46615 
1.96967 -6.75131 1.40083 
1.87156 -6.74531 1.35282 
1.63653 -6.74421 1.5597 
1.50841 -6.73749 1.52411 
1.40617 -6.74135 1.71934 
1.28107 -6.73186 1.61355 
1.17913 -6.72182 1.47147 
1.04589 -6.74517 2.1699 
0.943661 -6.72859 1.86959 
0.812059 -6.75268 2.5844 
0.714821 -6.73071 2.14849 
0.58306 -6.7322 2.31572 
0.486584 -6.71551 2.00695 
0.352564 -6.73792 2.68351 
0.251082 -6.73865 2.80222 
0.123112 -6.73805 2.91492 
0.021755 -6.73391 2.91523 
-0.201509 -6.73007 3.04431 
-0.32599 -6.73594 3.3104 
-0.429587 -6.72129 3.05823 
-0.553028 -6.72266 3.2143 
-0.655183 -6.71434 3.11435 
-0.781547 -6.70775 3.08009 
-0.884262 -6.68795 2.70235 
-1.11556 -6.67416 2.59831 
-1.24274 -6.66508 2.50481 
-2.47573 -6.41717 -2.27821 
-2.58572 -6.39913 -2.60599 
-2.71778 -6.39479 -2.57976 
-2.81999 -6.39865 -2.38442 
-2.96063 -6.38288 -2.62678 
-3.0777 -6.36368 -2.97581 
-3.21001 -6.35842 -2.9714 
-3.31214 -6.35631 -2.92103 
-3.4513 -6.33912 -3.19918 
-3.55356 -6.34607 -2.92893 
-3.68247 -6.34433 -2.84255 
-3.79139 -6.33409 -2.98252 
-3.92923 -6.32537 -3.05643 
-4.03444 -6.32117 -3.05364 
-4.17985 -6.29844 -3.45993 
-4.29133 -6.28958 -3.56374 
-4.42257 -6.28623 -3.51421 
-4.54258 -6.2695 -3.80023 
-6.74034 -5.88447 -10.9459 
5.75513 -6.8827 1.71555 
5.62524 -6.8815 1.81452 
5.38307 -6.88078 2.03566 
5.30492 -6.85963 1.60419 
5.14301 -6.88106 2.27914 
5.04501 -6.8752 2.23458 
4.92688 -6.86227 2.04016 
4.82917 -6.85594 1.98424 
4.70735 -6.84766 1.90522 
4.47628 -6.83886 1.92117 
4.37442 -6.83586 1.94953 
4.25148 -6.82643 1.84385 
4.15374 -6.81745 1.7244 
4.03767 -6.80258 1.48124 
3.94468 -6.78769 1.21462 
3.81135 -6.78972 1.39518 
3.71141 -6.7846 1.37046 
3.58387 -6.77592 1.28757 
3.47468 -6.7853 1.62088 
3.34698 -6.77841 1.58122 
3.2448 -6.7755 1.61203 
3.11553 -6.7703 1.61444 
3.02324 -6.75163 1.2564 
2.88799 -6.75681 1.5145 
2.78476 -6.75503 1.57371 
2.55608 -6.74385 1.53049 
2.4315 -6.73672 1.48193 
2.32806 -6.73234 1.47857 
2.20532 -6.72179 1.3461 
2.09517 -6.72855 1.61746 
1.97253 -6.71264 1.35575 
1.87119 -6.71345 1.47535 
1.63509 -6.71554 1.75886 
1.50951 -6.70012 1.51179 
1.41205 -6.69427 1.4673 
1.27656 -6.71108 2.00567 
1.17852 -6.69312 1.67044 
1.04788 -6.69696 1.89189 
0.944093 -6.70285 2.1361 
0.814615 -6.70187 2.24047 
0.718518 -6.69256 2.11143 
0.58476 -6.7045 2.53076 
0.484213 -6.69745 2.46062 
0.355002 -6.69876 2.61981 
0.2539 -6.7033 2.829 
0.123586 -6.70203 2.92724 
0.0258821 -6.69986 2.97155 
-0.20076 -6.70197 3.24632 
-0.324398 -6.69559 3.21518 
-0.428706 -6.69146 3.219 
-0.551187 -6.6901 3.30739 
-0.655941 -6.6694 2.91271 
-0.781225 -6.67027 3.0576 
-0.884401 -6.64559 2.56575 
-1.1133 -6.6318 2.46049 
-2.34344 -6.38652 -2.22459 
-2.47909 -6.3635 -2.64422 
-2.58258 -6.36759 -2.44361 
-2.72433 -6.34479 -2.85195 
-2.82129 -6.35153 -2.59373 
-3.0653 -6.33715 -2.69839 
-3.19688 -6.3352 -2.61509 
-3.29735 -6.33591 -2.49849 
-3.44111 -6.31451 -2.87116 
-3.55096 -6.30785 -2.9229 
-3.68302 -6.30222 -2.92759 
-3.79229 -6.29116 -3.0855 
-4.03506 -6.2762 -3.20534 
-4.17504 -6.26647 -3.30074 
-4.27972 -6.26235 -3.29632 
-4.42811 -6.23814 -3.73188 
-4.5277 -6.24305 -3.51531 
-4.67652 -6.22135 -3.89003 
-6.59748 -5.84793 -10.9741 
5.4 -6.83241 1.73657 
5.30605 -6.82284 1.60018 
5.14684 -6.84225 2.21947 
5.0453 -6.83915 2.24492 
4.92026 -6.83256 2.21006 
4.82876 -6.82039 2.00914 
4.7048 -6.81443 1.98832 
4.60906 -6.80616 1.8846 
4.37751 -6.79924 1.94639 
4.25253 -6.78991 1.84612 
4.15074 -6.78369 1.79741 
4.041 -6.76497 1.45803 
3.93544 -6.7626 1.50506 
3.81536 -6.75212 1.37248 
3.70791 -6.75226 1.48121 
3.58161 -6.74452 1.42026 
3.48057 -6.74202 1.45962 
3.35229 -6.73742 1.47561 
3.2466 -6.73892 1.61512 
3.12158 -6.72658 1.44311 
3.0227 -6.71861 1.34976 
2.88549 -6.72705 1.68595 
2.78392 -6.72338 1.69797 
2.65629 -6.71964 1.73386 
2.56002 -6.70519 1.48343 
2.43972 -6.69376 1.32845 
2.332 -6.69408 1.44176 
2.20266 -6.69158 1.50917 
2.10356 -6.68353 1.41412 
1.97344 -6.67928 1.44036 
1.87173 -6.6788 1.52871 
1.74057 -6.67557 1.58027 
1.63988 -6.6721 1.59623 
1.51 -6.66858 1.63967 
1.41065 -6.66412 1.63074 
1.28168 -6.66547 1.78963 
1.18179 -6.65265 1.58169 
1.05195 -6.66184 1.92857 
0.945121 -6.66139 2.02269 
0.715445 -6.66679 2.37723 
0.587119 -6.6695 2.56786 
0.485038 -6.66918 2.66063 
0.354381 -6.66755 2.74995 
0.255103 -6.6674 2.84392 
0.127506 -6.66686 2.95646 
0.0270575 -6.66067 2.90737 
-0.323986 -6.65282 3.06475 
-0.427845 -6.65157 3.13694 
-0.550868 -6.64304 3.05404 
-0.651801 -6.64036 3.08927 
-0.7822 -6.62053 2.74392 
-0.88104 -6.60957 2.57919 
-2.34214 -6.34827 -2.22495 
-2.47977 -6.32525 -2.63927 
-2.57931 -6.33089 -2.40673 
-2.81964 -6.31658 -2.51211 
-3.0683 -6.29101 -2.87849 
-3.20113 -6.28514 -2.88801 
-3.30498 -6.28426 -2.80684 
-3.43703 -6.28126 -2.74865 
-3.55174 -6.26376 -3.05379 
-3.68093 -6.26391 -2.92308 
-3.79481 -6.25027 -3.13692 
-4.02746 -6.24962 -2.92338 
-4.17324 -6.23056 -3.23511 
-4.2772 -6.22452 -3.27711 
-4.427 -6.19926 -3.73321 
-4.5332 -6.1961 -3.7042 
-6.47656 -5.81725 -10.8407 
-6.5958 -5.8091 -10.918 
-6.71836 -5.82432 -10.4338 
5.64507 -6.79435 1.46425 
5.53983 -6.79302 1.53492 
5.38108 -6.81133 2.12347 
5.3091 -6.78697 1.61633 
5.15643 -6.80137 2.10622 
5.0552 -6.80018 2.17636 
4.93573 -6.78454 1.92228 
4.84045 -6.77655 1.82568 
4.70842 -6.77786 1.9852 
4.62117 -6.76052 1.65922 
4.48397 -6.76115 1.80793 
4.37887 -6.76153 1.91926 
4.25476 -6.7529 1.83575 
4.15764 -6.74297 1.69499 
4.03996 -6.72963 1.49359 
3.94387 -6.7192 1.33984 
3.81067 -6.72124 1.51818 
3.71551 -6.70857 1.31052 
3.48275 -6.70292 1.4035 
3.3511 -6.70203 1.51088 
3.24822 -6.70226 1.61655 
3.12379 -6.68868 1.41612 
3.02649 -6.67961 1.29598 
2.88346 -6.69897 1.8942 
2.78357 -6.69027 1.78542 
2.55714 -6.67626 1.67418 
2.4366 -6.66435 1.50958 
2.32933 -6.66162 1.54955 
2.20444 -6.65641 1.54788 
2.10371 -6.65121 1.52285 
1.97589 -6.64099 1.4052 
1.87386 -6.63581 1.38201 
1.74073 -6.64743 1.78731 
1.63957 -6.64261 1.7719 
1.50955 -6.63664 1.75723 
1.41119 -6.63126 1.72557 
1.28029 -6.63765 2.00483 
1.18057 -6.62364 1.77008 
1.05197 -6.63357 2.13102 
0.947743 -6.62191 1.95647 
0.81598 -6.64085 2.53406 
0.715418 -6.63125 2.40468 
0.588996 -6.63453 2.60567 
0.488178 -6.62875 2.56719 
0.357054 -6.62714 2.657 
0.256374 -6.62943 2.80961 
0.129992 -6.62518 2.83218 
0.028017 -6.6207 2.82562 
-0.198042 -6.62285 3.09746 
-0.320462 -6.62001 3.14973 
-0.426423 -6.60934 3.00034 
-0.547543 -6.60848 3.09805 
-0.651845 -6.59434 2.86486 
-0.78056 -6.58065 2.6661 
-0.88002 -6.57648 2.66441 
-2.34447 -6.29681 -2.53472 
-2.47313 -6.29769 -2.38809 
-2.58101 -6.28472 -2.59024 
-2.71106 -6.28905 -2.36035 
-2.81938 -6.27651 -2.55184 
-2.94358 -6.27957 -2.35777 
-3.06333 -6.26261 -2.64299 
-3.18692 -6.26689 -2.42057 
-3.29448 -6.25623 -2.56827 
-3.43933 -6.23478 -2.93502 
-3.55285 -6.22256 -3.11374 
-3.67767 -6.22662 -2.89545 
-3.79703 -6.20439 -3.30588 
-3.93375 -6.20139 -3.24318 
-4.03462 -6.19886 -3.20466 
-4.1803 -6.17778 -3.56181 
-4.27553 -6.18416 -3.31753 
-4.41292 -6.17851 -3.31692 
-4.52877 -6.15987 -3.64558 
-4.67886 -6.13646 -4.05384 
5.5265 -6.769 1.84585 
5.31226 -6.74669 1.52828 
5.15373 -6.76654 2.14875 
5.06897 -6.75079 1.86016 
4.93813 -6.74843 1.9313 
4.86032 -6.72246 1.39566 
4.71582 -6.73558 1.84415 
4.61566 -6.73039 1.81905 
4.48564 -6.72464 1.80976 
4.38381 -6.72386 1.89011 
4.25807 -6.71563 1.81826 
4.15872 -6.70951 1.77038 
4.04638 -6.68849 1.38476 
3.94569 -6.68425 1.38254 
3.81489 -6.68184 1.45262 
3.71679 -6.67395 1.362 
3.58472 -6.67326 1.47378 
3.3538 -6.66548 1.51441 
3.25386 -6.66175 1.52349 
3.12811 -6.64989 1.36639 
3.0263 -6.64466 1.34195 
2.88608 -6.65994 1.8375 
2.78508 -6.65207 1.75012 
2.562 -6.63579 1.58354 
2.43609 -6.62702 1.49918 
2.331 -6.62334 1.51451 
2.20643 -6.61982 1.55248 
2.10806 -6.61125 1.44625 
1.97752 -6.60597 1.44859 
1.87503 -6.60475 1.51922 
1.74322 -6.61012 1.77352 
1.64397 -6.60305 1.70344 
1.51262 -6.59884 1.73181 
1.41089 -6.59595 1.76242 
1.28294 -6.59705 1.91251 
1.1817 -6.5892 1.82598 
1.05501 -6.58236 1.78792 
0.951641 -6.5839 1.92444 
0.717469 -6.59726 2.46609 
0.589559 -6.59635 2.56879 
0.48661 -6.59818 2.71184 
0.359564 -6.59056 2.65563 
0.258023 -6.58886 2.71429 
0.128865 -6.59541 2.99383 
0.0296962 -6.58911 2.9419 
-0.195504 -6.58589 3.08471 
-0.31943 -6.5805 3.07811 
-0.422695 -6.56889 2.90529 
-0.547246 -6.56819 3.00961 
-0.64891 -6.55657 2.83486 
-0.778479 -6.53921 2.55235 
-0.879657 -6.53582 2.57076 
-1.11033 -6.51925 2.40481 
-2.22843 -6.27849 -2.17514 
-2.34024 -6.26454 -2.39483 
-2.47675 -6.24703 -2.67419 
-2.57942 -6.24675 -2.58105 
-2.707 -6.25158 -2.34337 
-2.818 -6.23665 -2.58693 
-3.05594 -6.22713 -2.57976 
-3.19066 -6.22178 -2.57481 
-3.29807 -6.21202 -2.70005 
-3.44638 -6.18067 -3.29377 
-3.54828 -6.18808 -3.02024 
-3.67363 -6.19106 -2.8282 
-3.79225 -6.17006 -3.2073 
-3.92494 -6.17 -3.07972 
-4.02638 -6.16857 -3.01474 
-4.16329 -6.15493 -3.20266 
-4.28052 -6.13855 -3.47426 
-4.4311 -6.11229 -3.94578 
-4.52275 -6.12671 -3.51741 
4.94135 -6.70924 1.86766 
4.83681 -6.71065 2.00111 
4.72029 -6.69637 1.77994 
4.61471 -6.6947 1.84259 
4.48795 -6.69132 1.88561 
4.38976 -6.68409 1.81121 
4.26502 -6.67332 1.67984 
4.16301 -6.66822 1.65882 
4.04637 -6.6539 1.43681 
3.94219 -6.65346 1.52679 
3.81805 -6.64303 1.40288 
3.71473 -6.64168 1.47068 
3.35541 -6.62912 1.52346 
3.25443 -6.62494 1.52322 
3.12362 -6.62354 1.61646 
3.02815 -6.61152 1.42778 
2.88233 -6.62614 1.90987 
2.78549 -6.61905 1.83758 
2.56463 -6.5962 1.51672 
2.43671 -6.59646 1.64608 
2.33423 -6.58737 1.53239 
2.20695 -6.5842 1.58108 
2.10591 -6.58053 1.5927 
1.978 -6.57098 1.49294 
1.87803 -6.56889 1.54065 
1.64141 -6.57176 1.83576 
1.51114 -6.5671 1.85258 
1.40857 -6.56201 1.83253 
1.28533 -6.55882 1.87699 
1.18229 -6.55429 1.8705 
1.05133 -6.56025 2.136 
0.952429 -6.55357 2.07532 
0.821195 -6.55992 2.35043 
0.720475 -6.55598 2.35556 
0.59121 -6.56005 2.57527 
0.488488 -6.56182 2.71562 
0.360132 -6.55538 2.68896 
0.25933 -6.55425 2.75994 
0.128796 -6.55259 2.84719 
0.0326623 -6.54993 2.8778 
-0.192394 -6.54634 3.0112 
-0.3188 -6.55007 3.22029 
-0.419756 -6.54024 3.08803 
-0.547092 -6.52854 2.93768 
-0.647761 -6.52167 2.87437 
-0.77449 -6.50533 2.6149 
-0.877588 -6.50414 2.68671 
-2.22647 -6.24117 -2.15455 
-2.33844 -6.22281 -2.47544 
-2.46954 -6.21972 -2.42098 
-2.57701 -6.21142 -2.51119 
-2.70835 -6.20748 -2.47632 
-2.81876 -6.19288 -2.71069 
-2.94713 -6.19436 -2.55208 
-3.05558 -6.18843 -2.58588 
-3.19108 -6.18215 -2.60183 
-3.30227 -6.1633 -2.93467 
-3.43525 -6.15512 -2.99744 
-3.5482 -6.14637 -3.09271 
-3.67787 -6.14305 -3.04505 
-3.78619 -6.13857 -3.04498 
-3.91817 -6.13492 -3.00275 
-4.02616 -6.12626 -3.10071 
-4.17696 -6.09735 -3.63042 
-4.27124 -6.10871 -3.27385 
-4.40699 -6.0997 -3.35325 
-4.52889 -6.07959 -3.70533 
4.95194 -6.66457 1.67096 
4.85666 -6.65717 1.59054 
4.73818 -6.64542 1.43142 
4.61873 -6.65734 1.82211 
4.39043 -6.64625 1.78344 
4.26599 -6.63869 1.72727 
4.16577 -6.6305 1.63325 
4.04335 -6.62273 1.5704 
3.94298 -6.61644 1.52053 
3.8199 -6.60942 1.47552 
3.71783 -6.60242 1.41111 
3.58601 -6.60394 1.5724 
3.47961 -6.6036 1.66651 
3.35719 -6.59541 1.59391 
3.25233 -6.59327 1.64467 
3.12798 -6.58173 1.49622 
3.02723 -6.57588 1.45713 
2.89199 -6.58164 1.72024 
2.78608 -6.58422 1.88139 
2.66465 -6.57095 1.69017 
2.56268 -6.56197 1.57947 
2.43821 -6.56141 1.68593 
2.33543 -6.54953 1.50886 
2.21268 -6.54905 1.61524 
2.10417 -6.54781 1.69063 
1.98061 -6.53608 1.53705 
1.87696 -6.53451 1.59995 
1.74567 -6.53532 1.74462 
1.64178 -6.53683 1.87926 
1.51613 -6.52565 1.74046 
1.41089 -6.53145 1.97578 
1.28502 -6.52543 1.95675 
1.18065 -6.52458 2.0371 
1.0574 -6.51784 1.999 
0.953198 -6.51181 1.9591 
0.720781 -6.52319 2.44592 
0.593806 -6.52372 2.58003 
0.491113 -6.52505 2.70944 
0.361852 -6.51654 2.63598 
0.261752 -6.52267 2.87425 
0.133839 -6.51877 2.9065 
0.0344772 -6.51398 2.89081 
-0.190413 -6.51042 3.02384 
-0.318456 -6.50678 3.06231 
-0.418972 -6.50687 3.16086 
-0.54613 -6.48748 2.83331 
-0.64672 -6.4791 2.73548 
-0.775019 -6.46402 2.50866 
-0.873341 -6.46514 2.62904 
-2.227 -6.19646 -2.30328 
-2.33448 -6.19882 -2.14546 
-2.46833 -6.18331 -2.37668 
-2.57482 -6.17612 -2.44126 
-2.70949 -6.16286 -2.61941 
-2.81392 -6.16183 -2.54314 
-2.94952 -6.1494 -2.70128 
-3.05187 -6.15706 -2.42522 
-3.18796 -6.1447 -2.58109 
-3.30055 -6.12481 -2.93444 
-3.43886 -6.10772 -3.19789 
-3.54563 -6.11188 -2.99889 
-3.68052 -6.09908 -3.16629 
-3.79376 -6.08605 -3.35966 
-3.91669 -6.09831 -2.95717 
-4.02887 -6.08283 -3.20858 
-4.16447 -6.07973 -3.15015 
-4.28071 -6.05549 -3.60076 
-4.42345 -6.03825 -3.86349 
-4.51733 -6.0554 -3.37547 
-6.5762 -5.656 -10.662 
4.63479 -6.60761 1.50574 
4.4974 -6.61142 1.7241 
4.39705 -6.60764 1.73253 
4.26921 -6.59943 1.66533 
4.1674 -6.59361 1.62817 
4.04631 -6.58683 1.58729 
3.94439 -6.57969 1.51996 
3.82096 -6.57337 1.4919 
3.71726 -6.56737 1.45267 
3.5871 -6.56397 1.49827 
3.48214 -6.56494 1.62059 
3.35368 -6.56278 1.69314 
3.2579 -6.55388 1.57938 
3.12822 -6.54865 1.58238 
3.02323 -6.54635 1.62949 
2.89699 -6.54238 1.65835 
2.79084 -6.54545 1.83024 
2.66189 -6.54094 1.84913 
2.56211 -6.52706 1.6247 
2.44254 -6.52054 1.58841 
2.34141 -6.50697 1.37246 
2.21483 -6.50596 1.46978 
2.10852 -6.50501 1.54918 
1.98228 -6.49785 1.50448 
1.87713 -6.49917 1.6352 
1.7468 -6.49912 1.75818 
1.64602 -6.49376 1.73095 
1.51858 -6.48946 1.75341 
1.41707 -6.48414 1.72766 
1.28899 -6.48074 1.77133 
1.18343 -6.48598 1.99278 
1.05783 -6.48005 1.97593 
0.954169 -6.4809 2.09415 
0.823867 -6.48721 2.36371 
0.72483 -6.48326 2.36736 
0.593093 -6.48737 2.58752 
0.492779 -6.48529 2.63535 
0.363544 -6.47957 2.62693 
0.263709 -6.47926 2.71501 
0.135433 -6.47719 2.7896 
0.0361089 -6.47324 2.79347 
-0.190746 -6.46903 2.91272 
-0.315194 -6.47575 3.18624 
-0.418175 -6.46678 3.07804 
-0.543198 -6.44586 2.71558 
-0.64484 -6.44061 2.69172 
-0.774057 -6.42482 2.45126 
-0.872781 -6.42298 2.50305 
-2.09316 -6.16719 -2.22279 
-2.22427 -6.15846 -2.29849 
-2.33614 -6.14602 -2.47824 
-2.46797 -6.13782 -2.54125 
-2.57787 -6.1206 -2.83292 
-2.70968 -6.12185 -2.67827 
-2.80859 -6.12981 -2.4006 
-3.04943 -6.11843 -2.4326 
-3.18517 -6.10371 -2.64197 
-3.29698 -6.09164 -2.81324 
-3.43269 -6.07675 -3.02652 
-3.54109 -6.07694 -2.91859 
-3.67933 -6.06039 -3.16786 
-3.78599 -6.05909 -3.09594 
-4.03006 -6.0405 -3.29087 
-4.16788 -6.03315 -3.32848 
-4.26897 -6.02974 -3.31037 
-4.41621 -6.00632 -3.70924 
-4.51368 -6.01735 -3.36202 
5.75584 -6.44271 -2.4829 
5.50423 -6.44392 -2.21754 
4.63305 -6.57386 1.57606 
4.49819 -6.57715 1.77886 
4.39901 -6.5703 1.71615 
4.27139 -6.56276 1.66445 
4.17195 -6.55567 1.5965 
4.04866 -6.549 1.5607 
3.94425 -6.54676 1.60838 
3.82088 -6.53581 1.47476 
3.72006 -6.53183 1.47922 
3.59234 -6.5249 1.44171 
3.48312 -6.53407 1.75473 
3.35908 -6.52011 1.55308 
3.25805 -6.51969 1.63917 
3.12886 -6.51285 1.60509 
3.02933 -6.50361 1.48802 
2.89668 -6.50561 1.65945 
2.79533 -6.50425 1.72429 
2.66657 -6.49904 1.72719 
2.56506 -6.48908 1.59562 
2.44124 -6.48774 1.68226 
2.34155 -6.47437 1.47119 
2.2132 -6.47299 1.56122 
2.11242 -6.46718 1.52384 
1.98154 -6.46796 1.66552 
1.88227 -6.46327 1.65244 
1.74689 -6.46696 1.86508 
1.65038 -6.4567 1.72187 
1.51968 -6.45583 1.82588 
1.41673 -6.45515 1.90799 
1.29066 -6.45049 1.92085 
1.18896 -6.44625 1.92029 
1.05653 -6.44873 2.10252 
0.954862 -6.44634 2.1443 
0.827862 -6.44917 2.3295 
0.725449 -6.45225 2.49687 
0.595697 -6.44891 2.54356 
0.494682 -6.44992 2.66244 
0.366074 -6.44403 2.64972 
0.265322 -6.44061 2.66713 
0.140731 -6.43582 2.67577 
0.0386358 -6.43307 2.70972 
-0.088377 -6.4401 2.99076 
-0.188825 -6.43805 3.03924 
-0.311108 -6.4367 3.12436 
-0.415056 -6.43735 3.23786 
-0.541661 -6.41358 2.81452 
-0.643542 -6.39903 2.57838 
-0.77076 -6.3887 2.46288 
-0.871286 -6.38132 2.38948 
-2.08818 -6.13534 -2.0801 
-2.22825 -6.10694 -2.59669 
-2.33301 -6.11191 -2.38362 
-2.46599 -6.10005 -2.52842 
-2.57296 -6.09248 -2.59999 
-2.69821 -6.09943 -2.32237 
-2.81151 -6.08084 -2.63971 
-2.94599 -6.07856 -2.56431 
-3.0508 -6.07346 -2.58136 
-3.18951 -6.05369 -2.90185 
-3.29926 -6.04885 -2.90828 
-3.4309 -6.04147 -2.9519 
-3.54385 -6.03053 -3.0948 
-3.67491 -6.02502 -3.09636 
-3.78389 -6.01805 -3.15241 
-3.91612 -6.0167 -3.0577 
-4.01982 -6.01254 -3.05423 
-4.17181 -5.98743 -3.48416 
-4.26984 -5.98846 -3.36745 
-4.41238 -5.96823 -3.69471 
-4.52989 -5.95716 -3.8361 
-6.31545 -5.58631 -10.6208 
-6.58892 -5.55623 -11.0488 
6.02977 -6.39036 -3.06737 
5.7783 -6.38865 -2.87012 
4.50949 -6.52834 1.49275 
4.40322 -6.53093 1.65165 
4.28184 -6.51787 1.46936 
4.1784 -6.51297 1.45542 
4.0468 -6.51444 1.61262 
3.94917 -6.50706 1.53706 
3.82531 -6.49874 1.46479 
3.72264 -6.49456 1.46657 
3.58779 -6.49507 1.60496 
3.48746 -6.49379 1.67028 
3.35789 -6.49019 1.71059 
3.25606 -6.48674 1.72818 
3.13336 -6.47424 1.55992 
3.02966 -6.47028 1.56767 
2.89865 -6.46796 1.63846 
2.79572 -6.47134 1.81214 
2.6688 -6.46248 1.73048 
2.56906 -6.45457 1.64484 
2.4408 -6.44958 1.65251 
2.34087 -6.44301 1.59729 
2.214 -6.43757 1.59342 
2.11256 -6.4352 1.63516 
1.98262 -6.43279 1.70277 
1.88296 -6.43206 1.78025 
1.64886 -6.42647 1.87379 
1.52104 -6.4187 1.81787 
1.42107 -6.41271 1.77616 
1.29231 -6.40632 1.75231 
1.1879 -6.4089 1.90932 
1.06233 -6.40822 2.01232 
0.958041 -6.40833 2.11314 
0.725011 -6.41932 2.58215 
0.598432 -6.41191 2.53326 
0.496051 -6.41285 2.65115 
0.369192 -6.41039 2.71485 
0.267771 -6.40766 2.74868 
0.140936 -6.4064 2.8395 
0.0398839 -6.3962 2.70328 
-0.186575 -6.39805 2.95883 
-0.308929 -6.3965 3.03894 
-0.412988 -6.39974 3.2108 
-0.542463 -6.36167 2.46866 
-0.641686 -6.36465 2.62991 
-0.769112 -6.35458 2.52139 
-2.08317 -6.09366 -2.16269 
-2.22654 -6.07297 -2.49717 
-2.3324 -6.06627 -2.5494 
-2.46432 -6.05988 -2.56998 
-2.57294 -6.04842 -2.72767 
-2.70364 -6.05299 -2.50065 
-2.81028 -6.04084 -2.67578 
-3.04789 -6.03711 -2.53618 
-3.18536 -6.02426 -2.69828 
-3.30378 -6.00371 -3.05311 
-3.42952 -6.00328 -2.94402 
-3.54364 -5.98877 -3.16581 
-3.6699 -5.99096 -2.99683 
-3.76821 -6.00221 -2.64862 
-4.02514 -5.96382 -3.27763 
-4.17056 -5.94569 -3.55205 
-4.26814 -5.94897 -3.38537 
-4.41009 -5.92969 -3.68917 
-4.53064 -5.91408 -3.92963 
5.87451 -6.36475 -2.64093 
5.78165 -6.34777 -2.93697 
5.53747 -6.34221 -2.83427 
5.23852 -6.38593 -1.56958 
4.41104 -6.48802 1.50493 
4.28432 -6.48042 1.45212 
4.1811 -6.47664 1.46344 
4.05329 -6.47287 1.4982 
3.95076 -6.47039 1.53817 
3.82483 -6.46316 1.49305 
3.72305 -6.45949 1.5056 
3.59187 -6.45662 1.56361 
3.48845 -6.45442 1.61092 
3.35952 -6.44927 1.61545 
3.25912 -6.44761 1.67212 
3.13188 -6.43986 1.61651 
3.03153 -6.4374 1.655 
2.90003 -6.43277 1.67375 
2.79969 -6.43276 1.76758 
2.67038 -6.42364 1.683 
2.57414 -6.41654 1.61319 
2.4408 -6.41502 1.70362 
2.34507 -6.40696 1.61175 
2.21821 -6.39744 1.51596 
2.11559 -6.39804 1.62548 
1.9856 -6.39489 1.67638 
1.88237 -6.39609 1.80003 
1.75113 -6.39097 1.80752 
1.65039 -6.38258 1.71287 
1.5218 -6.38088 1.79501 
1.4204 -6.38252 1.92704 
1.29377 -6.37413 1.85662 
1.1861 -6.37788 2.04206 
1.06107 -6.3784 2.17082 
0.960429 -6.37217 2.12479 
0.729402 -6.36749 2.23568 
0.600036 -6.37407 2.50533 
0.496018 -6.38033 2.74408 
0.369956 -6.37361 2.71057 
0.268803 -6.36677 2.65125 
0.141976 -6.36895 2.81935 
0.0410133 -6.35724 2.65008 
-0.0845722 -6.36669 2.98075 
-0.183761 -6.36506 3.03703 
-0.306699 -6.35562 2.93958 
-0.412738 -6.35232 2.96457 
-0.538366 -6.3326 2.63777 
-0.63931 -6.32002 2.44897 
-0.768776 -6.31019 2.34871 
-0.867075 -6.30955 2.42649 
-1.97767 -6.06495 -2.04615 
-2.08624 -6.05167 -2.24354 
-2.22058 -6.04532 -2.2607 
-2.32821 -6.03669 -2.35429 
-2.45803 -6.02711 -2.44852 
-2.5667 -6.02219 -2.45745 
-2.70725 -6.00436 -2.72756 
-2.80644 -6.00897 -2.5304 
-3.04843 -5.99303 -2.66282 
-3.18348 -5.98597 -2.69504 
-3.2992 -5.96671 -3.02075 
-3.42145 -5.97498 -2.7195 
-3.5434 -5.94922 -3.18583 
-3.67259 -5.94468 -3.16701 
-3.78563 -5.93434 -3.29401 
-4.02067 -5.92752 -3.22707 
-4.16295 -5.91563 -3.36143 
-4.27511 -5.90041 -3.59928 
-4.41377 -5.88573 -3.80015 
-6.55828 -5.50895 -10.2815 
6.04238 -6.3062 -3.2572 
5.87927 -6.32334 -2.72219 
5.78474 -6.31155 -2.89834 
5.53227 -6.31265 -2.63921 
5.39402 -6.31472 -2.46437 
4.42501 -6.43802 1.19594 
4.29667 -6.43231 1.18747 
4.18952 -6.43305 1.30363 
4.05918 -6.43125 1.3847 
3.95738 -6.42803 1.40723 
3.82767 -6.42449 1.44876 
3.72547 -6.42315 1.51396 
3.59525 -6.42014 1.56773 
3.49352 -6.41612 1.57248 
3.36566 -6.40825 1.51518 
