ply
format ascii 1.0
element vertex 1734
property float x
property float y
property float z
end_header
4.17645 -5.83178 -1.18993 
4.07239 -5.82594 -1.21954 
3.93224 -5.84185 -0.771241 
3.82637 -5.84236 -0.668886 
3.58323 -5.84085 -0.488669 
3.45162 -5.84076 -0.376141 
3.34404 -5.84077 -0.282577 
3.21713 -5.83258 -0.340323 
3.1109 -5.83226 -0.254677 
2.9761 -5.84733 0.171716 
2.87356 -5.83636 0.0355606 
2.73446 -5.85041 0.444853 
2.64426 -5.82725 0.0479568 
2.5042 -5.83606 0.350354 
2.40696 -5.82315 0.169949 
2.26871 -5.83345 0.501509 
2.16523 -5.82908 0.501688 
2.03285 -5.8257 0.547481 
1.93534 -5.8136 0.383896 
1.79646 -5.82753 0.790476 
1.69675 -5.81935 0.709296 
1.55845 -5.8396 1.24525 
1.45567 -5.83058 1.14952 
1.33755 -5.81137 0.857855 
1.23161 -5.80804 0.881506 
1.10287 -5.79762 0.779468 
1.00253 -5.79691 0.852352 
0.770278 -5.78421 0.793436 
0.639375 -5.7765 0.749153 
0.538033 -5.77622 0.83141 
-1.91413 -5.64682 0.308931 
-2.01738 -5.63991 0.257003 
-2.14743 -5.6392 0.355803 
-2.252 -5.63236 0.306291 
-2.3805 -5.62864 0.34196 
-2.48131 -5.62075 0.267708 
-2.61522 -5.6118 0.200503 
-2.7144 -5.61441 0.340546 
-2.9496 -5.6 0.24961 
-3.0771 -5.59368 0.230921 
-3.18659 -5.58196 0.0857597 
-3.31669 -5.57226 -5.1842e-05 
-3.42176 -5.56743 -0.00781004 
-3.55058 -5.56611 0.077351 
-3.65599 -5.55581 -0.0421533 
-3.89575 -5.54034 -0.15088 
-4.02821 -5.53489 -0.147398 
-4.12639 -5.53661 -0.0264509 
-4.26798 -5.51693 -0.307096 
-4.35791 -5.52464 -0.0703242 
-4.50994 -5.50072 -0.429052 
-4.61559 -5.49115 -0.533472 
-4.84716 -5.48788 -0.398691 
-4.97817 -5.48028 -0.440388 
-5.08561 -5.47426 -0.470435 
-5.23365 -5.44987 -0.842143 
-5.33008 -5.4553 -0.646402 
-5.46008 -5.44836 -0.675529 
-5.57667 -5.43426 -0.863362 
-5.81136 -5.42485 -0.852054 
-5.9611 -5.4009 -1.21307 
-6.05879 -5.40239 -1.09722 
-8.34479 -4.94058 -8.58673 
-8.46461 -4.93134 -8.67208 
-8.58654 -4.93687 -8.45185 
-8.71513 -4.92022 -8.68169 
-8.85773 -4.91254 -8.7148 
-8.98536 -4.89796 -8.90298 
5.39985 -5.80381 -2.04871 
5.3001 -5.79608 -2.12026 
5.15045 -5.80633 -1.78205 
5.03821 -5.80774 -1.65641 
4.91338 -5.79477 -1.81309 
4.80251 -5.79624 -1.68752 
4.55281 -5.80042 -1.38665 
4.40685 -5.80979 -1.06939 
4.30688 -5.80172 -1.14776 
4.16775 -5.81544 -0.747599 
4.07171 -5.794 -1.10203 
3.92675 -5.8111 -0.628095 
3.82603 -5.80268 -0.712691 
3.58977 -5.79734 -0.617556 
3.45373 -5.80315 -0.381428 
3.34742 -5.80089 -0.335719 
3.22096 -5.79716 -0.302407 
3.11229 -5.80293 -0.0907673 
2.98388 -5.80219 0.00514983 
2.87746 -5.79493 -0.0510504 
2.64211 -5.796 0.174319 
2.51187 -5.79291 0.223835 
2.40355 -5.79318 0.323018 
2.27378 -5.79112 0.393224 
2.16935 -5.78928 0.446093 
2.04155 -5.78152 0.398292 
1.93344 -5.7817 0.495569 
1.79999 -5.79114 0.803446 
1.69894 -5.78162 0.696647 
1.56104 -5.79459 1.08048 
1.45911 -5.79498 1.17668 
1.33797 -5.7751 0.875958 
1.23635 -5.77507 0.963192 
1.10681 -5.76196 0.807818 
1.00455 -5.76022 0.860819 
0.771641 -5.7484 0.821313 
-1.68119 -5.61318 0.186538 
-1.78722 -5.60789 0.170608 
-1.91179 -5.60595 0.238983 
-2.01039 -5.61021 0.411362 
-2.14885 -5.59468 0.214409 
-2.25202 -5.58887 0.185304 
-2.37886 -5.58813 0.280028 
-2.48366 -5.58032 0.211677 
-2.61693 -5.56026 -0.0821887 
-2.71734 -5.56388 0.0787056 
-2.84668 -5.56475 0.208564 
-2.95207 -5.55687 0.139172 
-3.08213 -5.55101 0.132414 
-3.18415 -5.54488 0.0957053 
-3.31797 -5.53344 -0.0217683 
-3.42473 -5.5319 0.0395259 
-3.55136 -5.52778 0.0652525 
-3.65452 -5.51745 -0.0560467 
-3.7852 -5.51282 -0.0371592 
-3.89648 -5.50086 -0.184754 
-4.01845 -5.50655 0.0370501 
-4.1256 -5.49733 -0.0580332 
-4.26413 -5.48118 -0.267434 
-4.3601 -5.48373 -0.132178 
-4.50435 -5.46522 -0.384602 
-4.6047 -5.46412 -0.320126 
-4.851 -5.44432 -0.510367 
-4.97003 -5.44832 -0.325543 
-5.08936 -5.42962 -0.603426 
-5.22675 -5.41657 -0.750655 
-5.33047 -5.41451 -0.702501 
-5.46068 -5.4075 -0.732572 
-5.58127 -5.39102 -0.964142 
-5.82271 -5.37192 -1.14444 
-5.96357 -5.35759 -1.31463 
-6.06007 -5.3608 -1.16521 
-8.17464 -4.93044 -8.11164 
-8.34214 -4.90093 -8.56832 
-8.46047 -4.89152 -8.65775 
-8.64012 -4.85514 -9.24398 
-8.68036 -4.90248 -8.24299 
-8.86459 -4.86671 -8.81295 
-8.97536 -4.86197 -8.8135 
5.42052 -5.75043 -2.38108 
5.29588 -5.76273 -2.02465 
5.14717 -5.7726 -1.69712 
5.03512 -5.77311 -1.59054 
4.90361 -5.76807 -1.57954 
4.80552 -5.75901 -1.67903 
4.54836 -5.76748 -1.28636 
4.42219 -5.76124 -1.30444 
4.31575 -5.75728 -1.29324 
4.17281 -5.77077 -0.896974 
4.06272 -5.77642 -0.687787 
3.93416 -5.766 -0.788463 
3.82393 -5.7769 -0.472726 
3.59106 -5.76352 -0.543704 
3.45489 -5.76732 -0.349567 
3.35065 -5.76294 -0.34886 
3.21366 -5.77807 0.0757328 
3.10958 -5.77152 0.0324259 
2.98598 -5.76226 -0.0489798 
2.87776 -5.76238 0.046517 
2.7421 -5.7683 0.283204 
2.64414 -5.75605 0.119293 
2.5095 -5.76021 0.31936 
2.40223 -5.75851 0.377187 
2.27637 -5.75532 0.420818 
2.17054 -5.75355 0.476159 
2.04262 -5.74708 0.454967 
1.93712 -5.74166 0.436004 
1.8072 -5.74265 0.567786 
1.70405 -5.74184 0.640117 
1.56699 -5.75252 0.974667 
1.46633 -5.74921 0.994231 
1.33952 -5.73932 0.902934 
1.23473 -5.73224 0.849584 
1.10713 -5.72613 0.835666 
1.00317 -5.71953 0.791394 
0.77542 -5.71231 0.841146 
0.646248 -5.70057 0.714281 
0.544363 -5.69917 0.773735 
0.412435 -5.69791 0.861723 
0.309107 -5.69578 0.907648 
0.183563 -5.68504 0.797973 
0.0805745 -5.67569 0.697212 
-1.44609 -5.586 0.194354 
-1.54628 -5.58853 0.331996 
-1.67647 -5.58423 0.357047 
-1.7842 -5.57358 0.233999 
-1.90708 -5.57341 0.336683 
-2.0129 -5.56548 0.267096 
-2.14248 -5.56619 0.393104 
-2.24869 -5.55005 0.157527 
-2.37959 -5.54256 0.118542 
-2.47976 -5.54568 0.268128 
-2.61174 -5.53061 0.0765696 
-2.71548 -5.52847 0.122546 
-2.9492 -5.52554 0.264673 
-3.07888 -5.51266 0.115508 
-3.18305 -5.50728 0.0962015 
-3.31363 -5.50234 0.108709 
-3.41767 -5.49875 0.125777 
-3.55034 -5.48878 0.0380643 
-3.64762 -5.48865 0.119436 
-3.77913 -5.4826 0.110217 
-3.89096 -5.46732 -0.103186 
-4.01314 -5.47088 0.074591 
-4.11995 -5.46372 0.0215101 
-4.26528 -5.44136 -0.306385 
-4.36206 -5.44239 -0.202051 
-4.50117 -5.42979 -0.337297 
-4.60434 -5.42357 -0.374422 
-4.84875 -5.40547 -0.530502 
-4.99107 -5.38817 -0.758243 
-5.08797 -5.39285 -0.579853 
-5.20907 -5.392 -0.492455 
-5.32794 -5.3777 -0.679799 
-5.46958 -5.35988 -0.918829 
-5.57044 -5.36031 -0.822846 
-5.82587 -5.32878 -1.24164 
-5.9655 -5.31679 -1.36414 
-6.07053 -5.31103 -1.39026 
-8.32702 -4.87137 -8.35646 
-8.44271 -4.86285 -8.42917 
-8.61129 -4.83471 -8.85408 
-8.68858 -4.85607 -8.3542 
-8.96574 -4.82515 -8.74168 
5.41549 -5.72051 -2.2148 
5.30213 -5.72286 -2.07067 
5.15307 -5.73114 -1.77643 
5.0433 -5.72784 -1.74913 
4.92178 -5.71604 -1.88286 
4.80341 -5.72207 -1.66029 
4.55202 -5.72782 -1.32965 
4.41394 -5.73683 -1.03007 
4.30805 -5.72967 -1.08381 
4.17907 -5.7282 -1.0031 
4.06848 -5.73409 -0.789756 
3.93466 -5.73054 -0.74688 
3.83175 -5.72968 -0.676213 
3.5934 -5.72275 -0.611733 
3.45335 -5.73577 -0.229716 
3.35024 -5.73572 -0.142569 
3.21695 -5.73764 0.0103119 
3.11505 -5.7236 -0.185365 
2.98943 -5.72196 -0.110783 
2.88713 -5.71271 -0.209582 
2.74302 -5.73368 0.336147 
2.64469 -5.71822 0.109002 
2.50532 -5.73442 0.55453 
2.40723 -5.71845 0.316935 
2.27188 -5.72686 0.602066 
2.17226 -5.71956 0.540343 
2.04728 -5.70211 0.295974 
1.94042 -5.702 0.385146 
1.808 -5.7109 0.677862 
1.70455 -5.71055 0.759407 
1.57112 -5.70943 0.85116 
1.46846 -5.709 0.930429 
1.34134 -5.70261 0.910667 
1.23732 -5.69729 0.892473 
1.1108 -5.68771 0.807917 
1.00531 -5.67963 0.735681 
0.775859 -5.6764 0.867058 
0.647861 -5.6653 0.753171 
0.544041 -5.66376 0.811165 
0.414603 -5.65929 0.831964 
0.311229 -5.65496 0.833397 
0.185288 -5.64992 0.839757 
0.0794185 -5.64052 0.741176 
-1.20731 -5.57258 0.475711 
-1.31179 -5.56805 0.474131 
-1.43922 -5.55435 0.307395 
-1.54337 -5.54787 0.266182 
-1.67523 -5.53983 0.217367 
-1.78024 -5.54095 0.329805 
-1.90615 -5.53178 0.253195 
-2.00916 -5.52892 0.283982 
-2.14301 -5.51738 0.166283 
-2.24698 -5.5156 0.219648 
-2.37656 -5.51114 0.240938 
-2.47753 -5.51207 0.346439 
-2.60843 -5.49786 0.172379 
-2.7137 -5.49419 0.188826 
-2.84062 -5.49187 0.251002 
-2.94894 -5.48053 0.115497 
-3.07473 -5.47872 0.186958 
-3.17915 -5.4773 0.248091 
-3.31183 -5.46488 0.111628 
-3.41274 -5.46706 0.242316 
-3.55265 -5.44485 -0.085086 
-3.65109 -5.44721 0.0468866 
-3.77812 -5.44737 0.159224 
-3.88815 -5.43333 -0.0291547 
-4.01836 -5.42534 -0.0783076 
-4.1215 -5.42575 0.0185372 
-4.25533 -5.41572 -0.0686661 
-4.35099 -5.41851 0.0697648 
-4.49501 -5.3958 -0.26421 
-4.60231 -5.38794 -0.330325 
-4.84168 -5.37154 -0.455202 
-4.97783 -5.36312 -0.507941 
-5.07651 -5.36406 -0.404107 
-5.22428 -5.34031 -0.755682 
-5.31826 -5.34786 -0.522887 
-5.58515 -5.31097 -1.03693 
-5.81388 -5.30238 -1.01335 
-5.9587 -5.28353 -1.26873 
-6.0464 -5.29427 -0.976861 
-6.21461 -5.25487 -1.62626 
-8.04407 -4.86662 -7.87727 
-8.17967 -4.84014 -8.29425 
-8.34647 -4.81357 -8.68631 
-8.45541 -4.81096 -8.64532 
-8.60424 -4.79847 -8.76886 
-8.71908 -4.7908 -8.82472 
-8.99639 -4.76204 -9.16583 
5.31004 -5.68033 -2.17054 
5.15698 -5.69054 -1.83613 
5.03573 -5.70132 -1.51723 
4.92057 -5.68042 -1.83755 
4.80607 -5.68156 -1.71735 
4.54845 -5.69611 -1.20701 
4.42014 -5.69228 -1.17448 
4.29637 -5.71286 -0.657279 
4.17622 -5.69775 -0.857342 
4.06961 -5.69905 -0.740619 
3.94284 -5.68381 -0.937735 
3.83038 -5.69673 -0.583531 
3.59108 -5.69219 -0.470497 
3.45665 -5.69864 -0.227098 
3.35974 -5.68051 -0.507455 
3.22008 -5.69942 -0.0100583 
3.12104 -5.68336 -0.24703 
2.98074 -5.70288 0.263151 
2.88599 -5.67927 -0.128689 
2.74809 -5.68659 0.135273 
2.6478 -5.67832 0.0550873 
2.51257 -5.68547 0.313378 
2.41331 -5.67444 0.177208 
2.28162 -5.67345 0.269588 
2.1722 -5.67461 0.38608 
2.04507 -5.67341 0.470359 
1.94292 -5.66654 0.419878 
1.81142 -5.67266 0.654492 
1.70633 -5.66741 0.638936 
1.57324 -5.66929 0.790002 
1.47432 -5.66892 0.867021 
1.34052 -5.66849 0.97226 
1.24045 -5.66047 0.897047 
1.11216 -5.64921 0.781009 
1.00996 -5.64571 0.798126 
0.779077 -5.64022 0.885139 
0.65102 -5.63148 0.819346 
0.549568 -5.62306 0.737194 
0.415937 -5.62421 0.874304 
0.312317 -5.61714 0.821124 
0.188736 -5.60828 0.74919 
0.0839697 -5.60691 0.811013 
-0.0421339 -5.59874 0.755052 
-0.145735 -5.59218 0.712136 
-0.277652 -5.58098 0.600425 
-0.3809 -5.57238 0.516378 
-0.507995 -5.56366 0.450146 
-0.612118 -5.56831 0.632075 
-0.743731 -5.54243 0.226327 
-0.974371 -5.54406 0.455735 
-1.07671 -5.53619 0.385538 
-1.20645 -5.53652 0.502791 
-1.31143 -5.52932 0.448241 
-1.4386 -5.51937 0.3575 
-1.54143 -5.51574 0.37268 
-1.67443 -5.49966 0.164149 
-1.77852 -5.49978 0.255587 
-1.90638 -5.49776 0.324131 
-2.01273 -5.48035 0.0663433 
-2.14431 -5.47906 0.152892 
-2.24669 -5.47178 0.0946812 
-2.3754 -5.47355 0.239997 
-2.47565 -5.47352 0.324884 
-2.60542 -5.46613 0.287795 
-2.71056 -5.45939 0.24272 
-2.94835 -5.43975 0.0525087 
-3.07365 -5.44271 0.218735 
-3.18127 -5.43235 0.103238 
-3.31314 -5.42246 0.0178339 
-3.41558 -5.41915 0.0391724 
-3.54333 -5.41621 0.0894267 
-3.64999 -5.40561 -0.0317638 
-3.78031 -5.40386 0.0445913 
-3.88407 -5.3984 0.0240526 
-4.01593 -5.38714 -0.0887445 
-4.12283 -5.38144 -0.111564 
-4.25183 -5.37826 -0.0650017 
-4.35732 -5.37216 -0.0969035 
-4.49909 -5.35144 -0.390706 
-4.6 -5.35369 -0.259309 
-4.84543 -5.32675 -0.589082 
-4.97567 -5.32683 -0.476115 
-5.08834 -5.31052 -0.706295 
-5.21741 -5.30828 -0.640798 
-5.32113 -5.30463 -0.625284 
-5.47868 -5.26858 -1.21246 
-5.57646 -5.27563 -0.987698 
-5.8302 -5.24676 -1.34868 
-5.96196 -5.23845 -1.40244 
-6.07218 -5.23104 -1.45653 
-6.21117 -5.21809 -1.59711 
-8.32233 -4.79025 -8.35889 
-8.45373 -4.77043 -8.64339 
-8.60107 -4.75834 -8.75949 
-8.6832 -4.77576 -8.3402 
-8.97285 -4.73587 -8.89118 
5.67327 -5.63541 -2.61735 
5.40198 -5.65754 -1.94775 
5.30093 -5.65207 -1.97104 
5.13515 -5.67467 -1.38116 
5.04936 -5.65504 -1.69904 
4.91565 -5.64916 -1.70277 
4.81422 -5.64388 -1.72192 
4.56913 -5.64148 -1.56227 
4.41585 -5.66116 -1.04103 
4.31824 -5.64603 -1.25926 
4.1873 -5.64155 -1.2376 
4.07306 -5.65792 -0.815071 
3.93933 -5.65604 -0.739258 
3.83461 -5.65537 -0.663824 
3.69502 -5.66538 -0.3465 
3.58965 -5.66175 -0.329354 
3.45822 -5.66466 -0.160131 
3.35525 -5.65815 -0.202496 
3.22577 -5.65135 -0.227906 
3.12006 -5.6499 -0.167161 
2.98772 -5.65658 0.0778962 
2.87825 -5.6568 0.174939 
2.746 -5.65676 0.286233 
2.64691 -5.6479 0.193936 
2.51623 -5.64472 0.241515 
2.41256 -5.6412 0.25949 
2.28209 -5.64041 0.354309 
2.17474 -5.64114 0.459884 
2.04595 -5.63889 0.524318 
1.94239 -5.63131 0.461423 
1.80756 -5.64024 0.753285 
1.70871 -5.62908 0.61506 
1.57621 -5.63093 0.764239 
1.47687 -5.62843 0.798936 
1.34544 -5.62451 0.832426 
1.24104 -5.62323 0.89542 
1.11221 -5.61515 0.844042 
1.01119 -5.61242 0.875356 
0.882213 -5.60769 0.890633 
0.77911 -5.5996 0.817277 
0.652173 -5.5863 0.660272 
0.550476 -5.5787 0.595438 
0.418388 -5.59941 1.11951 
0.317913 -5.56065 0.433753 
0.190615 -5.56913 0.710472 
0.0862523 -5.56439 0.704811 
-0.0423082 -5.56269 0.780028 
-0.147648 -5.55149 0.646685 
-0.276064 -5.54237 0.574234 
-0.378034 -5.53946 0.602933 
-0.506321 -5.52566 0.437271 
-0.607812 -5.52316 0.473553 
-0.73895 -5.51273 0.377488 
-0.840162 -5.52011 0.610275 
-0.972455 -5.50255 0.373194 
-1.07482 -5.50914 0.591222 
-1.20421 -5.49261 0.372176 
-1.31163 -5.47787 0.170076 
-1.43446 -5.47851 0.287178 
-1.5412 -5.47232 0.254693 
-1.66905 -5.46944 0.305987 
-1.77381 -5.46553 0.317283 
-2.00658 -5.45654 0.336037 
-2.14365 -5.44012 0.125901 
-2.24064 -5.44627 0.330543 
-2.3691 -5.43778 0.270785 
-2.4742 -5.43491 0.303047 
-2.60675 -5.42204 0.15965 
-2.70959 -5.41576 0.122098 
-2.95061 -5.39288 -0.128438 
-3.07477 -5.39991 0.116979 
-3.17977 -5.39062 0.0213615 
-3.31057 -5.38782 0.0769285 
-3.40838 -5.38655 0.134822 
-3.5482 -5.36837 -0.108136 
-3.64909 -5.36804 -0.0289988 
-3.78507 -5.3566 -0.141008 
-3.90248 -5.33399 -0.490964 
-4.014 -5.34931 -0.091272 
-4.11971 -5.34471 -0.0930614 
-4.24414 -5.34758 0.0699415 
-4.35594 -5.33377 -0.109687 
-4.49931 -5.31247 -0.411773 
-4.60203 -5.31043 -0.364844 
-4.84494 -5.29028 -0.559263 
-4.96574 -5.29434 -0.375602 
-5.07069 -5.28891 -0.394388 
-5.22153 -5.26465 -0.74889 
-5.32207 -5.26167 -0.722575 
-5.45978 -5.2479 -0.879409 
-5.57691 -5.23658 -1.00504 
-5.81558 -5.22107 -1.11072 
-5.94795 -5.21341 -1.15033 
-6.06217 -5.19977 -1.32464 
-8.20026 -4.73991 -8.65667 
-8.34082 -4.73632 -8.60839 
-8.4534 -4.7295 -8.64832 
-8.60042 -4.71745 -8.76279 
-8.70648 -4.71754 -8.67082 
-8.88286 -4.68329 -9.20218 
-8.99245 -4.67957 -9.18283 
5.39782 -5.62277 -1.88373 
5.29472 -5.62292 -1.79397 
5.14526 -5.62972 -1.53357 
5.03517 -5.63303 -1.37541 
4.89458 -5.63401 -1.23776 
4.80742 -5.61093 -1.62055 
4.5545 -5.61839 -1.25988 
4.42087 -5.62103 -1.09524 
4.31163 -5.61933 -1.03659 
4.18084 -5.62045 -0.904321 
4.06361 -5.63743 -0.469733 
3.94372 -5.6145 -0.822116 
3.84585 -5.60232 -0.980327 
3.7014 -5.61927 -0.52349 
3.59314 -5.62189 -0.380329 
3.46666 -5.61358 -0.438 
3.35571 -5.62309 -0.156358 
3.23126 -5.6075 -0.359734 
3.12139 -5.61249 -0.168437 
2.99003 -5.61847 0.0606835 
2.88657 -5.61462 0.0718115 
2.74681 -5.62512 0.397347 
2.65035 -5.60925 0.164979 
2.03969 -5.62075 0.907467 
1.94277 -5.59536 0.487332 
1.81078 -5.5992 0.674544 
1.71411 -5.58945 0.563407 
1.57947 -5.59013 0.690545 
1.47659 -5.59284 0.830902 
1.34676 -5.58972 0.878851 
1.24219 -5.58504 0.874577 
1.11804 -5.57499 0.780795 
1.01407 -5.57248 0.818837 
0.781968 -5.56005 0.768963 
0.652794 -5.54537 0.587818 
0.549733 -5.55073 0.780972 
0.420529 -5.55043 0.884144 
0.316537 -5.55936 1.14842 
0.191488 -5.52896 0.652958 
0.088336 -5.53074 0.775328 
-0.035758 -5.52587 0.783863 
-0.146495 -5.52019 0.765025 
-0.274399 -5.50478 0.568393 
-0.37596 -5.50164 0.592127 
-0.505813 -5.48611 0.394704 
-0.608568 -5.48734 0.50593 
-0.736669 -5.48686 0.604569 
-0.837174 -5.48749 0.702097 
-1.07366 -5.46215 0.400773 
-1.20084 -5.46509 0.566364 
-1.30776 -5.4574 0.504782 
-1.43361 -5.44552 0.376096 
-1.54035 -5.4435 0.426499 
-1.66854 -5.43111 0.289757 
-1.77097 -5.43062 0.366778 
-2.00158 -5.42669 0.483888 
-2.14111 -5.40324 0.138115 
-2.24215 -5.39731 0.106343 
-2.36676 -5.40061 0.276989 
-2.46918 -5.40562 0.46272 
-2.60458 -5.38361 0.141963 
-2.70819 -5.37622 0.0834792 
-2.93908 -5.36774 0.110995 
-3.07499 -5.35783 0.0300554 
-3.18048 -5.35618 0.0865604 
-3.30768 -5.35015 0.0749993 
-3.41214 -5.34316 0.0250166 
-3.53948 -5.34134 0.0967869 
-3.65071 -5.32448 -0.142515 
-3.87759 -5.32837 0.126535 
-4.01673 -5.31015 -0.11613 
-4.11448 -5.30976 -0.0411717 
-4.24404 -5.30891 0.0517088 
-4.34567 -5.30691 0.0981504 
-4.48587 -5.28664 -0.183967 
-4.59411 -5.27695 -0.284071 
-4.82875 -5.26934 -0.235934 
-4.97412 -5.24592 -0.576043 
-5.07306 -5.24688 -0.473308 
-5.22063 -5.22591 -0.763034 
-5.33846 -5.20654 -1.04636 
-5.45913 -5.21156 -0.84483 
-5.56111 -5.21057 -0.77811 
-5.82033 -5.17617 -1.239 
-5.94835 -5.17402 -1.17301 
-6.05528 -5.16895 -1.18268 
-8.3449 -4.69029 -8.71068 
-8.45563 -4.68779 -8.66623 
-8.59674 -4.67747 -8.7508 
-8.71488 -4.66748 -8.84834 
-8.84742 -4.66628 -8.75968 
5.41811 -5.57014 -2.19177 
5.30082 -5.58138 -1.87267 
5.1447 -5.59311 -1.51134 
5.0737 -5.56242 -2.05481 
4.9191 -5.57393 -1.69913 
4.80637 -5.57456 -1.59223 
4.56174 -5.57977 -1.28461 
4.30437 -5.59887 -0.693633 
4.17834 -5.59168 -0.729179 
4.07693 -5.58083 -0.857127 
3.94145 -5.58406 -0.680082 
3.83474 -5.58768 -0.519344 
3.69605 -5.59877 -0.185234 
3.59969 -5.57861 -0.50046 
3.46247 -5.59502 -0.0629143 
3.36161 -5.57779 -0.316769 
3.11857 -5.58477 0.0243293 
2.98721 -5.58863 0.210513 
2.88679 -5.57674 0.0612486 
2.64095 -5.59201 0.567585 
1.80488 -5.58504 1.13273 
1.71028 -5.56225 0.764494 
1.58468 -5.55015 0.632172 
1.47647 -5.55148 0.749132 
1.35306 -5.54923 0.808639 
1.24391 -5.54239 0.765865 
1.12169 -5.53392 0.702199 
1.01646 -5.5328 0.768525 
0.785953 -5.5247 0.803176 
0.653752 -5.51686 0.760073 
0.552371 -5.51058 0.721948 
0.422775 -5.50851 0.790053 
0.319808 -5.51587 1.02127 
0.194244 -5.49315 0.680429 
0.0902206 -5.48777 0.662071 
-0.143177 -5.48088 0.722841 
-0.270586 -5.4656 0.529704 
-0.373205 -5.46401 0.584847 
-0.505239 -5.45516 0.521927 
-0.606407 -5.4556 0.615482 
-0.735393 -5.44414 0.498801 
-0.837859 -5.43593 0.42356 
-0.969256 -5.43715 0.558068 
-1.07129 -5.43537 0.608875 
-1.20129 -5.42457 0.506046 
-1.3046 -5.42069 0.516704 
-1.43439 -5.40469 0.311372 
-1.53769 -5.39617 0.230737 
-1.66645 -5.39584 0.332703 
-1.76984 -5.39845 0.470982 
-1.90049 -5.38164 0.250529 
-2.00333 -5.38183 0.34074 
-2.13832 -5.36526 0.128574 
-2.24137 -5.35807 0.0739808 
-2.36584 -5.37103 0.433526 
-2.46805 -5.36482 0.397419 
-2.59954 -5.35806 0.375269 
-2.70318 -5.34409 0.188011 
-2.83396 -5.34072 0.231781 
-2.93748 -5.33356 0.178295 
-3.06899 -5.32426 0.106122 
-3.17371 -5.32376 0.184519 
-3.30678 -5.30858 -0.00187224 
-3.40705 -5.30911 0.0929064 
-3.53994 -5.29839 -0.00586126 
-3.64581 -5.2952 0.020551 
-3.78172 -5.28 -0.163618 
-3.87923 -5.28394 -0.00418446 
-4.01979 -5.26775 -0.203992 
-4.11398 -5.2715 -0.0509439 
-4.24164 -5.26914 0.0100984 
-4.34725 -5.264 -0.00191148 
-4.49515 -5.23511 -0.445183 
-4.59727 -5.23548 -0.351925 
-4.83849 -5.21897 -0.473183 
-4.96752 -5.21386 -0.464821 
-5.08184 -5.19863 -0.667848 
-5.20341 -5.20417 -0.456589 
-5.32278 -5.1835 -0.762373 
-5.45935 -5.17115 -0.88998 
-5.56301 -5.16817 -0.861221 
-5.81178 -5.14479 -1.11115 
-5.94151 -5.13968 -1.10215 
-6.05235 -5.13232 -1.15333 
-6.20466 -5.10438 -1.57421 
-8.1592 -4.69082 -8.0563 
-8.31895 -4.66858 -8.35888 
-8.41377 -4.67672 -8.11892 
-8.58611 -4.64399 -8.6169 
-8.70988 -4.63015 -8.78464 
-8.97498 -4.6131 -8.89614 
5.38593 -5.56529 -1.51934 
5.30212 -5.54382 -1.86867 
5.15847 -5.54645 -1.69747 
5.04279 -5.55451 -1.44363 
4.9154 -5.54216 -1.57845 
4.81458 -5.53547 -1.62488 
4.56931 -5.5348 -1.43342 
4.41989 -5.55327 -0.948065 
4.31556 -5.54803 -0.963213 
4.17654 -5.55536 -0.704017 
4.06776 -5.56544 -0.416386 
3.94193 -5.55146 -0.584371 
3.84294 -5.54003 -0.724945 
3.6952 -5.56229 -0.16669 
3.59977 -5.54547 -0.415578 
3.46859 -5.54968 -0.223753 
3.22537 -5.54689 -0.0750077 
1.48111 -5.51138 0.689043 
1.35271 -5.51041 0.77749 
1.24831 -5.50624 0.783273 
1.12145 -5.50138 0.794404 
1.01869 -5.49353 0.727155 
0.788705 -5.48744 0.800548 
0.65576 -5.47978 0.762039 
0.554668 -5.47464 0.746136 
0.421745 -5.47093 0.784981 
0.321901 -5.47097 0.869289 
0.195954 -5.45956 0.751747 
0.0906885 -5.44509 0.557175 
-0.14004 -5.43796 0.610833 
-0.26743 -5.43754 0.709253 
-0.370958 -5.42671 0.584439 
-0.503231 -5.4127 0.421429 
-0.604309 -5.41033 0.459687 
-0.732937 -5.40191 0.402848 
-0.8363 -5.39961 0.444522 
-0.967167 -5.40003 0.562117 
-1.06966 -5.39355 0.521393 
-1.19891 -5.39167 0.592888 
-1.30194 -5.38507 0.550246 
-1.43198 -5.37829 0.526546 
-1.53374 -5.37352 0.518592 
-1.66531 -5.35273 0.222653 
-1.7716 -5.34366 0.13444 
-1.9002 -5.34019 0.174277 
-2.00212 -5.34064 0.26858 
-2.13426 -5.33223 0.214878 
-2.23838 -5.32466 0.154136 
-2.36706 -5.33091 0.384105 
-2.4668 -5.32663 0.383916 
-2.60277 -5.30732 0.120678 
-2.70294 -5.31207 0.297364 
-2.94133 -5.29122 0.089814 
-3.06662 -5.28723 0.11676 
-3.17316 -5.2856 0.174246 
-3.30354 -5.27734 0.122152 
-3.40648 -5.27039 0.0725998 
-3.53644 -5.26289 0.0350331 
-3.63786 -5.26418 0.145212 
-3.77609 -5.24739 -0.0670151 
-3.88002 -5.24264 -0.0726369 
-4.01354 -5.23404 -0.128704 
-4.1156 -5.2312 -0.0986411 
-4.25581 -5.21506 -0.29639 
-4.35192 -5.2189 -0.140913 
-4.48902 -5.20425 -0.312113 
-4.59586 -5.19581 -0.387403 
-4.83927 -5.1793 -0.505917 
-4.97557 -5.16542 -0.662861 
-5.07468 -5.16849 -0.519712 
-5.21227 -5.15383 -0.69066 
-5.32012 -5.14721 -0.729661 
-5.4571 -5.13428 -0.867338 
-5.55473 -5.13726 -0.727295 
-5.81046 -5.10629 -1.11773 
-5.9585 -5.08364 -1.43621 
-6.07236 -5.07171 -1.5737 
-6.20845 -5.05966 -1.69505 
-8.31053 -4.6315 -8.29694 
-8.46864 -4.58898 -8.99517 
-8.59593 -4.59374 -8.79531 
-8.67524 -4.61434 -8.32622 
-8.86268 -4.57321 -8.9724 
-8.99565 -4.55549 -9.20709 
5.68991 -5.474 -2.81161 
5.43188 -5.48882 -2.30982 
5.29275 -5.51471 -1.69178 
5.17452 -5.49338 -2.00759 
5.03903 -5.52144 -1.35055 
4.92234 -5.49856 -1.6976 
4.80319 -5.51025 -1.3719 
4.5564 -5.51078 -1.15652 
4.41984 -5.51952 -0.873411 
4.31629 -5.51358 -0.902825 
4.18511 -5.51397 -0.786114 
4.0741 -5.51497 -0.674497 
3.94001 -5.51669 -0.529737 
3.84756 -5.49216 -0.92908 
3.59463 -5.51671 -0.242345 
3.47083 -5.50938 -0.281734 
3.36366 -5.51173 -0.14698 
3.21875 -5.52364 0.204633 
3.12184 -5.51121 0.0440543 
1.25217 -5.46497 0.701504 
1.02223 -5.4512 0.625536 
0.890904 -5.45443 0.797621 
0.787326 -5.4432 0.665818 
0.657428 -5.4414 0.739058 
0.556314 -5.43289 0.65792 
0.42311 -5.43455 0.801025 
0.324977 -5.43249 0.842881 
0.198995 -5.4114 0.53823 
0.0926731 -5.41175 0.633644 
-0.0354129 -5.40942 0.695063 
-0.136703 -5.40209 0.637053 
-0.267173 -5.39781 0.662504 
-0.367716 -5.38806 0.557029 
-0.499893 -5.37684 0.449244 
-0.60165 -5.38136 0.621762 
-0.732935 -5.36199 0.355019 
-0.835362 -5.37052 0.605875 
-1.0673 -5.35376 0.473687 
-1.20045 -5.34076 0.332226 
-1.3011 -5.34372 0.47359 
-1.42698 -5.34673 0.637019 
-1.53092 -5.34432 0.676706 
-1.66447 -5.31608 0.239811 
-1.76849 -5.31357 0.277608 
-1.99708 -5.31958 0.58497 
-2.13249 -5.29327 0.186873 
-2.23095 -5.30324 0.462589 
-2.36198 -5.29569 0.42525 
-2.46509 -5.29394 0.477079 
-2.59606 -5.27637 0.245226 
-2.70497 -5.26568 0.128359 
-2.93723 -5.25516 0.117738 
-3.06136 -5.2593 0.301696 
-3.17627 -5.2393 0.00909146 
-3.3084 -5.23044 -0.0526363 
-3.40589 -5.23263 0.0711167 
-3.53753 -5.22288 -0.00841179 
-3.63401 -5.23001 0.210611 
-3.88132 -5.20334 -0.1011 
-4.00636 -5.20301 -0.00324325 
-4.11356 -5.19409 -0.0868769 
-4.25574 -5.17536 -0.332014 
-4.35487 -5.17727 -0.212269 
-4.48649 -5.16683 -0.305063 
-4.58201 -5.17136 -0.137473 
-4.8357 -5.14444 -0.448522 
-4.97189 -5.12823 -0.64957 
-5.06502 -5.13833 -0.375812 
-5.20684 -5.1192 -0.62884 
-5.31598 -5.11437 -0.63158 
-5.46465 -5.08675 -1.04389 
-5.57052 -5.08305 -1.02729 
-5.81644 -5.05954 -1.27843 
-5.94993 -5.05441 -1.26661 
-6.04645 -5.05738 -1.12838 
-6.21587 -5.00995 -1.90811 
-8.32055 -4.58094 -8.48233 
-8.44767 -4.56484 -8.68864 
-8.60639 -4.54303 -8.97969 
-8.71418 -4.54487 -8.85386 
-8.8563 -4.53577 -8.91187 
-8.9744 -4.52805 -8.96307 
5.66629 -5.46407 -2.24875 
5.40449 -5.47999 -1.72522 
5.31878 -5.45574 -2.12234 
5.17671 -5.45983 -1.92602 
5.06456 -5.46127 -1.80559 
4.9204 -5.46372 -1.63911 
4.81072 -5.46491 -1.52553 
4.5616 -5.46905 -1.23973 
4.41523 -5.4879 -0.754902 
4.3095 -5.48684 -0.688054 
4.18237 -5.47898 -0.734588 
4.08209 -5.47038 -0.817627 
3.94704 -5.47138 -0.686553 
3.84435 -5.47055 -0.617573 
3.6055 -5.45954 -0.632451 
3.46396 -5.48059 -0.109238 
3.36004 -5.47896 -0.0547512 
2.67222 -5.62355 3.30452 
2.45099 -5.60843 3.19594 
2.34954 -5.60048 3.12646 
2.22836 -5.59756 3.17044 
2.12601 -5.58817 3.07412 
1.99766 -5.59003 3.2163 
1.02014 -5.41988 0.742491 
0.791318 -5.40417 0.629013 
0.658116 -5.4065 0.784261 
0.557773 -5.39558 0.656666 
0.426304 -5.39232 0.702775 
0.327221 -5.39485 0.833554 
0.200902 -5.3769 0.591841 
0.0958102 -5.377 0.680861 
-0.136198 -5.36225 0.588635 
-0.265153 -5.35695 0.593156 
-0.364187 -5.35322 0.603351 
-0.498426 -5.34183 0.494731 
-0.600781 -5.33662 0.479084 
-0.731195 -5.33001 0.459615 
-0.834437 -5.32954 0.536213 
-0.961797 -5.32435 0.541596 
-1.06839 -5.31416 0.43334 
-1.19529 -5.31474 0.549618 
-1.29811 -5.30572 0.460917 
-1.42786 -5.29639 0.388468 
-1.53055 -5.29759 0.496642 
-1.66313 -5.27287 0.129657 
-1.76306 -5.2805 0.359801 
-1.89283 -5.27833 0.425486 
-1.99631 -5.27619 0.469983 
-2.13397 -5.24309 -0.0545792 
-2.22971 -5.26892 0.523301 
-2.36247 -5.25527 0.370028 
-2.46331 -5.25222 0.394793 
-2.59323 -5.24185 0.302466 
-2.70131 -5.234 0.240623 
-2.93394 -5.22256 0.213014 
-3.0648 -5.21159 0.109742 
-3.16253 -5.22012 0.355481 
-3.30061 -5.20041 0.0896941 
-3.41097 -5.18384 -0.138471 
-3.53664 -5.18317 -0.0471235 
-3.63637 -5.18271 0.0268091 
-3.7733 -5.16951 -0.114158 
-3.87996 -5.15981 -0.212988 
-4.00308 -5.16876 0.06215 
-4.11329 -5.15532 -0.105888 
-4.25148 -5.14002 -0.286398 
-4.35348 -5.13692 -0.261422 
-4.48605 -5.12872 -0.309796 
-4.59801 -5.11543 -0.473282 
-4.73034 -5.1078 -0.510536 
-4.82182 -5.11822 -0.233547 
-4.96619 -5.09561 -0.54996 
-5.06896 -5.09568 -0.46319 
-5.21133 -5.07452 -0.753395 
-5.32279 -5.06658 -0.814154 
-5.4563 -5.05422 -0.941724 
-5.56859 -5.04526 -1.02133 
-5.69509 -5.04406 -0.939505 
-5.80521 -5.03212 -1.07832 
-5.92649 -5.03625 -0.897939 
-6.06176 -5.00244 -1.43808 
-6.30937 -4.97983 -1.66876 
-8.45824 -4.51192 -8.91547 
-8.59224 -4.51278 -8.78735 
-8.73385 -4.48696 -9.16817 
-8.96644 -4.49348 -8.84872 
5.41932 -5.42871 -1.99655 
5.28511 -5.44953 -1.48682 
5.15369 -5.446 -1.44645 
5.05854 -5.42933 -1.68792 
4.92698 -5.42401 -1.6816 
4.82539 -5.41586 -1.75438 
4.56465 -5.43151 -1.23964 
4.4232 -5.44445 -0.875137 
4.31891 -5.4393 -0.887974 
4.18165 -5.44286 -0.70672 
4.0791 -5.43977 -0.681622 
3.9434 -5.44244 -0.518656 
3.84762 -5.42966 -0.684931 
3.59698 -5.44672 -0.151271 
2.91036 -5.57559 2.886 
2.67698 -5.58399 3.23942 
2.57689 -5.57792 3.20536 
2.45225 -5.57565 3.26456 
2.3493 -5.56452 3.13593 
2.22498 -5.56578 3.2625 
2.1254 -5.56142 3.26093 
1.99883 -5.55388 3.22076 
1.90814 -5.52635 2.76733 
0.562527 -5.36531 0.7878 
0.429156 -5.35376 0.676274 
0.327852 -5.35173 0.720893 
0.203124 -5.3355 0.512371 
0.0980468 -5.33171 0.52639 
-0.132765 -5.31825 0.458569 
-0.263499 -5.31805 0.562597 
-0.3658 -5.31543 0.596607 
-0.496871 -5.29543 0.321165 
-0.599954 -5.30317 0.554782 
-0.728201 -5.30003 0.600209 
-0.833337 -5.28977 0.490212 
-0.962161 -5.28454 0.496259 
-1.07009 -5.26403 0.191753 
-1.19507 -5.27409 0.488053 
-1.29889 -5.26213 0.344163 
-1.42543 -5.25528 0.317249 
-1.52748 -5.26206 0.531644 
-1.65983 -5.24353 0.285269 
-1.75725 -5.26352 0.749265 
-1.89435 -5.23213 0.260223 
-1.99418 -5.23388 0.3762 
-2.13241 -5.2093 0.018741 
-2.36006 -5.21701 0.354672 
-2.46251 -5.2123 0.348868 
-2.59402 -5.20104 0.241497 
-2.70278 -5.19126 0.143718 
-2.93364 -5.18481 0.210717 
-3.06265 -5.17538 0.136272 
-3.16291 -5.1755 0.221533 
-3.30019 -5.16097 0.0560223 
-3.40518 -5.15091 -0.0500729 
-3.53341 -5.14955 0.0297457 
-3.63146 -5.15048 0.128635 
-3.87221 -5.13378 0.0071479 
-3.99835 -5.13374 0.110516 
-4.11198 -5.12141 -0.0321244 
-4.25535 -5.09501 -0.420042 
-4.35597 -5.09349 -0.36601 
-4.48215 -5.09376 -0.256553 
-4.60001 -5.0736 -0.545958 
-4.82754 -5.0699 -0.42888 
-4.96157 -5.06219 -0.465905 
-5.07559 -5.04727 -0.657937 
-5.21006 -5.03737 -0.736818 
-5.32137 -5.02834 -0.818046 
-5.44796 -5.02324 -0.811081 
-5.57027 -5.00143 -1.12849 
-5.81435 -4.9817 -1.30515 
-5.9448 -4.97851 -1.25846 
-6.05432 -4.97053 -1.32103 
-6.20177 -4.94742 -1.6425 
-6.30743 -4.94219 -1.65535 
-8.17245 -4.50825 -8.43948 
-8.33413 -4.487 -8.71345 
-8.4306 -4.49318 -8.51494 
-8.61099 -4.45681 -9.0637 
-8.69283 -4.47528 -8.64147 
-8.85693 -4.45158 -8.96044 
-8.99946 -4.42554 -9.34209 
5.5532 -5.39558 -2.01589 
5.41934 -5.39521 -1.91339 
5.29838 -5.40113 -1.70154 
5.14914 -5.41327 -1.34781 
5.05171 -5.40096 -1.50265 
4.91733 -5.39757 -1.4574 
4.81459 -5.3943 -1.43547 
4.56579 -5.39848 -1.15204 
4.42626 -5.40825 -0.851499 
4.30854 -5.42183 -0.496189 
4.18828 -5.40077 -0.799154 
4.0827 -5.39982 -0.730787 
3.94545 -5.40641 -0.492547 
3.84322 -5.40109 -0.510283 
3.60248 -5.40943 -0.153867 
2.91042 -5.5429 2.95828 
2.81133 -5.5371 2.92884 
2.67039 -5.56642 3.60363 
2.58004 -5.53859 3.14694 
2.4579 -5.53237 3.12865 
2.3508 -5.52918 3.15565 
2.22771 -5.52142 3.10855 
2.12712 -5.52487 3.25693 
2.00488 -5.51235 3.11844 
1.90828 -5.49427 2.853 
1.77208 -5.51195 3.30189 
1.54605 -5.50507 3.35622 
1.44485 -5.50205 3.38173 
1.32191 -5.48841 3.22256 
0.658339 -5.37603 1.62417 
0.560397 -5.33908 1.00006 
0.427516 -5.33323 0.997636 
0.332272 -5.30562 0.54937 
0.203608 -5.29971 0.542149 
0.0990793 -5.29424 0.523756 
-0.132974 -5.28048 0.451811 
-0.262279 -5.28856 0.712128 
-0.366898 -5.26589 0.365745 
-0.494616 -5.26294 0.414352 
-0.59787 -5.26264 0.493558 
-0.724613 -5.26527 0.647704 
-0.836204 -5.24882 0.425766 
-0.960466 -5.24407 0.437131 
-1.06102 -5.24743 0.583929 
-1.19294 -5.22948 0.349831 
-1.29841 -5.22874 0.422355 
-1.42555 -5.21982 0.35688 
-1.52815 -5.22106 0.464707 
-1.65331 -5.20767 0.312287 
-1.75726 -5.21915 0.616629 
-1.89016 -5.20558 0.466994 
-1.99698 -5.19072 0.271375 
-2.22445 -5.20382 0.708164 
-2.35821 -5.18174 0.397 
-2.4619 -5.16974 0.253394 
-2.59121 -5.16597 0.287875 
-2.69949 -5.14907 0.0545345 
-2.93293 -5.14672 0.201608 
-3.05704 -5.13973 0.17033 
-3.16744 -5.13251 0.123567 
-3.29551 -5.12898 0.161517 
-3.39895 -5.11971 0.0698287 
-3.52982 -5.11166 0.0238062 
-3.63051 -5.10768 0.0306877 
-3.76314 -5.10749 0.136245 
-3.87868 -5.08792 -0.142047 
-4.00233 -5.08679 -0.0618027 
-4.10863 -5.08224 -0.0612173 
-4.2502 -5.06085 -0.352557 
-4.35372 -5.05649 -0.350688 
-4.47994 -5.056 -0.256201 
-4.58581 -5.05 -0.283521 
-4.83793 -5.02098 -0.629451 
-4.96525 -5.01937 -0.555468 
-5.06067 -5.02328 -0.402241 
-5.2087 -4.99837 -0.755528 
-5.30417 -5.0044 -0.561931 
-5.45505 -4.97765 -0.947984 
-5.56657 -4.96621 -1.07447 
-5.80554 -4.9531 -1.12765 
-5.93869 -4.94669 -1.14027 
-6.03945 -4.94379 -1.11278 
-6.21402 -4.89403 -1.91809 
-6.30502 -4.90479 -1.63788 
-8.42928 -4.45356 -8.49601 
-8.62766 -4.40266 -9.30357 
-8.68867 -4.43751 -8.5884 
-8.83864 -4.42377 -8.72688 
5.69193 -5.33156 -2.62449 
5.41597 -5.36137 -1.83485 
5.32029 -5.34599 -2.04833 
5.16338 -5.36233 -1.61084 
5.05885 -5.35967 -1.57596 
4.91928 -5.3594 -1.46734 
4.81623 -5.3525 -1.51413 
4.55707 -5.36963 -0.97818 
4.31157 -5.38296 -0.525316 
4.18685 -5.36758 -0.715095 
4.0827 -5.3669 -0.643063 
2.90558 -5.51889 3.19825 
2.81052 -5.50803 3.0699 
2.67665 -5.51887 3.38472 
2.58219 -5.49655 3.03878 
2.45575 -5.50774 3.35415 
2.35005 -5.50509 3.39025 
2.23052 -5.49067 3.21442 
2.12846 -5.49087 3.30158 
2.00364 -5.47474 3.09786 
1.9004 -5.48261 3.33138 
1.67256 -5.47487 3.37063 
1.54576 -5.47542 3.48464 
1.448 -5.46323 3.33359 
1.32491 -5.44453 3.07963 
0.330891 -5.29729 1.10062 
0.100611 -5.25468 0.481099 
-0.131874 -5.25136 0.608279 
-0.26082 -5.24493 0.591769 
-0.362775 -5.24667 0.708166 
-0.491785 -5.22908 0.48006 
-0.595063 -5.23436 0.664596 
-0.725305 -5.21533 0.410253 
-0.831246 -5.21475 0.486014 
-0.958131 -5.21322 0.560727 
-1.06093 -5.19826 0.36122 
-1.19185 -5.19101 0.330778 
-1.29461 -5.19505 0.491438 
-1.42314 -5.17977 0.306865 
-1.52898 -5.18437 0.480706 
-1.65521 -5.16898 0.292078 
-1.75905 -5.1716 0.426606 
-1.99057 -5.16574 0.504942 
-2.22235 -5.15914 0.569418 
-2.35865 -5.13601 0.242513 
-2.45769 -5.13806 0.362346 
-2.59016 -5.12636 0.249014 
-2.69693 -5.12035 0.222435 
-2.93253 -5.1046 0.116718 
-3.0478 -5.12192 0.539298 
-3.165 -5.09586 0.141217 
-3.3005 -5.07964 -0.0553907 
-3.39508 -5.08347 0.0946122 
-3.53059 -5.07048 -0.0406678 
-3.63482 -5.06461 -0.0667503 
-3.7601 -5.06898 0.118761 
-3.87293 -5.05172 -0.116165 
-3.99487 -5.05913 0.124355 
-4.10122 -5.05028 0.043629 
-4.24731 -5.02462 -0.323355 
-4.34874 -5.02396 -0.252725 
-4.48345 -5.01284 -0.353285 
-4.58982 -5.00499 -0.414951 
-4.83097 -4.98684 -0.561646 
-4.95973 -4.98182 -0.55138 
-5.06423 -4.98057 -0.489398 
-5.20066 -4.96774 -0.620839 
-5.30945 -4.95941 -0.689747 
-5.46181 -4.93205 -1.08358 
-5.55242 -4.94119 -0.836095 
-5.79607 -4.9228 -0.985191 
-5.94593 -4.89601 -1.37029 
-6.05757 -4.88368 -1.51251 
-6.19951 -4.86854 -1.68327 
-8.42123 -4.41785 -8.40847 
-8.5725 -4.40351 -8.55632 
-8.67886 -4.40265 -8.48543 
-8.98223 -4.35434 -9.1527 
5.42792 -5.31392 -2.02601 
5.31341 -5.31582 -1.8974 
5.17439 -5.31834 -1.73712 
5.05236 -5.33135 -1.39304 
4.91249 -5.33283 -1.25152 
4.8179 -5.31698 -1.47354 
4.4134 -5.35848 -0.363326 
4.31254 -5.34112 -0.608542 
4.19168 -5.33213 -0.6798 
4.08096 -5.33566 -0.523277 
3.35193 -5.51924 3.52779 
3.14678 -5.4713 2.79125 
3.04086 -5.47616 2.96879 
2.91241 -5.46832 2.92561 
2.67933 -5.48069 3.34803 
2.58373 -5.46502 3.13053 
2.45338 -5.48075 3.53273 
2.3448 -5.48851 3.76729 
2.22773 -5.46174 3.35795 
2.12844 -5.45731 3.35521 
2.00102 -5.45173 3.35363 
1.90313 -5.44836 3.36981 
1.77485 -5.44415 3.39468 
1.67402 -5.44333 3.46124 
1.54973 -5.4232 3.18303 
1.45044 -5.42733 3.34161 
1.32383 -5.42282 3.35945 
1.22288 -5.41943 3.37775 
1.09696 -5.41721 3.43829 
-0.12964 -5.21432 0.61263 
-0.257397 -5.2057 0.554174 
-0.360156 -5.20175 0.563393 
-0.491085 -5.19765 0.592615 
-0.594577 -5.1918 0.566654 
-0.723042 -5.18557 0.553728 
-0.830478 -5.17311 0.406415 
-0.957326 -5.16818 0.416696 
-1.05697 -5.16506 0.438949 
-1.18793 -5.16622 0.567481 
-1.29207 -5.15308 0.404563 
-1.42232 -5.14575 0.372496 
-1.52492 -5.148 0.498298 
-1.65368 -5.13553 0.368112 
-1.75809 -5.13243 0.394774 
-1.88467 -5.13566 0.558798 
-1.98993 -5.11928 0.335686 
-2.12295 -5.11217 0.310138 
-2.21745 -5.13071 0.73645 
-2.35359 -5.10853 0.429381 
-2.45827 -5.09547 0.268435 
-2.59468 -5.07622 0.0168012 
-2.69521 -5.08164 0.200831 
-2.93605 -5.05571 -0.0918082 
-3.05512 -5.0676 0.229392 
-3.16108 -5.05783 0.131479 
-3.29432 -5.04835 0.0615163 
-3.39221 -5.04748 0.124804 
-3.53455 -5.02796 -0.127196 
-3.62603 -5.03622 0.103052 
-3.87317 -5.01086 -0.173446 
-3.99849 -5.01553 0.0167395 
-4.09999 -5.01235 0.0395409 
-4.24987 -4.97796 -0.486443 
-4.34961 -4.98299 -0.310349 
-4.47834 -4.97822 -0.295269 
-4.58361 -4.97017 -0.361179 
-4.72028 -4.95726 -0.49315 
-4.82805 -4.95069 -0.529189 
-4.95971 -4.94304 -0.566007 
-5.0561 -4.94919 -0.371377 
-5.20035 -4.92883 -0.637523 
-5.31041 -4.9194 -0.725485 
-5.46099 -4.89142 -1.1301 
-5.55802 -4.89495 -0.984428 
-5.67465 -4.90376 -0.723225 
-5.80852 -4.86955 -1.25895 
-5.94651 -4.85582 -1.40519 
-6.04819 -4.85519 -1.33402 
-6.19731 -4.83019 -1.68365 
-8.45891 -4.34541 -8.97706 
-8.59887 -4.34166 -8.93359 
-8.7008 -4.34455 -8.79593 
-8.8606 -4.32237 -9.08359 
-8.96759 -4.32243 -8.9951 
5.68238 -5.26842 -2.37431 
5.43011 -5.2765 -2.01932 
5.3086 -5.28199 -1.81838 
5.16533 -5.29249 -1.50591 
5.0713 -5.27828 -1.69617 
4.93852 -5.26892 -1.76415 
4.81471 -5.28243 -1.41121 
4.41637 -5.31875 -0.408957 
4.31506 -5.3066 -0.554636 
4.18312 -5.3106 -0.373101 
3.35441 -5.48212 3.50982 
3.26587 -5.4552 3.07718 
3.13582 -5.45418 3.16332 
3.0387 -5.45 3.16351 
2.90407 -5.46145 3.48687 
2.8104 -5.43991 3.15921 
2.67515 -5.45612 3.57227 
2.58019 -5.44062 3.35873 
2.45155 -5.45168 3.67011 
2.35047 -5.43864 3.50748 
2.22785 -5.43298 3.50076 
2.1304 -5.42152 3.36483 
2.00274 -5.41723 3.38775 
1.90588 -5.41113 3.35185 
1.77404 -5.41698 3.56815 
1.67765 -5.39988 3.32593 
1.54842 -5.40463 3.51942 
1.45081 -5.39292 3.37906 
1.32509 -5.38973 3.42117 
1.22422 -5.3907 3.52096 
1.10029 -5.37767 3.3772 
-0.128071 -5.17963 0.66157 
-0.357375 -5.16682 0.607329 
-0.487929 -5.15287 0.451641 
-0.592233 -5.15558 0.586952 
-0.72476 -5.13934 0.390114 
-0.825716 -5.12971 0.29146 
-0.956203 -5.1386 0.563676 
-1.05771 -5.12924 0.470528 
-1.18826 -5.11866 0.378186 
-1.29229 -5.1157 0.407058 
-1.42165 -5.10688 0.346598 
-1.52606 -5.10593 0.41347 
-1.6534 -5.09093 0.235584 
-1.75705 -5.09471 0.390342 
-1.99013 -5.08293 0.358564 
-2.1181 -5.08663 0.531629 
-2.21417 -5.09044 0.680974 
-2.35362 -5.06763 0.366541 
-2.45459 -5.06318 0.365146 
-2.58997 -5.04708 0.173253 
-2.69231 -5.04547 0.226068 
-2.92635 -5.02427 0.0184951 
-3.05257 -5.02628 0.158607 
-3.16029 -5.01701 0.0722342 
-3.29068 -5.01175 0.0794306 
-3.39948 -5.00027 -0.0472789 
-3.52801 -4.99948 0.0421784 
-3.63412 -4.98744 -0.0974633 
-3.75232 -5.00428 0.314042 
-3.86509 -4.9805 -0.0399812 
-3.99918 -4.97463 -0.0413355 
-4.10312 -4.96849 -0.0720161 
-4.24836 -4.94368 -0.419039 
-4.34672 -4.94556 -0.303962 
-4.4767 -4.93789 -0.342209 
-4.59345 -4.92089 -0.566094 
-4.8406 -4.8989 -0.777517 
-4.94742 -4.91737 -0.34465 
-5.06659 -4.89814 -0.608357 
-5.20104 -4.88634 -0.72025 
-5.31927 -4.87165 -0.899527 
-5.45377 -4.85914 -1.02486 
-5.55334 -4.86101 -0.908923 
-5.79641 -4.8409 -1.08832 
-5.94494 -4.81698 -1.41604 
-6.03568 -4.82804 -1.13498 
-6.19111 -4.79761 -1.57906 
-6.30078 -4.78768 -1.67603 
-8.40486 -4.34685 -8.22893 
-8.60738 -4.2931 -9.07173 
-8.69782 -4.30308 -8.81106 
-8.85711 -4.28106 -9.09445 
5.67573 -5.23689 -2.24885 
5.38851 -5.27714 -1.2686 
5.32308 -5.2339 -2.02123 
5.17575 -5.24661 -1.66599 
5.05173 -5.2636 -1.24994 
4.91765 -5.25313 -1.3371 
4.81836 -5.24492 -1.41021 
4.67139 -5.25998 -1.01154 
4.56965 -5.24681 -1.17484 
4.31908 -5.2665 -0.606696 
4.08616 -5.25831 -0.571781 
3.35811 -5.4439 3.47066 
3.2564 -5.44272 3.53064 
3.13571 -5.42361 3.27183 
3.0397 -5.41345 3.16001 
2.91024 -5.41532 3.29902 
2.81322 -5.40389 3.16431 
2.67895 -5.41848 3.54411 
2.5804 -5.40882 3.44351 
2.45841 -5.4019 3.41303 
2.3531 -5.39767 3.4191 
2.23275 -5.39307 3.43033 
2.12888 -5.39354 3.52274 
2.00548 -5.37983 3.36685 
1.90409 -5.38131 3.47601 
1.77872 -5.367 3.31046 
1.67839 -5.36918 3.43192 
1.54954 -5.37116 3.57273 
1.45259 -5.35998 3.44248 
1.32766 -5.35272 3.40794 
1.22649 -5.35149 3.46669 
1.10516 -5.34264 3.39956 
0.999 -5.33969 3.43023 
-0.353107 -5.11698 0.37199 
-0.486084 -5.11687 0.477091 
-0.590636 -5.11253 0.48055 
-0.720918 -5.09875 0.328962 
-0.824786 -5.10505 0.530144 
-0.95267 -5.09566 0.45834 
-1.05561 -5.09498 0.528614 
-1.18608 -5.0768 0.295196 
-1.29218 -5.07343 0.318015 
-1.42238 -5.06096 0.190835 
-1.52095 -5.06765 0.394983 
-1.65345 -5.05318 0.232361 
-1.75538 -5.0546 0.341009 
-1.88338 -5.05608 0.471954 
-1.9837 -5.05257 0.487498 
-2.11786 -5.04416 0.439164 
-2.21143 -5.05129 0.647404 
-2.35467 -5.02347 0.244712 
-2.44945 -5.03142 0.469339 
-2.58766 -5.01176 0.214649 
-2.69527 -4.9969 0.0246999 
-2.92631 -4.98553 -0.000493422 
-3.05291 -4.99026 0.18987 
-3.15542 -4.98598 0.19287 
-3.28625 -4.9787 0.16282 
-3.39556 -4.96735 0.0396939 
-3.52495 -4.96115 0.0286205 
-3.62739 -4.95427 -0.0167163 
-3.76689 -4.9433 -0.108465 
-3.86625 -4.93784 -0.12991 
-4.00209 -4.93144 -0.13945 
-4.09699 -4.93431 -0.00920452 
-4.24637 -4.90811 -0.376762 
-4.34581 -4.9068 -0.320713 
-4.48746 -4.88563 -0.600762 
-4.58095 -4.89648 -0.323104 
-4.71844 -4.8831 -0.461206 
-4.82605 -4.87462 -0.532205 
-4.94459 -4.88001 -0.335994 
-5.05402 -4.8711 -0.413562 
-5.20048 -4.84613 -0.760405 
-5.30561 -4.84494 -0.697577 
-5.44709 -4.8263 -0.930672 
-5.54634 -4.82862 -0.807223 
-5.69821 -4.79918 -1.23298 
-5.78894 -4.80989 -0.960075 
-5.93427 -4.78737 -1.26208 
-6.04441 -4.77899 -1.32927 
-6.19445 -4.75293 -1.69341 
-8.55638 -4.28867 -8.43397 
-8.67142 -4.28299 -8.4467 
-8.96408 -4.2411 -8.99053 
5.58619 -5.1826 -2.48007 
5.42164 -5.2103 -1.83561 
5.32036 -5.20153 -1.91689 
5.15159 -5.22982 -1.25806 
5.0681 -5.20853 -1.58538 
4.92593 -5.20918 -1.45958 
4.81702 -5.21354 -1.29161 
4.56083 -5.22806 -0.81751 
4.42115 -5.24272 -0.434267 
3.58382 -5.42228 3.56128 
3.4977 -5.38851 3.0051 
3.35128 -5.4222 3.7462 
3.25868 -5.40915 3.57885 
3.13725 -5.38895 3.30206 
3.03832 -5.3833 3.27678 
2.91446 -5.37187 3.16444 
2.81053 -5.37839 3.36846 
2.67863 -5.38438 3.58523 
2.58035 -5.37958 3.57512 
2.45424 -5.38068 3.69663 
2.35356 -5.36435 3.47493 
2.23723 -5.34711 3.24893 
2.13006 -5.36193 3.60935 
2.004 -5.35768 3.63175 
1.90307 -5.35162 3.60057 
1.77836 -5.34305 3.54186 
1.68159 -5.33106 3.39746 
1.55125 -5.33592 3.59194 
1.45512 -5.32485 3.46411 
1.33045 -5.30998 3.28875 
1.22945 -5.30351 3.24991 
1.10268 -5.31791 3.61846 
0.999716 -5.30715 3.50169 
0.877587 -5.30363 3.53457 
0.6494 -5.29199 3.50217 
-0.588713 -5.07147 0.412009 
-0.719898 -5.06199 0.341872 
-0.82216 -5.06075 0.400936 
-0.950526 -5.05946 0.480104 
-1.05471 -5.04949 0.379065 
-1.18328 -5.04788 0.4525 
-1.28891 -5.04232 0.434424 
-1.41453 -5.04119 0.514368 
-1.52 -5.02753 0.346101 
-1.65109 -5.02426 0.390905 
-1.75298 -5.02393 0.466562 
-1.9818 -5.00946 0.382332 
-2.11561 -5.00556 0.41778 
-2.21604 -5.00108 0.415399 
-2.35275 -4.98647 0.254619 
-2.45378 -4.98214 0.255686 
-2.58385 -4.97319 0.19443 
-2.68809 -4.96998 0.218753 
-2.92763 -4.94528 -0.0462328 
-3.05433 -4.94729 0.0928604 
-3.15102 -4.95313 0.27867 
-3.28784 -4.93661 0.0828226 
-3.38627 -4.94083 0.240005 
-3.52548 -4.91781 -0.0743907 
-3.62633 -4.92092 0.0643417 
-3.75457 -4.9183 0.118912 
-3.86812 -4.89693 -0.185625 
-3.99683 -4.90262 0.0231799 
-4.11386 -4.87511 -0.392192 
-4.2445 -4.87023 -0.377545 
-4.33453 -4.88032 -0.118202 
-4.47502 -4.86057 -0.371113 
-4.57677 -4.86204 -0.261966 
-4.70755 -4.85384 -0.308715 
-4.82673 -4.83471 -0.567114 
-4.95625 -4.82936 -0.562052 
-5.05823 -4.82852 -0.495642 
-5.19468 -4.81388 -0.656877 
-5.3046 -4.806 -0.714547 
-5.43487 -4.79872 -0.744474 
-5.55716 -4.77801 -1.02972 
-5.68514 -4.77585 -0.966773 
-5.80749 -4.74958 -1.35501 
-5.93613 -4.7465 -1.30835 
-6.05394 -4.72997 -1.5199 
-6.19101 -4.7158 -1.67199 
-6.46569 -4.66626 -2.36856 
-8.5698 -4.23643 -8.63762 
-8.70164 -4.21856 -8.86243 
-8.98853 -4.17828 -9.3777 
5.67334 -5.16726 -2.13207 
5.41099 -5.18524 -1.59215 
5.1695 -5.17645 -1.5614 
5.05854 -5.18043 -1.3997 
4.92338 -5.17565 -1.38008 
4.81608 -5.17936 -1.2262 
4.67002 -5.19119 -0.892038 
4.56781 -5.18429 -0.9376 
4.32288 -5.19392 -0.564908 
3.59624 -5.36786 3.21685 
3.48286 -5.38139 3.55655 
3.3555 -5.38133 3.65708 
3.26378 -5.36438 3.41807 
3.13562 -5.35966 3.43354 
3.04377 -5.33621 3.07517 
2.90831 -5.35311 3.49432 
2.81219 -5.34221 3.37049 
2.67598 -5.36114 3.82766 
2.58149 -5.34552 3.61543 
2.46032 -5.33638 3.54399 
2.35675 -5.32657 3.44607 
2.23296 -5.32425 3.50212 
2.13265 -5.32067 3.51638 
2.0083 -5.31203 3.45652 
1.90687 -5.30881 3.47828 
1.77913 -5.31049 3.61112 
1.68034 -5.30149 3.52433 
1.55204 -5.29963 3.59254 
1.45608 -5.29201 3.52888 
1.33275 -5.26734 3.17312 
1.22886 -5.28393 3.56158 
1.10714 -5.26996 3.40159 
1.00209 -5.26125 3.32528 
0.877386 -5.27451 3.66893 
0.778822 -5.25537 3.39527 
0.651547 -5.25645 3.51679 
0.551225 -5.24996 3.47751 
0.422892 -5.25473 3.66788 
0.324983 -5.24943 3.64858 
-0.587353 -5.0481 0.670547 
-0.716954 -5.02892 0.420915 
-0.8172 -5.03366 0.58843 
-0.948886 -5.02629 0.557865 
-1.05254 -5.01559 0.443829 
-1.18103 -5.00851 0.416034 
-1.28518 -5.01109 0.546797 
-1.41215 -4.99109 0.280039 
-1.51838 -4.98538 0.259889 
-1.64617 -4.99365 0.514342 
-1.75032 -4.98356 0.411922 
-1.98097 -4.97048 0.35541 
-2.11379 -4.96966 0.446721 
-2.21422 -4.96486 0.438616 
-2.34871 -4.955 0.364539 
-2.45162 -4.94512 0.264953 
-2.58092 -4.94091 0.290933 
-2.68927 -4.92193 0.0280538 
-2.92045 -4.918 0.140741 
-3.05346 -4.91017 0.102852 
-3.15117 -4.91335 0.239713 
-3.28613 -4.89446 -9.45287e-05 
-3.38769 -4.89492 0.0895577 
-3.51785 -4.88866 0.0784177 
-3.62382 -4.88595 0.113344 
-3.75724 -4.87799 0.0735525 
-3.86234 -4.86604 -0.0623151 
-4.00021 -4.85553 -0.14544 
-4.10112 -4.85125 -0.14362 
-4.23572 -4.83933 -0.255256 
-4.34228 -4.83115 -0.320681 
-4.47753 -4.81802 -0.454232 
-4.58593 -4.81102 -0.496284 
-4.71291 -4.80556 -0.495178 
-4.82321 -4.7974 -0.556983 
-4.95259 -4.79266 -0.540752 
-5.05636 -4.78993 -0.507894 
-5.20321 -4.76484 -0.852298 
-5.30719 -4.76405 -0.78355 
-5.43837 -4.75589 -0.828767 
-5.55356 -4.74156 -1.00046 
-5.68083 -4.74003 -0.926633 
-5.80423 -4.71396 -1.30798 
-5.93851 -4.70478 -1.36953 
-6.03943 -4.7058 -1.26981 
-6.1858 -4.68125 -1.60471 
-6.29533 -4.67447 -1.64167 
-8.30931 -4.21373 -8.51426 
-8.56672 -4.19605 -8.63353 
-8.7086 -4.16814 -9.03389 
5.39273 -5.16685 -1.22323 
5.31244 -5.13572 -1.72924 
5.15682 -5.15196 -1.3085 
5.05031 -5.15541 -1.16086 
4.91411 -5.14933 -1.16405 
4.82198 -5.13588 -1.3372 
4.67277 -5.15589 -0.852524 
4.5746 -5.13776 -1.10653 
3.81882 -5.34853 3.35176 
3.58676 -5.35057 3.57344 
3.49086 -5.3331 3.32994 
3.35861 -5.34303 3.61678 
3.25958 -5.34093 3.65692 
3.13372 -5.33306 3.61295 
3.0438 -5.30434 3.15865 
2.91122 -5.31362 3.43383 
2.81211 -5.31148 3.47348 
2.68163 -5.31718 3.68141 
2.58387 -5.30744 3.58091 
2.45529 -5.3149 3.8197 
2.35806 -5.29038 3.44802 
2.23499 -5.29097 3.55665 
2.13666 -5.28061 3.44525 
2.00519 -5.28627 3.6533 
1.9077 -5.27384 3.50328 
1.77853 -5.27689 3.66173 
1.68164 -5.26732 3.56359 
1.55419 -5.26357 3.59632 
1.45661 -5.2572 3.55721 
1.33216 -5.2488 3.5025 
1.23159 -5.24128 3.44485 
1.10585 -5.24613 3.63355 
1.00404 -5.23053 3.42902 
0.777869 -5.23085 3.61471 
0.653371 -5.22953 3.68954 
0.552568 -5.21844 3.56677 
0.425458 -5.21705 3.64233 
-0.713889 -4.99137 0.417013 
-0.816427 -4.98072 0.303675 
-0.946786 -4.98518 0.489001 
-1.05003 -4.98152 0.504282 
-1.1794 -4.97497 0.487399 
-1.28323 -4.96978 0.475013 
-1.4111 -4.9497 0.208994 
-1.5173 -4.94776 0.258179 
-1.64549 -4.94543 0.317571 
-1.75109 -4.93833 0.271585 
-1.88195 -4.93408 0.297935 
-1.97829 -4.93888 0.462627 
-2.11315 -4.92903 0.389651 
-2.2141 -4.9258 0.41094 
-2.35016 -4.91017 0.233046 
-2.44799 -4.9152 0.403074 
-2.58426 -4.89551 0.150989 
-2.68653 -4.89131 0.155713 
-2.9168 -4.89065 0.326993 
-3.04959 -4.87719 0.186312 
-3.15306 -4.86877 0.11452 
-3.28934 -4.85081 -0.105624 
-3.3852 -4.86277 0.189638 
-3.5261 -4.83513 -0.204187 
-3.62938 -4.83612 -0.103765 
-3.75215 -4.84165 0.0954475 
-3.86276 -4.82459 -0.128741 
-4.00159 -4.81246 -0.240352 
-4.10481 -4.80369 -0.318611 
-4.23043 -4.80416 -0.209858 
-4.33837 -4.79617 -0.270038 
-4.48201 -4.77361 -0.568709 
-4.57274 -4.78704 -0.250376 
-4.81148 -4.7714 -0.346461 
-4.9505 -4.75551 -0.526667 
-5.05167 -4.75675 -0.423269 
-5.20463 -4.72481 -0.886136 
-5.31674 -4.71381 -0.998105 
-5.43252 -4.723 -0.737557 
-5.53299 -4.72221 -0.671921 
-5.80335 -4.67379 -1.34287 
-5.93404 -4.67145 -1.28155 
-6.02917 -4.67589 -1.12434 
-6.1807 -4.64835 -1.50768 
-6.30273 -4.62629 -1.81437 
-8.38889 -4.19449 -8.05793 
-8.56206 -4.15907 -8.56831 
-8.69861 -4.13655 -8.87188 
-8.99587 -4.08808 -9.52222 
5.67257 -5.10227 -1.93454 
5.40763 -5.11807 -1.4376 
5.30074 -5.1117 -1.46922 
5.1787 -5.1012 -1.56393 
5.05073 -5.11788 -1.15919 
4.92275 -5.10569 -1.28007 
4.81022 -5.11679 -0.98914 
4.57128 -5.10942 -0.934399 
3.83085 -5.2939 3.00875 
3.58991 -5.31017 3.49547 
3.49109 -5.30382 3.45803 
3.36093 -5.3077 3.63167 
3.26526 -5.29525 3.48077 
3.13406 -5.30055 3.68095 
3.03838 -5.28556 3.48385 
2.90451 -5.29793 3.81497 
2.81006 -5.28383 3.63292 
2.6853 -5.27609 3.59079 
2.58635 -5.26797 3.52122 
2.45864 -5.27182 3.69237 
