ply
format ascii 1.0
element vertex 1786
property float x
property float y
property float z
end_header
-5.41193 -8.16484 0.0602111 
-5.55716 -8.15037 -0.273108 
-5.66313 -8.1461 -0.280493 
-5.91578 -8.12839 -0.580049 
-6.06049 -8.1144 -0.895889 
-6.16419 -8.11148 -0.855871 
-7.87973 -7.87534 -7.23575 
-7.97728 -7.87748 -7.01483 
-8.22412 -7.86853 -6.99428 
-8.41089 -7.84175 -7.72888 
-8.50884 -7.84312 -7.53637 
-8.68579 -7.82191 -8.07631 
-8.7998 -7.81626 -8.12373 
-8.94263 -7.80892 -8.19284 
-9.06732 -7.79961 -8.36191 
5.39544 -8.66057 4.43543 
5.15459 -8.66175 4.82036 
5.04567 -8.66274 5.01142 
4.92186 -8.6584 5.02642 
4.82172 -8.65662 5.10266 
4.69742 -8.65129 5.08156 
4.59355 -8.6508 5.21104 
4.47486 -8.64346 5.10766 
4.3637 -8.64647 5.37705 
4.14786 -8.6355 5.27703 
4.02846 -8.62904 5.20759 
3.93436 -8.62347 5.13503 
3.80763 -8.62057 5.2075 
3.71012 -8.61732 5.22574 
3.59031 -8.60836 5.06429 
3.48989 -8.60677 5.1478 
3.27227 -8.59276 4.93834 
3.15731 -8.5829 4.73667 
3.05735 -8.5787 4.72328 
2.94344 -8.56796 4.48728 
2.84217 -8.56566 4.54615 
2.72013 -8.55974 4.50031 
2.62024 -8.55851 4.5966 
2.50366 -8.54525 4.27151 
2.41041 -8.53793 4.13307 
2.28763 -8.53094 4.04874 
2.18903 -8.52678 4.03459 
2.06552 -8.51784 3.87927 
1.96272 -8.51625 3.96653 
1.84428 -8.50627 3.76537 
1.74237 -8.50247 3.76981 
1.62159 -8.49211 3.55779 
1.51831 -8.49393 3.77222 
1.39501 -8.48952 3.78404 
1.29364 -8.48865 3.89617 
1.17035 -8.48097 3.7872 
1.0701 -8.4791 3.86049 
0.944291 -8.47597 3.92363 
0.836666 -8.4816 4.28527 
0.714481 -8.47542 4.2303 
0.611609 -8.47503 4.36239 
0.488478 -8.47121 4.39606 
0.387437 -8.46917 4.46435 
0.263984 -8.46896 4.63246 
0.163952 -8.46953 4.7958 
0.0375204 -8.47002 4.99396 
-0.059305 -8.47154 5.18832 
-0.184515 -8.46969 5.29815 
-0.284322 -8.46956 5.43552 
-0.407336 -8.46648 5.49631 
-0.504547 -8.46642 5.63266 
-0.629565 -8.4643 5.73218 
-0.727882 -8.46321 5.83207 
-0.848081 -8.46475 6.06026 
-0.945253 -8.46391 6.16742 
-1.16459 -8.4571 6.22766 
-1.28914 -8.44868 6.09321 
-1.38176 -8.45419 6.42953 
-1.50354 -8.44624 6.30839 
-1.60192 -8.44621 6.44749 
-1.72536 -8.43486 6.20296 
-1.82621 -8.43167 6.22867 
-2.05462 -8.41195 5.82337 
-2.18106 -8.40139 5.61241 
-2.27956 -8.39614 5.55845 
-2.40343 -8.39179 5.57361 
-2.50398 -8.38554 5.4853 
-2.63105 -8.37427 5.24909 
-2.73107 -8.36909 5.19979 
-2.96807 -8.34245 4.55059 
-4.22921 -8.18451 0.496668 
-4.35778 -8.17981 0.505679 
-4.47074 -8.16821 0.237102 
-4.59631 -8.16608 0.337358 
-4.69301 -8.16644 0.48875 
-4.93845 -8.14795 0.153642 
-5.07747 -8.13842 -0.00113471 
-5.18196 -8.133 -0.0530146 
-5.32015 -8.1242 -0.181851 
-5.41838 -8.12349 -0.0678357 
-5.55326 -8.11347 -0.247021 
-5.66112 -8.10799 -0.296104 
-5.91553 -8.08932 -0.624696 
-6.05179 -8.08012 -0.771164 
-6.16731 -8.07133 -0.932111 
-7.87416 -7.83669 -7.19179 
-7.96978 -7.84147 -6.8783 
-8.11648 -7.83113 -7.05191 
-8.22275 -7.8286 -6.99387 
-8.38182 -7.81341 -7.32997 
-8.51324 -7.80022 -7.63103 
-8.66928 -7.78722 -7.89 
-8.80163 -7.77473 -8.16388 
-9.05172 -7.76515 -8.16171 
5.38887 -8.62902 4.59573 
5.15598 -8.62621 4.81988 
5.05155 -8.62528 4.93262 
4.92477 -8.62224 4.99915 
4.82173 -8.62297 5.17056 
4.70284 -8.61353 4.99219 
4.59759 -8.61369 5.14585 
4.47177 -8.61086 5.21926 
4.36331 -8.61205 5.41519 
4.14971 -8.59997 5.27324 
4.03183 -8.59243 5.16312 
3.93582 -8.58774 5.1264 
3.81078 -8.58396 5.16383 
3.71187 -8.58106 5.19664 
3.59514 -8.57087 4.98777 
3.49572 -8.56897 5.05812 
3.27391 -8.55723 4.94047 
3.16106 -8.54604 4.68936 
3.06408 -8.53936 4.58122 
2.94629 -8.53136 4.45411 
2.84373 -8.53047 4.56604 
2.72293 -8.52353 4.482 
2.62131 -8.52378 4.63409 
2.50349 -8.50981 4.28829 
2.41069 -8.50468 4.23121 
2.29262 -8.49065 3.88362 
2.19425 -8.48672 3.8782 
2.07186 -8.47639 3.67237 
1.96816 -8.47744 3.85709 
1.84532 -8.47059 3.77912 
1.74589 -8.46418 3.68444 
1.62303 -8.45704 3.59602 
1.52006 -8.45823 3.78448 
1.39709 -8.45217 3.73589 
1.29568 -8.45163 3.85915 
1.17017 -8.44352 3.739 
1.06931 -8.44705 4.01019 
0.94184 -8.44558 4.13594 
0.843368 -8.44139 4.1214 
0.71675 -8.44 4.24902 
0.611055 -8.44301 4.50804 
0.491279 -8.4355 4.40172 
0.38938 -8.43305 4.45583 
0.265061 -8.43286 4.62386 
0.16492 -8.43632 4.89184 
0.0401702 -8.43136 4.88607 
-0.0570505 -8.4342 5.12735 
-0.18312 -8.43226 5.23405 
-0.281935 -8.42946 5.27072 
-0.405785 -8.42933 5.4404 
-0.503848 -8.42875 5.55757 
-0.627473 -8.43008 5.78075 
-0.725151 -8.43103 5.95316 
-0.846757 -8.42991 6.08364 
-1.16234 -8.42188 6.2349 
-1.28858 -8.4127 6.07675 
-1.3794 -8.4206 6.49408 
-1.50289 -8.41012 6.28468 
-1.60136 -8.4084 6.36071 
-1.72172 -8.4004 6.23716 
-1.82347 -8.39639 6.23387 
-2.05224 -8.37686 5.84134 
-2.17993 -8.36326 5.52368 
-2.2745 -8.36438 5.69815 
-2.40623 -8.34787 5.2793 
-2.50272 -8.35101 5.53034 
-2.62818 -8.34029 5.31489 
-2.73188 -8.32936 5.0608 
-2.96939 -8.30336 4.4437 
-4.12692 -8.14846 0.403276 
-4.22796 -8.14741 0.5076 
-4.36547 -8.1347 0.236238 
-4.46784 -8.13159 0.266866 
-4.6 -8.1249 0.208503 
-4.69838 -8.12376 0.305336 
-4.93672 -8.10954 0.121263 
-5.07925 -8.09897 -0.0647573 
-5.17145 -8.10046 0.120198 
-5.31491 -8.08906 -0.0949583 
-5.41551 -8.08495 -0.103231 
-5.54417 -8.08105 -0.0642532 
-5.66661 -8.06697 -0.407344 
-5.90621 -8.05582 -0.47718 
-6.06089 -8.03587 -0.989523 
-6.15813 -8.03734 -0.798341 
-6.29389 -8.02916 -0.906039 
-7.85548 -7.80572 -6.88614 
-7.96336 -7.80331 -6.82202 
-8.22253 -7.78933 -6.96772 
-8.39285 -7.76837 -7.49501 
-8.52532 -7.75366 -7.84662 
-8.67644 -7.74249 -8.04255 
-8.78658 -7.74005 -7.97614 
-9.08144 -7.71115 -8.61831 
5.39749 -8.59037 4.47458 
5.15541 -8.59217 4.87631 
5.05309 -8.59005 4.94199 
4.93564 -8.58301 4.85068 
4.82554 -8.58567 5.0999 
4.70885 -8.57614 4.91718 
4.59647 -8.58025 5.22266 
4.4791 -8.57212 5.09161 
4.36797 -8.57529 5.36093 
4.15416 -8.56266 5.20165 
4.03107 -8.55889 5.23628 
3.94049 -8.55019 5.04768 
3.81704 -8.5457 5.05715 
3.71463 -8.54486 5.16941 
3.59537 -8.53673 5.04111 
3.49536 -8.53445 5.09795 
3.27652 -8.5211 4.91948 
3.16835 -8.50622 4.53135 
3.06488 -8.50455 4.61519 
2.94706 -8.49651 4.48832 
2.84785 -8.49236 4.47622 
2.72513 -8.48693 4.45088 
2.62471 -8.48652 4.57596 
2.51224 -8.4685 4.08032 
2.41501 -8.46564 4.11214 
2.29241 -8.45579 3.92659 
2.19522 -8.45086 3.88372 
2.07515 -8.43848 3.60266 
1.97031 -8.43965 3.79139 
1.84727 -8.43309 3.72542 
1.74733 -8.42812 3.68486 
1.62489 -8.4219 3.63043 
1.52266 -8.42053 3.72318 
1.39735 -8.41685 3.76497 
1.29784 -8.41523 3.84498 
1.17228 -8.40988 3.82653 
1.07135 -8.41036 3.98473 
0.943192 -8.40931 4.12535 
0.844741 -8.40453 4.08963 
0.718109 -8.40442 4.26239 
0.615079 -8.40437 4.40454 
0.493032 -8.39984 4.41081 
0.390513 -8.40049 4.57726 
0.266362 -8.39864 4.68358 
0.166982 -8.39998 4.87093 
0.0424991 -8.39671 4.92639 
-0.0543107 -8.3955 5.01757 
-0.181699 -8.39664 5.23667 
-0.281462 -8.39655 5.37291 
-0.404812 -8.39419 5.45974 
-0.502067 -8.39512 5.62899 
-0.626282 -8.39398 5.76118 
-0.724135 -8.39445 5.91521 
-0.845027 -8.39389 6.06355 
-0.942523 -8.39336 6.18067 
-1.16134 -8.38575 6.21066 
-1.28627 -8.37828 6.11448 
-1.37785 -8.38618 6.52876 
-1.50175 -8.37326 6.23384 
-1.59994 -8.373 6.36169 
-1.72139 -8.3654 6.25623 
-1.82293 -8.35906 6.16849 
-2.04997 -8.34211 5.87176 
-2.17809 -8.32906 5.57797 
-2.27499 -8.32702 5.63956 
-2.40167 -8.31699 5.45357 
-2.50342 -8.31012 5.34689 
-2.6269 -8.30394 5.29552 
-2.72864 -8.29844 5.23873 
-2.96647 -8.26835 4.48105 
-4.2269 -8.10864 0.458008 
-4.35888 -8.10045 0.345942 
-4.46317 -8.09557 0.315042 
-4.59057 -8.09395 0.434475 
-4.7 -8.08302 0.191787 
-4.93288 -8.07333 0.166376 
-5.0791 -8.06045 -0.0956049 
-5.18124 -8.05612 -0.109442 
-5.31959 -8.04688 -0.250712 
-5.41527 -8.04679 -0.120285 
-5.55392 -8.03685 -0.286425 
-5.65767 -8.03335 -0.267961 
-5.90834 -8.0153 -0.571009 
-6.04934 -8.00351 -0.800733 
-6.16075 -7.99683 -0.886829 
-7.85887 -7.76408 -6.94312 
-7.98033 -7.75471 -7.11269 
-8.10905 -7.75336 -6.9813 
-8.26624 -7.72737 -7.70294 
-8.39206 -7.72707 -7.53747 
-8.49855 -7.72444 -7.48377 
-8.69717 -7.69266 -8.35732 
-8.7754 -7.70385 -7.84195 
-9.03578 -7.68962 -7.99299 
5.396 -8.5563 4.5344 
5.16317 -8.55357 4.7571 
5.05667 -8.55364 4.90643 
4.93466 -8.54795 4.87079 
4.83164 -8.54746 4.99508 
4.70234 -8.54504 5.0865 
4.60247 -8.54359 5.1722 
4.47641 -8.53944 5.19743 
4.37237 -8.53827 5.29926 
4.25398 -8.532 5.23805 
4.15454 -8.52807 5.23446 
4.03819 -8.52013 5.11058 
3.93749 -8.51809 5.17621 
3.81873 -8.50986 5.04537 
3.71488 -8.5107 5.21875 
3.59755 -8.50093 5.03077 
3.4994 -8.49741 5.04047 
3.3785 -8.48951 4.92424 
3.27911 -8.48425 4.87301 
3.16661 -8.47375 4.65263 
3.06222 -8.47216 4.73974 
2.94917 -8.46022 4.46836 
2.84972 -8.45712 4.49437 
2.72709 -8.45084 4.43891 
2.62789 -8.44926 4.51928 
2.50948 -8.43712 4.24822 
2.41774 -8.4284 4.06256 
2.29263 -8.42257 4.02672 
2.19696 -8.41528 3.8975 
2.07728 -8.40122 3.55948 
1.96902 -8.40695 3.91408 
1.85028 -8.39539 3.66426 
1.7497 -8.39096 3.64454 
1.62625 -8.38658 3.65812 
1.52439 -8.38375 3.69746 
1.40008 -8.38039 3.74909 
1.29962 -8.37984 3.86825 
1.17425 -8.37236 3.7734 
1.07502 -8.37354 3.95281 
0.946871 -8.36924 3.97613 
0.846459 -8.36844 4.08596 
0.719656 -8.36851 4.26376 
0.618556 -8.36716 4.35516 
0.494894 -8.3626 4.36287 
0.392156 -8.36473 4.58103 
0.266941 -8.36319 4.69907 
0.169975 -8.36037 4.73202 
0.0435766 -8.35947 4.87455 
-0.053611 -8.36161 5.08578 
-0.179925 -8.3623 5.28509 
-0.278877 -8.36051 5.35783 
-0.402618 -8.3589 5.47123 
-0.500254 -8.36216 5.72311 
-0.624807 -8.35524 5.64749 
-0.722319 -8.35985 5.94733 
-0.843783 -8.35709 6.01654 
-0.940399 -8.35897 6.2177 
-1.15914 -8.34982 6.19257 
-1.28336 -8.34364 6.14319 
-1.37766 -8.3463 6.36896 
-1.49913 -8.33976 6.30249 
-1.59995 -8.336 6.30765 
-1.71888 -8.33171 6.31853 
-1.82002 -8.32491 6.21496 
-2.04959 -8.305 5.81938 
-2.17628 -8.29391 5.59744 
-2.27465 -8.28938 5.57133 
-2.40031 -8.28131 5.45636 
-2.49926 -8.27539 5.38132 
-2.6259 -8.26706 5.25808 
-2.72766 -8.26075 5.17296 
-2.95999 -8.23779 4.67241 
-4.12474 -8.0726 0.367751 
-4.22937 -8.06937 0.396703 
-4.35649 -8.06353 0.363769 
-4.45518 -8.06413 0.521669 
-4.59681 -8.04956 0.195925 
-4.69611 -8.04785 0.272471 
-4.93356 -8.03438 0.11888 
-5.0769 -8.02286 -0.0952917 
-5.17368 -8.02205 0.00990311 
-5.31494 -8.01016 -0.220674 
-5.4129 -8.00888 -0.130538 
-5.55278 -7.99825 -0.317527 
-5.66008 -7.99524 -0.276759 
-5.91488 -7.97407 -0.682165 
-6.06078 -7.9586 -1.03409 
-6.16046 -7.95805 -0.915775 
-7.86274 -7.72101 -7.04917 
-8.00333 -7.70273 -7.50929 
-8.21589 -7.71056 -6.93401 
-8.39445 -7.68557 -7.58185 
-8.53619 -7.66733 -8.0387 
-8.67726 -7.66019 -8.09895 
-8.76895 -7.66534 -7.78725 
-8.92384 -7.65182 -8.05667 
-9.0698 -7.63335 -8.51612 
5.39699 -8.52124 4.55412 
5.1661 -8.51748 4.73587 
5.05458 -8.52021 4.9846 
4.93292 -8.51394 4.92876 
4.82792 -8.51567 5.1332 
4.70722 -8.50789 5.02241 
4.60009 -8.51045 5.25936 
4.48284 -8.50182 5.11398 
4.37601 -8.50132 5.24225 
4.15281 -8.49489 5.31932 
4.04125 -8.48362 5.0728 
3.94218 -8.48095 5.11328 
3.82556 -8.47081 4.91356 
3.72178 -8.47176 5.0893 
3.60144 -8.46312 4.94772 
3.50174 -8.46228 5.05417 
3.3808 -8.45443 4.94137 
3.27945 -8.44985 4.9178 
3.16716 -8.43902 4.68796 
3.069 -8.43273 4.59931 
2.9525 -8.4229 4.41053 
2.84762 -8.42456 4.61283 
2.72622 -8.41763 4.53343 
2.51855 -8.39505 4.01767 
2.42008 -8.39223 4.05251 
2.30382 -8.37352 3.54871 
2.20202 -8.37688 3.8072 
2.0751 -8.37099 3.77212 
1.9764 -8.36551 3.71296 
1.85372 -8.35715 3.58464 
1.75054 -8.35448 3.63126 
1.52482 -8.35016 3.78714 
1.40013 -8.34626 3.81967 
1.3025 -8.34194 3.80045 
1.17736 -8.33444 3.70603 
1.07661 -8.33644 3.91478 
0.950969 -8.33169 3.91842 
0.848398 -8.33408 4.14346 
0.618199 -8.33328 4.43024 
0.495875 -8.32776 4.40231 
0.393225 -8.33006 4.62424 
0.269647 -8.32723 4.69318 
0.171015 -8.3258 4.77752 
0.0453174 -8.32424 4.8944 
-0.0513055 -8.32404 5.01981 
-0.17761 -8.32472 5.21673 
-0.277391 -8.32538 5.37674 
-0.401447 -8.32157 5.41196 
-0.499123 -8.32655 5.72205 
-0.623375 -8.32162 5.71776 
-0.719563 -8.32511 5.97291 
-0.84127 -8.32389 6.09676 
-0.939986 -8.31914 6.06372 
-1.15881 -8.31415 6.18659 
-1.28279 -8.30668 6.09209 
-1.37704 -8.30875 6.29447 
-1.49786 -8.3016 6.20688 
-1.59822 -8.30053 6.30641 
-1.72242 -8.28993 6.10133 
-1.81842 -8.28914 6.20485 
-2.04643 -8.27118 5.88102 
-2.17317 -8.26033 5.67053 
-2.26933 -8.25654 5.66803 
-2.39977 -8.2434 5.38133 
-2.4977 -8.24148 5.44749 
-2.62704 -8.22647 5.09322 
-2.72597 -8.22497 5.17565 
-2.96041 -8.19947 4.59375 
-4.12124 -8.03644 0.409822 
-4.22549 -8.03461 0.488061 
-4.36023 -8.02141 0.205311 
-4.46406 -8.01776 0.218392 
-4.5948 -8.01146 0.174422 
-4.69494 -8.01086 0.290693 
-4.93656 -7.99387 0.0200451 
-5.07979 -7.98258 -0.183144 
-5.16458 -7.98936 0.173311 
-5.30583 -7.97756 -0.0510958 
-5.40846 -7.97284 -0.0772801 
-5.54805 -7.96236 -0.257267 
-5.65897 -7.95653 -0.311341 
-5.90564 -7.9399 -0.561983 
-6.05623 -7.92282 -0.960509 
-6.15465 -7.92217 -0.848672 
-7.87445 -7.67544 -7.23078 
-7.95209 -7.68612 -6.74543 
-8.11385 -7.67019 -7.08788 
-8.2314 -7.66142 -7.23731 
-8.40265 -7.64116 -7.71987 
-8.47955 -7.65199 -7.23062 
-8.66433 -7.62502 -7.9325 
-8.78484 -7.61688 -8.05554 
-8.9259 -7.61091 -8.0731 
-9.03694 -7.60691 -8.06246 
5.40257 -8.48353 4.47456 
5.0585 -8.48372 4.94634 
4.93755 -8.47664 4.86178 
4.83532 -8.47697 5.0115 
4.71096 -8.47123 4.97876 
4.60658 -8.47193 5.14436 
4.48394 -8.46653 5.1212 
4.37906 -8.46502 5.21015 
4.15615 -8.45847 5.28228 
4.04208 -8.44884 5.09912 
3.94475 -8.4448 5.0896 
3.82732 -8.43549 4.92233 
3.72092 -8.43851 5.17197 
3.60306 -8.4276 4.94959 
3.50189 -8.42736 5.07812 
3.28289 -8.41328 4.88155 
3.16949 -8.40307 4.6775 
3.07084 -8.39648 4.58002 
2.95418 -8.3877 4.43075 
2.85194 -8.38663 4.53157 
2.72895 -8.38084 4.49545 
2.52479 -8.35522 3.87456 
2.42644 -8.35068 3.84877 
2.30294 -8.34257 3.73189 
2.2031 -8.34179 3.83977 
2.0811 -8.3288 3.55019 
1.97728 -8.33031 3.7437 
1.85522 -8.32149 3.60005 
1.75265 -8.31763 3.60411 
1.62884 -8.31644 3.73017 
1.52656 -8.31469 3.80759 
1.40367 -8.30948 3.79133 
1.30374 -8.30587 3.80044 
1.17898 -8.3 3.76414 
1.08049 -8.29755 3.81152 
0.949676 -8.29946 4.05609 
0.849092 -8.29806 4.14322 
0.72389 -8.29484 4.2004 
0.621721 -8.29348 4.29124 
0.498985 -8.29012 4.33975 
0.397489 -8.28922 4.44613 
0.27176 -8.28986 4.63886 
0.172652 -8.29173 4.8389 
0.0472841 -8.28784 4.87276 
-0.0489386 -8.28506 4.90593 
-0.175647 -8.28509 5.07892 
-0.274431 -8.28363 5.16166 
-0.399834 -8.28938 5.53319 
-0.499188 -8.28725 5.59347 
-0.621108 -8.28466 5.66812 
-0.718539 -8.28889 5.9485 
-0.840418 -8.28698 6.04696 
-0.936894 -8.28719 6.18541 
-1.1577 -8.2765 6.11071 
-1.28197 -8.27009 6.05476 
-1.37407 -8.27446 6.33301 
-1.49423 -8.2696 6.32551 
-1.59704 -8.26534 6.31589 
-1.71862 -8.25642 6.16863 
-1.82011 -8.25087 6.11176 
-2.04575 -8.23439 5.84063 
-2.17362 -8.2202 5.51721 
-2.27056 -8.2189 5.60335 
-2.39762 -8.20858 5.41438 
-2.49689 -8.20366 5.37648 
-2.6251 -8.19132 5.11842 
-2.72629 -8.18701 5.10489 
-2.96495 -8.15502 4.30792 
-4.12251 -7.9952 0.279574 
-4.22093 -7.99921 0.553941 
-4.35745 -7.98389 0.202416 
-4.4563 -7.98546 0.391968 
-4.58978 -7.97612 0.246122 
-4.69586 -7.97085 0.205637 
-4.92861 -7.96255 0.230949 
-5.06569 -7.95382 0.111256 
-5.17004 -7.94547 -0.0394384 
-5.31431 -7.93398 -0.245917 
-5.41231 -7.93124 -0.208643 
-5.54356 -7.92675 -0.187813 
-5.64604 -7.9241 -0.14125 
-5.90658 -7.90061 -0.610279 
-6.06326 -7.88043 -1.10448 
-6.15679 -7.88236 -0.909567 
-7.86466 -7.6387 -7.12779 
-7.97539 -7.63423 -7.13385 
-8.2255 -7.62365 -7.16437 
-8.41141 -7.59584 -7.88631 
-8.50417 -7.5999 -7.61777 
-8.66724 -7.58203 -8.0223 
-8.78176 -7.57742 -8.02795 
-8.91279 -7.57549 -7.91751 
-9.02043 -7.57355 -7.8388 
5.4109 -8.44503 4.36605 
5.06188 -8.44745 4.91703 
4.93791 -8.44207 4.89658 
4.8394 -8.43985 4.95166 
4.70827 -8.43868 5.08688 
4.61297 -8.43423 5.06025 
4.48219 -8.43263 5.18016 
4.37685 -8.43194 5.29742 
4.16144 -8.42116 5.21261 
4.04902 -8.4099 4.97308 
3.94213 -8.41238 5.2022 
3.82481 -8.40304 5.03587 
3.72502 -8.40114 5.10391 
3.60683 -8.39081 4.90457 
3.5029 -8.39079 5.04338 
3.28565 -8.37772 4.88196 
3.17492 -8.36401 4.55525 
3.07307 -8.36035 4.56522 
2.96203 -8.34674 4.24254 
2.85316 -8.35161 4.55746 
2.73881 -8.33802 4.23997 
2.52009 -8.32464 4.06961 
2.43179 -8.31017 3.68676 
2.30228 -8.30855 3.80447 
2.20764 -8.30042 3.64982 
2.08274 -8.29282 3.55394 
1.98092 -8.29486 3.76154 
1.85829 -8.2823 3.49091 
1.75511 -8.28148 3.60102 
1.52856 -8.27946 3.83535 
1.40653 -8.27101 3.70623 
1.3055 -8.27059 3.82734 
1.18025 -8.26444 3.78228 
1.07977 -8.26586 3.96669 
0.952864 -8.26 3.93382 
0.851181 -8.26029 4.08077 
0.624196 -8.25446 4.18357 
0.500752 -8.25286 4.29388 
0.397425 -8.25731 4.58693 
0.274381 -8.25076 4.52528 
0.175228 -8.25241 4.71564 
0.0500376 -8.24858 4.75136 
-0.0491467 -8.25529 5.1171 
-0.174254 -8.25127 5.14597 
-0.272201 -8.24794 5.16203 
-0.397791 -8.25048 5.41906 
-0.497197 -8.25107 5.57328 
-0.620005 -8.24858 5.65198 
-0.718855 -8.25067 5.85734 
-0.838905 -8.24977 5.98744 
-1.15481 -8.24297 6.17667 
-1.27985 -8.23487 6.06408 
-1.37468 -8.23423 6.16942 
-1.49215 -8.23397 6.31819 
-1.59654 -8.22774 6.24284 
-1.71821 -8.21997 6.13723 
-1.81728 -8.21748 6.18423 
-2.04504 -8.19762 5.80189 
-2.17075 -8.18688 5.59876 
-2.26948 -8.18279 5.58991 
-2.3971 -8.17109 5.35609 
-2.49658 -8.16593 5.31097 
-2.62083 -8.16 5.27268 
-2.72448 -8.15049 5.08242 
-2.96021 -8.12368 4.47036 
-4.11853 -7.96151 0.407131 
-4.22651 -7.95486 0.321763 
-4.35564 -7.94704 0.224598 
-4.46284 -7.942 0.194243 
-4.58853 -7.93776 0.216395 
-4.69359 -7.9339 0.224096 
-4.82749 -7.92452 0.0792454 
-4.93209 -7.92151 0.115635 
-5.07456 -7.90832 -0.149713 
-5.16639 -7.90937 0.0102837 
-5.31796 -7.89221 -0.380569 
-5.40528 -7.89849 -0.0449992 
-5.53817 -7.89201 -0.090856 
-5.64919 -7.8841 -0.215327 
-5.8008 -7.86598 -0.639387 
-5.9079 -7.86097 -0.669062 
-6.06113 -7.84244 -1.10494 
-6.15789 -7.84339 -0.941679 
-7.83489 -7.61305 -6.66926 
-7.99094 -7.58608 -7.39442 
-8.10402 -7.59297 -7.00276 
-8.25247 -7.56946 -7.61822 
-8.38691 -7.56654 -7.53814 
-8.49071 -7.56421 -7.47913 
-8.67159 -7.53924 -8.1012 
-8.79202 -7.53161 -8.20336 
-8.93417 -7.52451 -8.25786 
-9.03655 -7.52498 -8.10369 
5.41501 -8.40838 4.32847 
5.07018 -8.40802 4.77338 
4.94841 -8.40279 4.75581 
4.83875 -8.40669 5.0352 
4.71279 -8.40167 5.03 
4.60632 -8.40277 5.20905 
4.48598 -8.39643 5.15167 
4.38062 -8.39569 5.2662 
4.16155 -8.38685 5.25392 
4.05065 -8.37461 4.98173 
3.94848 -8.37386 5.09171 
3.83805 -8.35917 4.73488 
3.72933 -8.36347 5.02683 
3.60908 -8.35495 4.89458 
3.50773 -8.35395 4.99487 
3.29211 -8.33754 4.71902 
3.17403 -8.3304 4.63099 
3.0791 -8.32228 4.47881 
2.96141 -8.31321 4.32441 
2.85249 -8.31848 4.65004 
2.74271 -8.3002 4.169 
2.53213 -8.27897 3.72132 
2.4401 -8.26445 3.34584 
2.31174 -8.26542 3.54995 
2.2079 -8.26636 3.72024 
2.08329 -8.25885 3.62821 
1.98002 -8.25909 3.77385 
1.85827 -8.25087 3.65405 
1.75738 -8.2441 3.55617 
1.63233 -8.24546 3.76918 
1.53177 -8.24105 3.75161 
1.40767 -8.23441 3.68906 
1.30696 -8.23484 3.83794 
1.18232 -8.22722 3.74259 
1.08126 -8.2286 3.92428 
0.954036 -8.22658 4.02442 
0.852601 -8.22637 4.15237 
0.727114 -8.22315 4.20901 
0.6262 -8.21839 4.17989 
0.501521 -8.21915 4.372 
0.398944 -8.22129 4.58188 
0.275888 -8.21781 4.62646 
0.176923 -8.21652 4.71385 
0.0516778 -8.21247 4.74203 
-0.046104 -8.21632 5.00405 
-0.1723 -8.21477 5.11912 
-0.271515 -8.21817 5.36789 
-0.395506 -8.21504 5.42564 
-0.494496 -8.21513 5.56058 
-0.61876 -8.21483 5.71588 
-0.716452 -8.21626 5.89491 
-0.837874 -8.21489 6.00975 
-0.932899 -8.21532 6.15114 
-1.15377 -8.20714 6.16505 
-1.2774 -8.20091 6.11603 
-1.37312 -8.19808 6.14647 
-1.49478 -8.19264 6.12186 
-1.59398 -8.19306 6.26876 
-1.71479 -8.18461 6.13999 
-1.81542 -8.18357 6.23846 
-2.04348 -8.16187 5.79824 
-2.16772 -8.15238 5.63816 
-2.26775 -8.14663 5.57444 
-2.39376 -8.13714 5.417 
-2.4929 -8.13373 5.43211 
-2.62194 -8.11969 5.12243 
-2.721 -8.11659 5.14827 
-2.95748 -8.08845 4.49842 
-4.11998 -7.91904 0.238082 
-4.22058 -7.92143 0.454123 
-4.3504 -7.91211 0.307439 
-4.45754 -7.90716 0.280754 
-4.58552 -7.9007 0.229903 
-4.68664 -7.90083 0.369427 
-4.93591 -7.87921 -0.0397152 
-5.07077 -7.87261 -0.0861878 
-5.16342 -7.87246 0.0322319 
-5.30941 -7.85927 -0.225534 
-5.40443 -7.85895 -0.109654 
-5.55202 -7.84425 -0.416783 
-5.65507 -7.84267 -0.333481 
-5.89821 -7.82757 -0.52697 
-6.05616 -7.80617 -1.05013 
-6.16068 -7.80349 -1.0028 
-6.29419 -7.79742 -1.03269 
-7.88402 -7.54681 -7.50796 
-7.98485 -7.54949 -7.28145 
-8.22498 -7.54267 -7.1947 
-8.3839 -7.52768 -7.49661 
-8.51681 -7.51075 -7.90019 
-8.69186 -7.4877 -8.45709 
-8.74673 -7.51082 -7.5905 
-8.96988 -7.46624 -8.82217 
-9.02412 -7.48905 -7.96699 
5.07256 -8.37224 4.76459 
4.94896 -8.36823 4.79108 
4.84221 -8.36986 4.98688 
4.71928 -8.36406 4.9517 
4.61284 -8.36521 5.13101 
4.49211 -8.35827 5.05438 
4.37991 -8.36192 5.32588 
4.16554 -8.34953 5.18763 
4.05081 -8.34015 5.02061 
3.95518 -8.33461 4.95861 
3.8418 -8.32229 4.68988 
3.73253 -8.32697 4.99234 
3.61208 -8.31952 4.89835 
3.51483 -8.31513 4.87739 
3.39507 -8.30632 4.73617 
3.29978 -8.29777 4.57188 
3.17439 -8.2963 4.68714 
3.08118 -8.28646 4.47596 
2.96839 -8.27284 4.16267 
2.86109 -8.27596 4.40986 
2.75082 -8.25873 3.97052 
2.53713 -8.23751 3.53239 
2.43751 -8.23593 3.61002 
2.31408 -8.22554 3.42005 
2.21088 -8.23091 3.73814 
2.08678 -8.22028 3.54127 
1.98389 -8.21938 3.64617 
1.86081 -8.21254 3.57651 
1.76018 -8.2099 3.61953 
1.6345 -8.20914 3.75966 
1.53377 -8.20496 3.75043 
1.40809 -8.20138 3.79477 
1.30904 -8.19848 3.82708 
1.18361 -8.19287 3.80198 
1.08222 -8.19215 3.91148 
0.954829 -8.19235 4.08617 
0.854232 -8.19146 4.18864 
0.728734 -8.18783 4.2308 
0.626383 -8.18632 4.31462 
0.505177 -8.17934 4.23768 
0.403007 -8.17987 4.39067 
0.278122 -8.1806 4.5802 
0.178874 -8.18083 4.71868 
0.0526837 -8.18152 4.90885 
-0.0439326 -8.17841 4.93077 
-0.170738 -8.18124 5.19405 
-0.269531 -8.18187 5.34583 
-0.394352 -8.18057 5.46638 
-0.494049 -8.17885 5.53982 
-0.616498 -8.17667 5.62731 
-0.714258 -8.18031 5.87981 
-0.834339 -8.18078 6.05446 
-0.932123 -8.17729 6.06497 
-1.15078 -8.17405 6.24383 
-1.27699 -8.16423 6.07717 
-1.37257 -8.16345 6.17692 
-1.49483 -8.15472 6.04237 
-1.59172 -8.15727 6.25664 
-1.70924 -8.15347 6.28292 
-1.81678 -8.14516 6.14317 
-2.0418 -8.12625 5.79855 
-2.16846 -8.1124 5.49578 
-2.26569 -8.11259 5.63055 
-2.39396 -8.09911 5.34263 
-2.49215 -8.09607 5.36907 
-2.62104 -8.08303 5.09684 
-2.72245 -8.07592 4.98972 
-2.95982 -8.04721 4.32877 
-4.11707 -7.88393 0.31657 
-4.22534 -7.877 0.224406 
-4.35725 -7.86731 0.0697077 
-4.45038 -7.87413 0.424534 
-4.58685 -7.86243 0.207845 
-4.68834 -7.85976 0.251159 
-4.92979 -7.84404 0.0370352 
-5.07442 -7.83145 -0.199248 
-5.16323 -7.83326 -0.020294 
-5.30583 -7.82191 -0.216925 
-5.40412 -7.82127 -0.108828 
-5.54641 -7.80937 -0.324461 
-5.66053 -7.80056 -0.472595 
-5.90462 -7.78433 -0.70052 
-6.03634 -7.77818 -0.735059 
-6.15644 -7.76784 -0.927159 
-7.69011 -7.54054 -6.61455 
-7.89516 -7.50027 -7.71017 
-7.97397 -7.51492 -7.10868 
-8.10483 -7.51101 -7.06827 
-8.25533 -7.48742 -7.66982 
-8.38264 -7.48519 -7.57719 
-8.5148 -7.47063 -7.89654 
-8.67796 -7.45238 -8.30008 
-8.8049 -7.44262 -8.46361 
-8.88973 -7.4632 -7.65237 
5.41907 -8.33669 4.31555 
5.07743 -8.33525 4.71219 
4.94358 -8.33642 4.92587 
4.84326 -8.33536 5.02108 
4.72 -8.32927 4.97746 
4.61866 -8.32694 5.03139 
4.5021 -8.31759 4.86955 
4.38815 -8.32331 5.21005 
4.16711 -8.31461 5.20643 
4.05415 -8.30358 4.98353 
3.9507 -8.30382 5.12634 
3.83734 -8.29114 4.84874 
3.73975 -8.28836 4.8829 
3.61806 -8.28139 4.80768 
3.51034 -8.28233 4.9796 
3.29939 -8.26456 4.65861 
3.18245 -8.25605 4.52537 
3.08544 -8.24797 4.3809 
2.97969 -8.22897 3.88101 
2.87077 -8.2336 4.17867 
2.75484 -8.22092 3.9044 
2.53788 -8.20386 3.61494 
2.44201 -8.19343 3.39012 
2.31336 -8.19371 3.56731 
2.21291 -8.19339 3.68778 
2.08825 -8.18403 3.53636 
1.9879 -8.18495 3.69856 
1.86491 -8.17233 3.43557 
1.76003 -8.17575 3.68714 
1.63492 -8.17105 3.69281 
1.53491 -8.16899 3.7543 
1.41171 -8.16169 3.67026 
1.31026 -8.16299 3.84653 
1.18381 -8.15939 3.89084 
1.08631 -8.15553 3.88881 
0.956327 -8.15546 4.05632 
0.856847 -8.15225 4.07865 
0.73199 -8.14918 4.13868 
0.628399 -8.15102 4.3358 
0.505383 -8.14756 4.38046 
0.403914 -8.14777 4.5203 
0.27939 -8.14554 4.60805 
0.180317 -8.14631 4.76368 
0.0552724 -8.14115 4.75399 
-0.0426728 -8.14393 4.97534 
-0.169238 -8.14472 5.16724 
-0.26659 -8.13886 5.0979 
-0.392304 -8.14141 5.34812 
-0.490592 -8.14497 5.59617 
-0.615105 -8.13992 5.58939 
-0.709874 -8.14538 5.89663 
-0.833614 -8.14219 5.95159 
-1.14952 -8.1368 6.18396 
-1.27408 -8.12945 6.09998 
-1.37147 -8.12705 6.14676 
-1.49018 -8.12408 6.20263 
-1.59246 -8.11964 6.18736 
-1.71127 -8.11346 6.13529 
-1.81064 -8.11284 6.24438 
-2.0394 -8.09155 5.82888 
-2.16676 -8.07899 5.5737 
-2.26304 -8.07595 5.59783 
-2.39184 -8.06334 5.34309 
-2.49144 -8.05885 5.3224 
-2.61892 -8.04617 5.06354 
-2.72028 -8.04158 5.04227 
-2.95949 -8.00951 4.27816 
-4.11887 -7.84319 0.210572 
-4.21467 -7.84742 0.477965 
-4.35043 -7.83445 0.220312 
-4.4541 -7.83238 0.286559 
-4.58941 -7.8211 0.0850849 
-4.68526 -7.82376 0.299844 
-4.82599 -7.81085 0.0508006 
-4.9267 -7.80712 0.057351 
-5.05571 -7.80506 0.1573 
-5.17214 -7.78877 -0.237444 
-5.30308 -7.78538 -0.179529 
-5.40715 -7.78057 -0.20501 
-5.54435 -7.77249 -0.296591 
-5.65977 -7.76153 -0.513273 
-5.79006 -7.75479 -0.568975 
-5.90501 -7.74543 -0.732829 
-6.06048 -7.72657 -1.16256 
-6.14655 -7.73361 -0.813159 
-7.96761 -7.47608 -7.07685 
-8.23298 -7.45684 -7.37526 
-8.40136 -7.43545 -7.87297 
-8.4914 -7.44067 -7.57945 
-8.66502 -7.41795 -8.11514 
-8.75994 -7.42224 -7.84631 
-8.94 -7.39939 -8.37799 
5.31445 -8.30021 4.4261 
5.07832 -8.30011 4.72748 
4.94653 -8.3001 4.8974 
4.84509 -8.29902 4.99266 
4.72175 -8.29267 4.94123 
4.61792 -8.2937 5.10944 
4.49875 -8.28533 4.98528 
4.39183 -8.28612 5.14982 
4.16886 -8.27889 5.1978 
4.05774 -8.26735 4.95809 
3.95739 -8.26475 5.00167 
3.83845 -8.25674 4.88933 
3.73912 -8.25436 4.9387 
3.61973 -8.24562 4.80267 
3.51568 -8.24474 4.90798 
3.30261 -8.22653 4.57868 
3.18599 -8.21854 4.46412 
3.07922 -8.21918 4.62356 
2.97654 -8.19773 4.04365 
2.86912 -8.19988 4.25405 
2.74826 -8.19281 4.1757 
2.53414 -8.17494 3.85893 
2.44018 -8.1624 3.56406 
2.31667 -8.15801 3.57809 
2.21515 -8.15334 3.55426 
2.09295 -8.14325 3.37719 
1.98875 -8.14822 3.67743 
1.86607 -8.13735 3.47504 
1.76129 -8.144 3.83148 
1.53585 -8.13356 3.77643 
1.41408 -8.12301 3.58365 
1.3125 -8.12628 3.82403 
1.18631 -8.12273 3.8693 
1.08512 -8.12375 4.03435 
0.959564 -8.11802 4.00673 
0.860538 -8.11194 3.93283 
0.631663 -8.1153 4.34105 
0.507395 -8.11024 4.33404 
0.405186 -8.11127 4.5007 
0.282548 -8.10645 4.49937 
0.181839 -8.11076 4.7732 
0.0571104 -8.10267 4.66603 
-0.0420092 -8.10966 5.02658 
-0.167956 -8.10985 5.19635 
-0.266382 -8.10903 5.29654 
-0.391306 -8.10878 5.45012 
-0.48984 -8.10816 5.55747 
-0.612635 -8.1094 5.75769 
-0.710476 -8.11005 5.90651 
-0.831908 -8.107 5.96253 
-0.929325 -8.10668 6.07828 
-1.1465 -8.1047 6.29404 
-1.27147 -8.09739 6.21306 
-1.36873 -8.09223 6.16778 
-1.48914 -8.08711 6.15385 
-1.58889 -8.08876 6.33796 
-1.71089 -8.07819 6.14494 
-1.81012 -8.0735 6.11796 
-2.03779 -8.05551 5.8154 
-2.16554 -8.04132 5.50928 
-2.26201 -8.03883 5.5518 
-2.39079 -8.0264 5.30575 
-2.49036 -8.02178 5.28133 
-2.61595 -8.0133 5.16238 
-2.71789 -8.00676 5.07759 
-4.11316 -7.81027 0.357016 
-4.22097 -7.80274 0.246508 
-4.34863 -7.79754 0.239536 
-4.45167 -7.79512 0.292749 
-4.59177 -7.78165 0.0268839 
-4.68823 -7.78254 0.181942 
-4.91806 -7.77537 0.242121 
-5.06757 -7.75732 -0.164032 
-5.16229 -7.75818 -0.0122751 
-5.30645 -7.74555 -0.244908 
-5.39478 -7.74787 -0.0529951 
-5.5494 -7.7304 -0.433055 
-5.65138 -7.72765 -0.39179 
-5.90334 -7.70835 -0.706141 
-6.06178 -7.68759 -1.19063 
-6.15428 -7.68985 -0.99512 
-6.28795 -7.68389 -1.01956 
-7.68468 -7.46146 -6.59993 
-7.86369 -7.43629 -7.20423 
-7.95291 -7.44312 -6.86108 
-8.24453 -7.41005 -7.58166 
-8.40346 -7.39397 -7.90969 
-8.51913 -7.38728 -7.98158 
-8.65257 -7.38416 -7.91194 
-8.76162 -7.3809 -7.87853 
-8.95838 -7.34906 -8.68146 
-9.05426 -7.35159 -8.47271 
5.4219 -8.26586 4.33343 
5.07596 -8.26693 4.81136 
4.95444 -8.26192 4.80233 
4.85092 -8.26115 4.90936 
4.72255 -8.25813 4.97452 
4.61948 -8.25862 5.1227 
4.50835 -8.24429 4.79371 
4.39789 -8.24793 5.05507 
4.17346 -8.24142 5.12845 
4.06424 -8.22829 4.83694 
3.9635 -8.22618 4.89647 
3.84353 -8.21813 4.78562 
3.74445 -8.21652 4.85964 
3.6273 -8.20508 4.63371 
3.52295 -8.20518 4.77073 
3.30384 -8.1933 4.66116 
3.18773 -8.18251 4.45505 
3.0876 -8.17877 4.46046 
2.98492 -8.15586 3.83888 
2.87521 -8.15959 4.10215 
2.76173 -8.14573 3.79211 
2.44246 -8.12413 3.49107 
2.3165 -8.12297 3.6145 
2.21856 -8.11917 3.61551 
2.09194 -8.11134 3.52045 
1.99009 -8.10956 3.59251 
1.8674 -8.10304 3.53543 
1.76132 -8.10726 3.81048 
1.53791 -8.09897 3.82458 
1.41487 -8.08791 3.61872 
1.31462 -8.08933 3.79427 
1.19004 -8.0834 3.75894 
1.08772 -8.08411 3.91377 
0.960433 -8.08711 4.17601 
0.859968 -8.08439 4.21536 
0.633014 -8.07852 4.31395 
0.509206 -8.07304 4.29256 
0.407618 -8.07097 4.35495 
0.28384 -8.07138 4.52742 
0.183849 -8.07318 4.71528 
0.0579093 -8.07198 4.83745 
-0.0388873 -8.07152 4.94668 
-0.165661 -8.07535 5.2358 
-0.265283 -8.07605 5.38663 
-0.388992 -8.07267 5.43451 
-0.488865 -8.07048 5.49089 
-0.610704 -8.0683 5.57546 
-0.710301 -8.06988 5.75573 
-0.829528 -8.07361 6.03161 
-1.14545 -8.06764 6.24145 
-1.27136 -8.05859 6.10549 
-1.36658 -8.05603 6.14375 
-1.4874 -8.05279 6.1925 
-1.58677 -8.05098 6.26056 
-1.70869 -8.04093 6.08669 
-1.80907 -8.03906 6.15453 
-2.03802 -8.01728 5.73235 
-2.16352 -8.00632 5.53302 
-2.26142 -8.00162 5.50447 
-2.39066 -7.98696 5.18826 
-2.489 -7.98445 5.23217 
-2.61855 -7.96861 4.87773 
-2.71928 -7.9647 4.87887 
-3.87396 -7.7866 0.504402 
-3.97645 -7.78244 0.499363 
-4.11261 -7.77266 0.352832 
-4.21822 -7.76574 0.26117 
-4.35102 -7.75733 0.15537 
-4.44606 -7.76198 0.430751 
-4.58638 -7.74684 0.113096 
-4.68436 -7.74599 0.211231 
-4.92523 -7.73165 0.0494067 
-5.05991 -7.7247 -0.00580033 
-5.17041 -7.71481 -0.188994 
-5.30857 -7.70495 -0.335632 
-5.40212 -7.70487 -0.217759 
-5.54976 -7.69146 -0.468995 
-5.65048 -7.68853 -0.435714 
-5.9108 -7.66495 -0.876218 
-6.05446 -7.65219 -1.11134 
-6.15356 -7.65149 -1.00657 
-7.86473 -7.39495 -7.24495 
-7.96337 -7.39643 -7.06916 
-8.18316 -7.40174 -6.61118 
-8.4044 -7.35242 -7.94932 
-8.4919 -7.35976 -7.59491 
-8.67677 -7.33069 -8.31338 
-8.77869 -7.33147 -8.15629 
-8.94529 -7.31324 -8.54179 
-9.02622 -7.32338 -8.10365 
5.08091 -8.22967 4.75149 
4.95594 -8.22638 4.80289 
4.85709 -8.22326 4.82682 
4.72663 -8.22082 4.91303 
4.62578 -8.21991 5.01139 
4.50044 -8.21548 5.02628 
4.3978 -8.21302 5.07667 
4.17184 -8.20845 5.21491 
4.06218 -8.19444 4.89833 
3.97188 -8.18553 4.72299 
3.84736 -8.18113 4.73791 
3.74745 -8.1798 4.82152 
3.62816 -8.16973 4.64556 
3.525 -8.16939 4.76553 
3.30876 -8.15505 4.57369 
3.19658 -8.14103 4.2599 
3.08887 -8.14295 4.45937 
2.98672 -8.11988 3.838 
2.88061 -8.12029 3.98644 
2.76138 -8.11232 3.87851 
2.66116 -8.10818 3.87127 
2.54078 -8.0986 3.71253 
2.44696 -8.08655 3.43942 
2.31992 -8.08332 3.49604 
2.2192 -8.08635 3.72255 
2.09259 -8.07699 3.57895 
1.99349 -8.07091 3.50721 
1.86774 -8.0682 3.57875 
1.76362 -8.06921 3.74431 
1.54064 -8.06209 3.79634 
1.41697 -8.0513 3.6024 
1.31705 -8.05164 3.74048 
1.19068 -8.05131 3.89071 
1.09026 -8.04931 3.95328 
0.963924 -8.0446 3.96078 
0.863219 -8.04671 4.15759 
0.633585 -8.04382 4.35611 
0.511985 -8.03501 4.22407 
0.408987 -8.04015 4.52252 
0.286203 -8.03407 4.4807 
0.186214 -8.03572 4.6619 
0.06046 -8.03373 4.75712 
-0.0376249 -8.03727 4.99742 
-0.163448 -8.03889 5.21032 
-0.262262 -8.03535 5.22124 
-0.386885 -8.03109 5.24102 
-0.48744 -8.03485 5.49178 
-0.609262 -8.03634 5.6953 
-0.709103 -8.03582 5.80575 
-0.829035 -8.03722 6.00419 
-0.92516 -8.03825 6.16005 
-1.14677 -8.02498 6.01041 
-1.2687 -8.02382 6.12811 
-1.36587 -8.02008 6.13013 
-1.48519 -8.01712 6.18573 
-1.58633 -8.01528 6.25492 
-1.70499 -8.00901 6.2019 
-1.81054 -7.99811 5.98136 
-2.03439 -7.9847 5.83002 
-2.16195 -7.97001 5.51425 
-2.26197 -7.96472 5.46974 
-2.38984 -7.95035 5.16468 
-2.48722 -7.9521 5.3459 
-2.61397 -7.93822 5.05537 
-2.71802 -7.92656 4.80821 
-3.87236 -7.74887 0.493254 
-3.98189 -7.74073 0.367923 
-4.1119 -7.73167 0.238654 
-4.21085 -7.73388 0.436737 
-4.34225 -7.72577 0.34024 
-4.44725 -7.72123 0.326491 
-4.57977 -7.7125 0.211229 
-4.68236 -7.70838 0.207891 
-4.92211 -7.6936 0.0322994 
-5.06343 -7.68355 -0.114541 
-5.16206 -7.6805 -0.0881241 
-5.30915 -7.66537 -0.393045 
-5.39858 -7.67009 -0.125177 
-5.54395 -7.6558 -0.405261 
-5.64631 -7.65266 -0.376664 
-5.90613 -7.6293 -0.805904 
-6.05359 -7.61297 -1.1496 
-6.15431 -7.61137 -1.07325 
-7.86207 -7.35498 -7.24488 
-7.9764 -7.34828 -7.31706 
-8.11594 -7.33996 -7.40985 
-8.2284 -7.33593 -7.39753 
-8.39314 -7.31734 -7.79291 
-8.51297 -7.30759 -7.9573 
-8.68245 -7.28894 -8.34839 
-8.79068 -7.28454 -8.35353 
-9.0683 -7.26164 -8.7451 
5.19411 -8.19129 4.5204 
5.07959 -8.19594 4.81431 
4.9617 -8.18816 4.71198 
4.85449 -8.19067 4.92777 
4.72609 -8.18731 4.98093 
4.63024 -8.18353 4.97989 
4.50366 -8.17893 4.99112 
4.40386 -8.17655 5.0399 
4.27303 -8.17719 5.22533 
4.18337 -8.16577 4.97036 
4.0632 -8.15974 4.92727 
3.9647 -8.15691 4.96039 
3.8503 -8.1447 4.71098 
3.75077 -8.14335 4.79267 
3.63283 -8.13223 4.58289 
3.52468 -8.136 4.84098 
3.40959 -8.12389 4.59549 
3.30623 -8.12147 4.64789 
3.19801 -8.10531 4.26341 
3.10714 -8.09334 3.99211 
2.9878 -8.08464 3.86224 
2.88323 -8.08435 3.98471 
2.76375 -8.07539 3.84676 
2.54441 -8.05713 3.53463 
2.44431 -8.05917 3.72648 
2.32284 -8.04498 3.42232 
2.22136 -8.04907 3.68215 
2.0944 -8.04138 3.59459 
1.99518 -8.03865 3.63158 
1.87051 -8.03211 3.57811 
1.76859 -8.0285 3.59037 
1.64292 -8.02715 3.7053 
1.5425 -8.02422 3.73764 
1.41843 -8.01587 3.62514 
1.31903 -8.01659 3.77362 
1.19269 -8.01351 3.8338 
1.09111 -8.01393 3.97551 
0.965524 -8.00786 3.93827 
0.862204 -8.01363 4.25484 
0.636447 -8.00433 4.24016 
0.512611 -8.00247 4.33627 
0.411386 -8.00064 4.40529 
0.287361 -8.00072 4.56417 
0.187728 -8.00058 4.68574 
0.0614702 -8.00087 4.85437 
-0.0362386 -8.00243 5.0279 
-0.160996 -8.00101 5.13987 
-0.261769 -8.00462 5.38351 
-0.385416 -8.00012 5.39446 
-0.486047 -7.99921 5.49243 
-0.60737 -7.99717 5.57995 
-0.706365 -8.00179 5.85381 
-0.827825 -7.99975 5.94141 
-0.925212 -7.99854 6.02571 
-1.14336 -7.99424 6.1627 
-1.26766 -7.98704 6.08757 
-1.36446 -7.98275 6.07138 
-1.48605 -7.97736 6.05134 
-1.58257 -7.9818 6.31648 
-1.70823 -7.9676 6.01763 
-1.80679 -7.96678 6.1156 
-2.03461 -7.94607 5.736 
-2.16074 -7.93284 5.46891 
-2.25945 -7.92746 5.42023 
-2.38666 -7.91739 5.25637 
-2.48815 -7.91236 5.22251 
-2.6135 -7.90005 4.98388 
-3.87027 -7.71285 0.536887 
-3.97937 -7.70158 0.311587 
-4.11247 -7.69504 0.268825 
-4.21297 -7.69391 0.359738 
-4.35003 -7.68068 0.106439 
-4.44903 -7.68184 0.269028 
-4.58121 -7.6726 0.13816 
-4.68017 -7.67169 0.234069 
-4.9217 -7.65534 0.0126469 
-5.06727 -7.64168 -0.243746 
-5.16122 -7.64181 -0.120798 
-5.30049 -7.63062 -0.305331 
-5.40674 -7.62722 -0.280419 
-5.5552 -7.60948 -0.664829 
-5.64175 -7.6169 -0.315749 
-5.89707 -7.59511 -0.695552 
-6.05124 -7.57601 -1.11621 
-6.14216 -7.57961 -0.884979 
-7.87014 -7.30961 -7.40552 
-7.97284 -7.31009 -7.25974 
-8.22136 -7.29983 -7.27613 
-8.37919 -7.2836 -7.59946 
-8.48672 -7.27993 -7.58184 
-8.68636 -7.24479 -8.46239 
-8.78071 -7.24762 -8.25147 
-8.92066 -7.24318 -8.21741 
-9.024 -7.24302 -8.09155 
5.3156 -8.16131 4.55128 
5.08454 -8.15854 4.75112 
4.97114 -8.14848 4.57161 
4.86323 -8.15094 4.78463 
4.73429 -8.14807 4.85403 
4.62564 -8.15203 5.11609 
4.50929 -8.14113 4.91362 
4.40412 -8.14216 5.07761 
4.18506 -8.13028 4.97237 
4.07373 -8.1179 4.7162 
3.96758 -8.12036 4.9275 
3.8569 -8.10576 4.59975 
3.74954 -8.10994 4.86725 
3.63365 -8.09688 4.59549 
3.52798 -8.10089 4.85522 
3.41178 -8.0875 4.57318 
3.31062 -8.08422 4.59501 
3.2077 -8.06208 4.01713 
3.10398 -8.06129 4.12157 
2.99223 -8.04653 3.79025 
2.88384 -8.04896 4.00321 
2.76892 -8.03538 3.71376 
2.6668 -8.03371 3.78798 
2.54795 -8.02167 3.55221 
2.44777 -8.02177 3.68087 
2.32605 -8.00942 3.4389 
2.22126 -8.01508 3.7505 
2.09815 -8.00252 3.50364 
1.99691 -8.00232 3.62382 
1.87163 -7.99638 3.59104 
1.7726 -7.98723 3.42282 
1.64516 -7.99088 3.69884 
1.54319 -7.98886 3.76201 
1.41828 -7.98372 3.75405 
1.32131 -7.97832 3.70316 
1.19431 -7.97694 3.81798 
1.09364 -7.97542 3.89552 
0.967869 -7.97365 3.99623 
0.866227 -7.97409 4.13746 
0.740859 -7.9692 4.13837 
0.639031 -7.96548 4.14718 
0.516412 -7.96087 4.15353 
0.413016 -7.96358 4.36928 
0.290809 -7.95692 4.30981 
0.189521 -7.96515 4.69917 
0.0634091 -7.96331 4.79862 
-0.0348419 -7.96787 5.06713 
-0.158049 -7.96335 5.07694 
-0.259532 -7.96736 5.332 
-0.382823 -7.96191 5.31271 
-0.483247 -7.96601 5.56919 
-0.605981 -7.96359 5.64565 
-0.704847 -7.9653 5.82398 
-0.827017 -7.96304 5.90494 
-0.922165 -7.96531 6.09671 
-1.14293 -7.95632 6.08632 
-1.26762 -7.94803 5.97797 
-1.36381 -7.94606 6.03559 
-1.48315 -7.94352 6.10386 
-1.58138 -7.94455 6.25994 
-1.70573 -7.93272 6.03805 
-1.80403 -7.93187 6.13435 
-2.03326 -7.90936 5.70275 
-2.15927 -7.8974 5.47912 
-2.25782 -7.89126 5.40647 
-2.3858 -7.87895 5.1739 
-2.48321 -7.8806 5.34885 
-2.61258 -7.86185 4.91223 
-3.86586 -7.67822 0.621201 
-3.97943 -7.6652 0.347925 
-4.10172 -7.66401 0.463168 
-4.21403 -7.65381 0.278423 
-4.34494 -7.64549 0.177056 
-4.45156 -7.63943 0.11728 
-4.57653 -7.63663 0.184725 
-4.68113 -7.63195 0.166503 
-4.9137 -7.62367 0.194014 
-5.07128 -7.59981 -0.370306 
-5.16181 -7.6043 -0.113197 
-5.30146 -7.59052 -0.377975 
-5.39648 -7.59534 -0.104871 
-5.55563 -7.57014 -0.709803 
-5.63981 -7.57754 -0.367888 
-5.9056 -7.55141 -0.868521 
-6.03474 -7.54632 -0.868933 
-6.14935 -7.53623 -1.04736 
-7.86756 -7.26953 -7.40696 
-7.98616 -7.26057 -7.54412 
-8.11437 -7.25981 -7.40744 
-8.2131 -7.26254 -7.19623 
-8.40348 -7.23001 -7.99596 
-8.48554 -7.23974 -7.58236 
-8.65625 -7.21754 -8.07678 
-8.82351 -7.18642 -8.86075 
-8.92059 -7.20203 -8.24016 
-9.02665 -7.20022 -8.16471 
5.3267 -8.12084 4.3862 
5.19755 -8.12037 4.53112 
5.09005 -8.12064 4.6727 
4.9747 -8.11189 4.53886 
4.85426 -8.12191 5.00454 
4.73107 -8.11559 4.95734 
4.6319 -8.11327 5.00695 
4.5134 -8.10415 4.86554 
4.40544 -8.10527 5.03438 
4.28488 -8.10024 5.02485 
4.18504 -8.09633 5.02494 
4.07467 -8.083 4.74049 
3.97562 -8.07998 4.76775 
3.8582 -8.07051 4.61405 
3.74769 -8.0766 4.94325 
3.6345 -8.06202 4.62284 
3.53568 -8.05916 4.65495 
3.40558 -8.05806 4.78149 
3.31126 -8.04908 4.61447 
3.20579 -8.02996 4.14121 
3.10152 -8.02855 4.22588 
2.9929 -8.01137 3.81756 
2.8884 -8.01033 3.91436 
2.76828 -8.00247 3.81488 
2.54785 -7.98692 3.59664 
2.45191 -7.98007 3.49914 
2.32962 -7.96922 3.30808 
2.22151 -7.97804 3.72074 
2.09887 -7.96831 3.56536 
1.99708 -7.96638 3.63048 
1.8748 -7.95922 3.55597 
1.77251 -7.95834 3.65511 
1.64662 -7.95477 3.69856 
1.54481 -7.95385 3.7958 
1.42118 -7.94536 3.68059 
1.32233 -7.94482 3.78628 
1.19583 -7.93991 3.78815 
1.0955 -7.93903 3.88485 
0.968978 -7.93822 4.01631 
0.868694 -7.93565 4.05931 
0.641012 -7.93368 4.27981 
0.51822 -7.92405 4.12765 
0.415298 -7.92639 4.32964 
0.290378 -7.92686 4.49942 
0.191556 -7.9268 4.62016 
0.0654231 -7.92764 4.8034 
-0.0324949 -7.92861 4.95548 
-0.157134 -7.92879 5.11596 
-0.257661 -7.92811 5.2193 
-0.381367 -7.92813 5.37372 
-0.480176 -7.93231 5.62848 
-0.60442 -7.92984 5.70484 
-0.703519 -7.9252 5.6812 
-0.825024 -7.9276 5.908 
-0.92265 -7.92573 5.97022 
-1.1403 -7.92257 6.14077 
-1.2668 -7.91211 5.9671 
-1.36049 -7.91427 6.15172 
-1.48445 -7.90329 5.95888 
-1.58156 -7.90813 6.23254 
-1.70428 -7.89586 5.99703 
-1.80621 -7.89029 5.94768 
-2.03107 -7.87514 5.7482 
-2.15676 -7.86265 5.5096 
-2.25589 -7.85796 5.48468 
-2.38269 -7.8466 5.28309 
-2.4826 -7.84228 5.27072 
-2.6126 -7.82261 4.81063 
-2.71738 -7.81366 4.65786 
-3.73916 -7.64199 0.501281 
-3.8688 -7.63558 0.459732 
-3.97637 -7.62871 0.376256 
-4.1112 -7.61513 0.114765 
-4.211 -7.61782 0.323823 
-4.34425 -7.6067 0.138212 
-4.44412 -7.60923 0.342259 
-4.57756 -7.5967 0.112177 
-4.67608 -7.59734 0.254852 
-4.91302 -7.58434 0.138798 
-5.06435 -7.56559 -0.265928 
-5.1626 -7.56637 -0.118963 
-5.3063 -7.55008 -0.455155 
-5.40373 -7.54962 -0.348569 
-5.54257 -7.5398 -0.486223 
-5.64017 -7.5389 -0.393041 
-5.90757 -7.511 -0.942491 
-6.04621 -7.50145 -1.07204 
-6.14914 -7.49695 -1.08592 
-7.87456 -7.22488 -7.54108 
-7.94654 -7.24132 -6.93173 
-8.11653 -7.21726 -7.48077 
-8.20908 -7.22296 -7.1852 
-8.37142 -7.20552 -7.5347 
-8.47867 -7.20288 -7.4844 
-8.67992 -7.16508 -8.42916 
-8.77777 -7.16625 -8.27036 
-8.91887 -7.1606 -8.27315 
-9.00943 -7.16742 -7.94492 
5.3266 -8.08597 4.41362 
5.09481 -8.0837 4.62671 
4.96798 -8.08098 4.69726 
4.86852 -8.07906 4.75923 
4.73588 -8.07906 4.92218 
4.63368 -8.07877 5.0387 
4.51338 -8.07006 4.9136 
4.4135 -8.06676 4.93324 
4.18902 -8.05896 4.96487 
4.07764 -8.04652 4.71221 
3.9781 -8.044 4.75587 
3.85563 -8.03831 4.72814 
3.75518 -8.03722 4.81747 
3.63759 -8.0264 4.62331 
3.53144 -8.02669 4.76283 
3.41642 -8.01526 4.54664 
3.31034 -8.01526 4.67716 
3.20831 -7.99352 4.12226 
3.11677 -7.98081 3.83701 
2.99541 -7.97466 3.79374 
2.8927 -7.97212 3.84056 
2.77359 -7.96224 3.67772 
2.67152 -7.96033 3.74335 
2.5501 -7.95095 3.59906 
2.45276 -7.94425 3.50929 
2.32921 -7.93671 3.42521 
2.22739 -7.9368 3.55311 
2.10091 -7.93212 3.56241 
1.99744 -7.93064 3.64314 
1.87596 -7.92533 3.62639 
1.77355 -7.92408 3.71343 
1.64799 -7.91825 3.68548 
1.54707 -7.91739 3.78266 
1.4231 -7.91015 3.70871 
1.32362 -7.90768 3.75382 
1.19933 -7.8982 3.60984 
1.09723 -7.90365 3.90605 
0.971636 -7.90184 4.004 
0.868716 -7.9032 4.17325 
0.641492 -7.89744 4.27286 
0.519468 -7.88999 4.18967 
0.41647 -7.89162 4.36755 
0.292605 -7.88977 4.46227 
0.19258 -7.89468 4.73897 
0.066936 -7.89184 4.80476 
-0.030157 -7.89158 4.91608 
-0.255623 -7.89195 5.20544 
-0.379141 -7.89036 5.30777 
-0.477797 -7.89455 5.56058 
-0.602486 -7.8908 5.59669 
-0.701408 -7.89398 5.81793 
-0.822599 -7.89237 5.91692 
-1.13819 -7.88727 6.14611 
-1.2677 -7.87151 5.81244 
-1.35986 -7.87628 6.07508 
-1.47974 -7.87287 6.11622 
-1.58096 -7.86628 6.03462 
-1.70331 -7.86021 5.99536 
-1.80314 -7.85627 5.99498 
-2.03166 -7.83436 5.59085 
-2.15781 -7.82078 5.32134 
-2.25561 -7.82012 5.42121 
-2.38239 -7.80617 5.14093 
-2.48304 -7.80304 5.16697 
-2.61262 -7.7841 4.73377 
-3.62735 -7.61438 0.671416 
-3.86732 -7.59746 0.437679 
-3.97289 -7.59408 0.462001 
-4.10379 -7.58307 0.278798 
-4.20722 -7.58165 0.361943 
-4.34079 -7.57116 0.198347 
-4.45144 -7.56184 0.0431297 
-4.58144 -7.55669 0.0419854 
-4.67371 -7.56096 0.289764 
-4.91975 -7.5412 -0.0254871 
-5.05846 -7.53149 -0.158208 
-5.16527 -7.52321 -0.285836 
-5.29556 -7.51859 -0.269719 
-5.40372 -7.51287 -0.315392 
-5.53217 -7.50731 -0.330791 
-5.63494 -7.50277 -0.346138 
-5.89223 -7.48167 -0.689194 
-6.03495 -7.46767 -0.951323 
-6.14463 -7.46164 -1.00479 
-7.88 -7.18122 -7.64341 
-7.95953 -7.19398 -7.14551 
-8.08341 -7.19524 -6.95332 
-8.21054 -7.18104 -7.24105 
-8.39708 -7.15019 -7.97674 
-8.50776 -7.14629 -7.96212 
-8.65544 -7.1355 -8.11753 
-8.80531 -7.11296 -8.6383 
-8.93169 -7.11398 -8.45025 
-9.01309 -7.12381 -8.04178 
5.33099 -8.04852 4.35488 
5.09207 -8.05079 4.71583 
4.97448 -8.04271 4.60878 
4.86404 -8.04713 4.88018 
4.74719 -8.03729 4.71751 
4.63565 -8.04183 4.99401 
4.51286 -8.03616 4.96768 
4.41244 -8.03206 4.96285 
4.19197 -8.02279 4.9442 
4.07921 -8.01112 4.71985 
3.97727 -8.01053 4.82586 
3.85886 -8.00131 4.68456 
3.76047 -7.9978 4.69566 
3.63926 -7.99191 4.66076 
3.54002 -7.98618 4.60417 
3.41087 -7.98549 4.74031 
3.32175 -7.97226 4.43884 
3.21283 -7.95506 4.03848 
3.11576 -7.94741 3.9197 
2.99718 -7.93865 3.79301 
2.89233 -7.93747 3.88422 
2.7741 -7.92803 3.73573 
2.67389 -7.9244 3.74551 
2.55136 -7.91402 3.57328 
2.45523 -7.90775 3.49598 
2.32744 -7.90597 3.59688 
2.22966 -7.89852 3.48521 
2.10174 -7.89645 3.57697 
2.00298 -7.89206 3.56133 
1.87728 -7.88856 3.60633 
1.77585 -7.88544 3.63333 
1.65052 -7.88074 3.64063 
1.55066 -7.87802 3.67822 
1.4246 -7.87625 3.77722 
1.32459 -7.87494 3.85867 
1.20053 -7.86714 3.76812 
1.10075 -7.86659 3.87305 
0.974203 -7.86682 4.03465 
0.873015 -7.865 4.10146 
0.745034 -7.86383 4.22147 
0.644031 -7.86194 4.28631 
0.521112 -7.85425 4.19801 
0.419514 -7.85263 4.27177 
0.29394 -7.85575 4.52187 
0.193847 -7.86073 4.79861 
0.0680464 -7.86035 4.94034 
-0.0291374 -7.85766 4.97566 
-0.154259 -7.85404 5.0162 
-0.254223 -7.85762 5.24932 
-0.377542 -7.84901 5.13303 
-0.476465 -7.85295 5.37604 
-0.600552 -7.85463 5.57976 
-0.699428 -7.85691 5.77104 
-0.821022 -7.85885 5.97971 
-0.918528 -7.8554 5.99204 
-1.13929 -7.84657 5.988 
-1.26156 -7.84205 5.99725 
-1.35618 -7.84454 6.19007 
-1.47855 -7.83621 6.08142 
-1.57701 -7.83499 6.16389 
-1.70185 -7.82562 6.02627 
-1.80284 -7.81859 5.93165 
-2.0309 -7.7954 5.49131 
-2.1544 -7.78912 5.44768 
-2.25424 -7.78281 5.37424 
-2.37977 -7.77338 5.23538 
-2.47925 -7.77108 5.2857 
-2.61312 -7.74433 4.61978 
-2.71375 -7.74144 4.65341 
-3.73266 -7.56808 0.524112 
-3.86726 -7.55787 0.372337 
-3.97232 -7.55442 0.393871 
-4.10136 -7.54688 0.317863 
-4.20714 -7.54208 0.298425 
-4.34015 -7.53216 0.153654 
-4.4403 -7.53308 0.304607 
-4.57978 -7.51761 -0.00451821 
-4.67751 -7.51755 0.113356 
-4.81173 -7.51066 0.063876 
-4.9114 -7.50836 0.11441 
-5.06003 -7.49198 -0.211524 
-5.16495 -7.48537 -0.288188 
-5.29633 -7.47947 -0.310129 
-5.39347 -7.48118 -0.138343 
-5.53988 -7.46357 -0.505119 
-5.64675 -7.45744 -0.564322 
-5.78314 -7.44799 -0.690484 
-5.89546 -7.43891 -0.834679 
-6.03524 -7.42815 -0.997183 
-6.14193 -7.42426 -0.987193 
-7.7009 -7.16876 -7.00222 
-7.89439 -7.13104 -7.93506 
-7.98728 -7.13693 -7.63865 
-8.08639 -7.15252 -7.03349 
-8.20666 -7.14345 -7.16764 
-8.40556 -7.10492 -8.11882 
-8.51486 -7.10169 -8.08528 
-8.66646 -7.09023 -8.25491 
-8.76461 -7.09158 -8.0928 
5.33357 -8.01267 4.34863 
5.09589 -8.01436 4.68746 
4.98067 -8.00459 4.52654 
4.86818 -8.01087 4.85517 
4.75281 -7.99904 4.6316 
4.64269 -8.00394 4.91471 
4.51381 -8.00109 4.98313 
4.40916 -8.00006 5.07795 
4.19492 -7.98622 4.912 
4.08005 -7.97613 4.74099 
3.97935 -7.97483 4.82284 
3.86354 -7.96359 4.61786 
3.76172 -7.9622 4.69835 
3.6474 -7.94982 4.45652 
3.53931 -7.95258 4.67182 
3.328 -7.93398 4.35633 
3.21158 -7.92163 4.11798 
3.12263 -7.90639 3.75756 
3.00305 -7.89718 3.61966 
2.89309 -7.90252 3.91653 
2.77701 -7.89047 3.68686 
2.67361 -7.89117 3.83351 
2.55597 -7.87376 3.44142 
2.45346 -7.87573 3.62603 
2.32857 -7.8699 3.59801 
2.22754 -7.86636 3.61157 
2.10237 -7.86238 3.64098 
2.0032 -7.85979 3.68135 
1.87693 -7.8549 3.68412 
1.7764 -7.85108 3.68839 
1.65276 -7.84377 3.61377 
1.55228 -7.84189 3.67748 
1.42407 -7.84367 3.88732 
1.32777 -7.83697 3.79824 
1.2028 -7.82922 3.71165 
1.10219 -7.82664 3.75415 
0.976646 -7.82543 3.86896 
0.874553 -7.82611 4.0136 
0.64742 -7.82353 4.20931 
0.521619 -7.82102 4.28451 
0.42089 -7.81946 4.3587 
0.295644 -7.81776 4.45824 
0.196091 -7.82516 4.80586 
0.0713409 -7.81528 4.65364 
-0.0259199 -7.81575 4.78589 
-0.151586 -7.81663 4.96528 
-0.251064 -7.82151 5.23547 
-0.376175 -7.81786 5.27512 
-0.474689 -7.8166 5.3559 
-0.599063 -7.82151 5.65726 
-0.697817 -7.82462 5.87243 
-0.820283 -7.81679 5.78055 
-0.918219 -7.81604 5.87603 
-1.13709 -7.81121 5.99312 
-1.26126 -7.80638 5.99539 
-1.35629 -7.80451 6.05307 
-1.47947 -7.79777 5.99545 
-1.57733 -7.79931 6.16142 
-1.70117 -7.78824 5.97168 
-1.80016 -7.78452 5.97718 
-2.02689 -7.76517 5.65807 
-2.15323 -7.75062 5.36442 
-2.25116 -7.74725 5.3797 
-2.37891 -7.73587 5.18526 
-2.48023 -7.72912 5.10066 
-3.63033 -7.53351 0.488402 
-3.73113 -7.53164 0.553445 
-3.866 -7.51949 0.343847 
-3.97065 -7.51695 0.392845 
-4.10073 -7.50868 0.296741 
-4.20741 -7.50372 0.273805 
-4.33684 -7.49656 0.211043 
-4.43739 -7.4959 0.312749 
-4.57848 -7.48159 0.0443959 
-4.67965 -7.47675 0.0185058 
-4.91121 -7.46957 0.0791669 
-5.05275 -7.45605 -0.164487 
