ply
format ascii 1.0
element vertex 1776
property float x
property float y
property float z
end_header
-1.48024 -7.715 5.64931 
-1.57787 -7.71502 5.76665 
-1.70081 -7.7054 5.62319 
-1.80332 -7.69457 5.4192 
-2.03027 -7.67806 5.19257 
-2.15329 -7.66971 5.08762 
-2.25614 -7.65526 4.77509 
-3.39238 -7.46812 0.491537 
-3.49703 -7.4634 0.474178 
-3.63118 -7.45289 0.317523 
-3.73528 -7.448 0.294608 
-3.86327 -7.44277 0.289614 
-3.97087 -7.43864 0.293825 
-4.09855 -7.43097 0.214861 
-4.21391 -7.41826 -0.0303917 
-4.33831 -7.41635 0.0605254 
-4.4453 -7.40831 -0.0538663 
-4.58307 -7.39774 -0.208027 
-4.68744 -7.39222 -0.249581 
-4.92205 -7.38292 -0.249651 
-5.05807 -7.37453 -0.340122 
-5.15881 -7.37102 -0.325422 
-5.30712 -7.35501 -0.630746 
-5.41239 -7.34994 -0.657995 
-5.54592 -7.34249 -0.722791 
-5.66115 -7.33218 -0.89611 
-7.45238 -7.05371 -7.14922 
-7.63861 -7.01959 -7.95527 
-7.70343 -7.04335 -7.16157 
-7.84996 -7.03279 -7.30466 
-7.96825 -7.02381 -7.43387 
-8.11619 -7.01176 -7.62019 
-8.24518 -6.99874 -7.85861 
-8.3903 -6.98933 -7.96862 
-8.54771 -6.96088 -8.6382 
-8.69053 -6.95317 -8.69964 
-8.81597 -6.94118 -8.91127 
-9.07243 -6.92955 -8.95505 
5.33724 -7.90778 4.41538 
5.20554 -7.90808 4.57951 
5.10503 -7.90528 4.61442 
4.99155 -7.89392 4.40905 
4.87583 -7.90261 4.80499 
4.74793 -7.89711 4.79171 
4.65656 -7.89127 4.72499 
4.52435 -7.89048 4.85753 
4.43235 -7.88171 4.70424 
4.30959 -7.87755 4.72489 
4.21444 -7.86936 4.59289 
4.0966 -7.86154 4.49834 
3.9924 -7.86198 4.63446 
3.8748 -7.85203 4.47652 
3.77612 -7.84916 4.50716 
3.66117 -7.83552 4.23598 
3.57623 -7.82045 3.88647 
3.4499 -7.81624 3.90998 
3.3537 -7.81007 3.83928 
3.23611 -7.79402 3.49921 
3.13518 -7.79195 3.55655 
3.0077 -7.7897 3.63995 
2.90767 -7.78385 3.58336 
2.7857 -7.77784 3.54796 
2.68658 -7.77155 3.47738 
2.55836 -7.77089 3.60917 
2.45994 -7.76819 3.64471 
2.33104 -7.76843 3.80414 
2.23465 -7.75833 3.61672 
2.10948 -7.75234 3.58587 
2.00909 -7.74895 3.60303 
1.88244 -7.74658 3.68199 
1.78144 -7.74064 3.62407 
1.55682 -7.7348 3.71522 
1.42902 -7.736 3.90205 
1.33281 -7.72952 3.82253 
1.20587 -7.72742 3.90984 
1.1058 -7.72631 3.99498 
0.977945 -7.7234 4.05915 
0.875866 -7.72248 4.1525 
0.650343 -7.72066 4.36468 
0.525431 -7.71964 4.48206 
0.422236 -7.72593 4.79179 
0.299447 -7.72055 4.77655 
0.200047 -7.72164 4.92641 
0.0749315 -7.7212 5.06142 
-0.0242485 -7.72352 5.24806 
-0.148881 -7.72508 5.44205 
-0.248047 -7.72351 5.51249 
-0.371744 -7.72389 5.67002 
-0.46959 -7.72269 5.74993 
-0.594362 -7.7167 5.71872 
-0.692638 -7.71759 5.86169 
-0.815011 -7.71302 5.87012 
-0.914652 -7.70651 5.79351 
-1.132 -7.70515 6.01034 
-1.25904 -7.69493 5.85557 
-1.35261 -7.69447 5.95243 
-1.4785 -7.68017 5.67465 
-1.57668 -7.67556 5.65315 
-1.70115 -7.66439 5.46715 
-1.80318 -7.65918 5.43218 
-2.02843 -7.64082 5.1507 
-2.15437 -7.62811 4.92051 
-2.25514 -7.61919 4.77336 
-3.39034 -7.43275 0.551023 
-3.50268 -7.41686 0.209686 
-3.62975 -7.41408 0.27714 
-3.72952 -7.41438 0.404338 
-3.86223 -7.40521 0.287586 
-3.97243 -7.39655 0.159732 
-4.10223 -7.38947 0.102196 
-4.20424 -7.38847 0.193151 
-4.3392 -7.37501 -0.0489959 
-4.44353 -7.37153 -0.029309 
-4.57325 -7.36564 -0.0513855 
-4.68253 -7.35648 -0.195262 
-4.91522 -7.34898 -0.14357 
-5.04847 -7.34037 -0.242878 
-5.17073 -7.32495 -0.558306 
-5.31086 -7.31254 -0.762932 
-5.41173 -7.31159 -0.671752 
-5.54916 -7.30192 -0.797573 
-5.65424 -7.29726 -0.811951 
-7.45722 -7.00806 -7.3108 
-7.6021 -6.9992 -7.4037 
-7.7019 -7.00272 -7.1803 
-7.8642 -6.98418 -7.54131 
-8.01172 -6.95822 -8.14174 
-8.12447 -6.96657 -7.75875 
-8.21839 -6.97263 -7.4663 
-8.39761 -6.94422 -8.10198 
-8.52319 -6.93245 -8.30466 
-8.68765 -6.91286 -8.69452 
-8.83225 -6.89165 -9.15666 
-9.04256 -6.90349 -8.55325 
5.44123 -7.87501 4.38159 
5.10961 -7.86804 4.56314 
4.98151 -7.86642 4.66504 
4.88211 -7.86411 4.71315 
4.74679 -7.86459 4.88566 
4.65439 -7.85703 4.77014 
4.53045 -7.8525 4.78126 
4.4379 -7.84347 4.62271 
4.21184 -7.83674 4.68832 
4.09774 -7.82614 4.50842 
3.99631 -7.8242 4.5699 
3.87846 -7.81443 4.419 
3.77945 -7.81229 4.47159 
3.6664 -7.79655 4.13864 
3.57239 -7.78939 4.03691 
3.44885 -7.78218 3.96858 
3.35432 -7.77383 3.83249 
3.23373 -7.76414 3.68696 
3.13597 -7.7574 3.60232 
3.01238 -7.74951 3.51382 
2.90951 -7.74826 3.59728 
2.78627 -7.74219 3.56231 
2.68672 -7.7383 3.56402 
2.55964 -7.7366 3.66261 
2.46058 -7.73349 3.6868 
2.33338 -7.7299 3.72971 
2.23148 -7.72796 3.79162 
2.11336 -7.71411 3.52043 
2.01259 -7.70909 3.49011 
1.88388 -7.71049 3.68248 
1.7843 -7.70379 3.60115 
1.65927 -7.7046 3.77167 
1.55814 -7.70207 3.81542 
1.43171 -7.69702 3.81425 
1.33552 -7.69072 3.74095 
1.20789 -7.69118 3.90404 
1.10877 -7.68816 3.93114 
0.98156 -7.68465 3.97637 
0.880298 -7.6806 3.97538 
0.650212 -7.68661 4.42325 
0.52759 -7.68147 4.41489 
0.424056 -7.6899 4.78575 
0.30169 -7.68273 4.71728 
0.203343 -7.67914 4.72665 
0.0763419 -7.68714 5.11215 
-0.0219422 -7.68709 5.22611 
-0.146643 -7.68354 5.26733 
-0.246844 -7.68857 5.53391 
-0.369979 -7.68364 5.53252 
-0.468201 -7.68547 5.70207 
-0.592016 -7.68874 5.944 
-0.689361 -7.67955 5.78648 
-0.812596 -7.68108 5.97664 
-0.911577 -7.67578 5.93598 
-1.12977 -7.67004 6.02248 
-1.25599 -7.66239 5.94434 
-1.35134 -7.65799 5.9261 
-1.47647 -7.64582 5.71303 
-1.57521 -7.63889 5.62424 
-1.70037 -7.63132 5.54716 
-1.79922 -7.62577 5.49922 
-2.02746 -7.60247 5.07789 
-2.15232 -7.59435 4.9845 
-3.38978 -7.39136 0.433151 
-3.50057 -7.38044 0.240306 
-3.62827 -7.3769 0.285843 
-3.73591 -7.37132 0.247163 
-3.86079 -7.36831 0.305082 
-3.97127 -7.35929 0.168071 
-4.09447 -7.35822 0.28106 
-4.20535 -7.34721 0.0857559 
-4.33668 -7.33745 -0.0485009 
-4.44119 -7.33349 -0.0428057 
-4.56999 -7.33085 0.0305433 
-4.67847 -7.32085 -0.138029 
-4.92131 -7.30523 -0.314459 
-5.05917 -7.29539 -0.443582 
-5.16521 -7.29033 -0.468399 
-5.30496 -7.27694 -0.700366 
-5.41086 -7.27333 -0.682541 
-5.55472 -7.2589 -0.940352 
-5.65727 -7.25596 -0.906595 
-7.33923 -6.97894 -7.12489 
-7.46485 -6.96327 -7.44089 
-7.6158 -6.9507 -7.63517 
-7.7307 -6.94398 -7.6988 
-7.86969 -6.93944 -7.6694 
-7.97584 -6.93589 -7.64949 
-8.13246 -6.92203 -7.87549 
-8.27241 -6.9014 -8.32113 
-8.40102 -6.90034 -8.20106 
-8.51802 -6.89262 -8.29183 
-8.64769 -6.89238 -8.14635 
-8.78631 -6.87425 -8.51968 
-9.07654 -6.84414 -9.06912 
5.35525 -7.82862 4.16948 
5.11251 -7.83185 4.54576 
5.01212 -7.8123 4.08951 
4.88376 -7.82884 4.72307 
4.75166 -7.82787 4.84821 
4.656 -7.82139 4.7692 
4.53372 -7.81594 4.75155 
4.44032 -7.80882 4.65158 
4.21949 -7.79747 4.57539 
4.10314 -7.7875 4.41849 
4.00405 -7.78357 4.41856 
3.87741 -7.78118 4.49572 
3.77982 -7.7779 4.5128 
3.67334 -7.7569 4.02123 
3.57492 -7.75253 4.00775 
3.4487 -7.74853 4.03719 
3.35586 -7.7379 3.83357 
3.23506 -7.72822 3.69046 
3.13495 -7.72321 3.65992 
3.01094 -7.71871 3.67246 
2.90983 -7.71353 3.6381 
2.7898 -7.7046 3.51607 
2.68879 -7.70244 3.57004 
2.56069 -7.70296 3.73434 
2.46336 -7.69621 3.64981 
2.33599 -7.69084 3.64059 
2.23647 -7.69052 3.74705 
2.11077 -7.68374 3.69434 
2.01551 -7.66947 3.38705 
1.8867 -7.67482 3.69375 
1.78848 -7.66132 3.4123 
1.55977 -7.66407 3.75902 
1.43446 -7.66033 3.79528 
1.33713 -7.65649 3.79615 
1.21066 -7.65313 3.84487 
1.10827 -7.65503 4.01958 
0.982615 -7.65145 4.06104 
0.880948 -7.65017 4.14196 
0.653661 -7.64543 4.26745 
0.528477 -7.64778 4.48211 
0.427643 -7.64835 4.61622 
0.302413 -7.65277 4.89171 
0.204278 -7.64796 4.86501 
0.0783522 -7.64759 5.00062 
-0.0199997 -7.64831 5.13634 
-0.145198 -7.65088 5.35739 
-0.244478 -7.65156 5.49316 
-0.368778 -7.64968 5.58274 
-0.466416 -7.6515 5.74967 
-0.590829 -7.6459 5.7305 
-0.6906 -7.64363 5.78024 
-0.811885 -7.642 5.87382 
-0.90997 -7.63928 5.90852 
-1.12992 -7.62904 5.8646 
-1.25458 -7.62643 5.93343 
-1.35149 -7.6209 5.88404 
-1.47519 -7.60861 5.66796 
-1.57464 -7.60187 5.58633 
-1.69905 -7.58943 5.36691 
-1.79667 -7.58949 5.4823 
-2.02245 -7.57133 5.21326 
-3.39023 -7.35314 0.411741 
-3.49269 -7.34853 0.396235 
-3.62335 -7.34452 0.430858 
-3.73056 -7.334 0.247718 
-3.96472 -7.32661 0.304134 
-4.10147 -7.31111 0.00913403 
-4.20752 -7.30467 -0.0560404 
-4.33346 -7.30118 -0.0113837 
-4.44848 -7.28834 -0.253658 
-4.57748 -7.2851 -0.198098 
-4.67738 -7.2822 -0.166587 
-4.90931 -7.27438 -0.125029 
-5.05448 -7.25929 -0.398158 
-5.15866 -7.25628 -0.364856 
-5.30141 -7.24148 -0.632134 
-5.42414 -7.22669 -0.922477 
-5.53595 -7.23305 -0.605393 
-5.66063 -7.21485 -0.993428 
-7.32458 -6.94693 -6.90676 
-7.45698 -6.92716 -7.33182 
-7.61386 -6.91057 -7.63512 
-7.70045 -6.91928 -7.27863 
-7.8753 -6.8948 -7.79231 
-7.96383 -6.90413 -7.41507 
-8.11555 -6.88931 -7.67267 
-8.24955 -6.87107 -8.05079 
-8.41331 -6.85245 -8.40556 
-8.52466 -6.84781 -8.41152 
-8.66446 -6.84207 -8.41672 
-8.7795 -6.83624 -8.45316 
-9.06252 -6.80951 -8.9063 
5.3498 -7.79615 4.27306 
5.21173 -7.80104 4.57378 
5.11532 -7.79542 4.52181 
4.99659 -7.78706 4.41573 
4.89041 -7.78903 4.59532 
4.75792 -7.78866 4.73723 
4.65972 -7.78654 4.78896 
4.5334 -7.78176 4.79576 
4.43678 -7.77551 4.72565 
4.31557 -7.77001 4.70562 
4.21811 -7.76373 4.63559 
4.10247 -7.75475 4.50809 
4.00224 -7.75145 4.52811 
3.87985 -7.74506 4.48356 
3.78347 -7.7406 4.46529 
3.66836 -7.72581 4.16866 
3.58135 -7.7129 3.89401 
3.45326 -7.70962 3.94664 
3.3627 -7.69974 3.76407 
3.23846 -7.69073 3.64582 
3.13668 -7.6874 3.66648 
3.01464 -7.67947 3.57699 
2.91337 -7.67501 3.56442 
2.78759 -7.67414 3.68439 
2.69044 -7.66675 3.58166 
2.56182 -7.66627 3.71637 
2.46381 -7.66192 3.70307 
2.33438 -7.66243 3.86722 
2.23964 -7.65345 3.71584 
2.11315 -7.64584 3.64102 
2.01358 -7.64261 3.66206 
1.89173 -7.63125 3.47275 
1.78923 -7.63252 3.628 
1.56002 -7.6321 3.88068 
1.43574 -7.62695 3.87456 
1.33685 -7.62427 3.91083 
1.2117 -7.61872 3.8941 
1.11206 -7.61642 3.94261 
0.981183 -7.62214 4.25988 
0.882252 -7.61509 4.16939 
0.655467 -7.61161 4.33018 
0.530071 -7.61351 4.53036 
0.429704 -7.60974 4.53678 
0.303233 -7.6143 4.8155 
0.205965 -7.61306 4.89189 
0.0791258 -7.61805 5.18347 
-0.020105 -7.6179 5.29363 
-0.144062 -7.61678 5.40449 
-0.242934 -7.61609 5.4987 
-0.366816 -7.613 5.55225 
-0.464783 -7.6169 5.77862 
-0.588232 -7.61295 5.80666 
-0.688771 -7.60319 5.63946 
-0.810445 -7.60435 5.81375 
-0.908688 -7.60088 5.82663 
-1.1277 -7.59542 5.92138 
-1.2543 -7.58488 5.76144 
-1.34904 -7.58769 5.95262 
-1.47386 -7.57193 5.63941 
-1.57157 -7.56929 5.67549 
-1.69478 -7.55976 5.54123 
-1.79558 -7.55245 5.44555 
-2.02241 -7.53401 5.17232 
-3.25124 -7.32937 0.649144 
-3.3942 -7.30797 0.193076 
-3.49509 -7.30778 0.304136 
-3.62105 -7.30804 0.457378 
-3.73431 -7.29313 0.155467 
-3.85888 -7.29226 0.274327 
-3.96249 -7.28947 0.31332 
-4.09588 -7.27661 0.0940041 
-4.20267 -7.27081 0.0492291 
-4.33287 -7.2644 0.0135562 
-4.4395 -7.25704 -0.0766519 
-4.57586 -7.24881 -0.158037 
-4.67548 -7.24522 -0.147002 
-4.92186 -7.22624 -0.413089 
-5.06219 -7.2151 -0.574256 
-5.1648 -7.21273 -0.524071 
-5.29373 -7.2086 -0.494753 
-5.41928 -7.19015 -0.885512 
-5.53857 -7.19085 -0.726916 
-5.66275 -7.17528 -1.03544 
-7.35262 -6.88837 -7.4144 
-7.46562 -6.87981 -7.53223 
-7.57899 -6.8901 -7.10185 
-7.7352 -6.85857 -7.83708 
-7.85867 -6.86224 -7.5872 
-7.96551 -6.86081 -7.50487 
-8.13476 -6.83771 -7.97993 
-8.22832 -6.84166 -7.7568 
-8.42586 -6.80506 -8.59143 
-8.49682 -6.82176 -8.02393 
-8.68524 -6.78984 -8.73317 
-8.76433 -6.80446 -8.21646 
-9.04858 -6.77578 -8.72034 
5.35846 -7.75692 4.16414 
5.11961 -7.75791 4.46559 
4.99746 -7.75262 4.45315 
4.89301 -7.75306 4.58499 
4.75836 -7.75462 4.78411 
4.6584 -7.75308 4.85402 
4.53731 -7.74474 4.75252 
4.44194 -7.7376 4.65614 
4.2264 -7.72348 4.49644 
4.10469 -7.7181 4.48095 
4.0103 -7.71073 4.37679 
3.89057 -7.70212 4.26612 
3.78483 -7.70465 4.46004 
3.67326 -7.68774 4.10107 
3.57855 -7.67967 3.97728 
3.45689 -7.6721 3.89851 
3.35812 -7.66924 3.92943 
3.2388 -7.65467 3.64653 
3.14097 -7.64833 3.57631 
3.01396 -7.64544 3.6385 
2.91431 -7.6401 3.59882 
2.79179 -7.6333 3.54345 
2.69095 -7.63236 3.63199 
2.56826 -7.62486 3.55652 
2.46274 -7.62994 3.82374 
2.33959 -7.62069 3.69867 
2.23893 -7.61976 3.78712 
2.11174 -7.61594 3.82288 
2.01545 -7.60619 3.6526 
1.8913 -7.60095 3.64415 
1.78794 -7.59662 3.63795 
1.5631 -7.59313 3.79516 
1.43821 -7.58857 3.80706 
1.33937 -7.58588 3.84288 
1.21287 -7.58361 3.92255 
1.1124 -7.58143 3.97492 
0.986926 -7.57655 3.97851 
0.885694 -7.57729 4.11566 
0.657488 -7.5714 4.20781 
0.533161 -7.57402 4.42598 
0.431354 -7.57325 4.52059 
0.302366 -7.57614 4.75161 
0.207296 -7.5789 4.94007 
0.0823464 -7.57945 5.09919 
-0.0161625 -7.5771 5.14469 
-0.14106 -7.58306 5.45953 
-0.24102 -7.57799 5.42804 
-0.365663 -7.58086 5.65378 
-0.462606 -7.57867 5.702 
-0.58709 -7.5758 5.76213 
-0.686572 -7.56837 5.66238 
-0.807439 -7.57308 5.93685 
-0.907288 -7.56579 5.84135 
-1.0302 -7.56174 5.86586 
-1.12644 -7.55831 5.87752 
-1.25066 -7.55616 5.95841 
-1.34647 -7.55128 5.92793 
-1.47207 -7.53654 5.64762 
-1.57215 -7.52664 5.47735 
-1.69545 -7.51796 5.36912 
-1.79491 -7.51179 5.30585 
-1.91951 -7.50732 5.32011 
-2.02215 -7.49285 5.02119 
-3.25391 -7.28684 0.5044 
-3.38355 -7.28522 0.606943 
-3.49592 -7.26581 0.177123 
-3.62806 -7.25929 0.141101 
-3.73259 -7.25528 0.14563 
-3.8572 -7.25423 0.258504 
-3.95899 -7.2549 0.394797 
-4.0946 -7.23891 0.0902886 
-4.19494 -7.23837 0.190093 
-4.3298 -7.22995 0.102415 
-4.43798 -7.21946 -0.0752741 
-4.56287 -7.21881 0.0494994 
-4.67158 -7.2094 -0.0964184 
-4.92076 -7.18942 -0.385472 
-5.05165 -7.18343 -0.407329 
-5.17036 -7.17071 -0.637165 
-5.29875 -7.16574 -0.632871 
-5.40913 -7.1577 -0.737359 
-5.54305 -7.14934 -0.824105 
-5.66088 -7.13725 -1.03691 
-7.32257 -6.8656 -6.94916 
-7.44218 -6.85454 -7.13009 
-7.60222 -6.8354 -7.49705 
-7.72003 -6.82634 -7.62259 
-7.85253 -6.82537 -7.49809 
-7.96783 -6.81817 -7.57279 
-8.13254 -6.79865 -7.94552 
-8.28148 -6.76999 -8.59941 
-8.40005 -6.77713 -8.2575 
-8.52582 -6.76332 -8.51056 
-8.68712 -6.74694 -8.79674 
-8.80554 -6.74063 -8.84214 
-9.06101 -6.72753 -8.92543 
5.45437 -7.7291 4.28356 
5.22974 -7.72136 4.3175 
5.10954 -7.73026 4.70787 
5.00623 -7.71213 4.30816 
4.89494 -7.71751 4.58787 
4.76561 -7.7153 4.67144 
4.66478 -7.71333 4.72997 
4.54204 -7.70694 4.68704 
4.44788 -7.69966 4.58613 
4.22609 -7.68926 4.54136 
4.10645 -7.68196 4.469 
4.00715 -7.67867 4.48805 
3.8937 -7.66555 4.24272 
3.79269 -7.66344 4.29737 
3.674 -7.65286 4.13034 
3.58275 -7.64356 3.96868 
3.46202 -7.63395 3.83173 
3.35978 -7.62984 3.83085 
3.24026 -7.61989 3.68278 
3.13835 -7.61903 3.77419 
3.01506 -7.6115 3.69948 
2.91653 -7.6056 3.64318 
2.79102 -7.60141 3.66635 
2.69397 -7.59366 3.55541 
2.56577 -7.59313 3.68611 
2.46258 -7.59541 3.8685 
2.33603 -7.59299 3.9434 
2.24255 -7.5827 3.75612 
2.11577 -7.57728 3.74569 
2.01925 -7.56528 3.51308 
1.89218 -7.56691 3.70418 
1.7908 -7.55949 3.60787 
1.56403 -7.56041 3.89219 
1.44133 -7.55214 3.79576 
1.34035 -7.55181 3.90122 
1.21482 -7.54744 3.91944 
1.11605 -7.54184 3.87195 
0.991156 -7.53571 3.83913 
0.886431 -7.54161 4.12662 
0.661491 -7.53569 4.21374 
0.534132 -7.53796 4.4234 
0.433672 -7.53607 4.48403 
0.307109 -7.53936 4.72185 
0.20886 -7.54315 4.94177 
0.0836652 -7.54082 5.01785 
-0.0128134 -7.53842 5.05921 
-0.139045 -7.54404 5.36335 
-0.239583 -7.54361 5.46555 
-0.363313 -7.54326 5.59649 
-0.4626 -7.54139 5.65619 
-0.585185 -7.53623 5.64864 
-0.685736 -7.53646 5.76966 
-0.805838 -7.53582 5.88808 
-0.904733 -7.53311 5.92358 
-1.12509 -7.52194 5.85591 
-1.25183 -7.51406 5.77549 
-1.3453 -7.51312 5.855 
-1.47251 -7.49318 5.43093 
-1.56994 -7.49007 5.45329 
-1.69544 -7.48081 5.33213 
-1.7951 -7.47264 5.21256 
-2.02175 -7.45568 4.98689 
-3.25123 -7.24797 0.460777 
-3.39032 -7.23445 0.233469 
-3.49304 -7.22896 0.193866 
-3.62325 -7.22672 0.278554 
-3.72194 -7.22734 0.408753 
-3.85382 -7.2191 0.323871 
-3.96659 -7.20731 0.116157 
-4.08772 -7.20662 0.234532 
-4.19814 -7.19793 0.112348 
-4.32882 -7.19038 0.0459761 
-4.43784 -7.17964 -0.136078 
-4.56796 -7.17487 -0.12387 
-4.68219 -7.16145 -0.376453 
-4.90453 -7.16156 -0.119599 
-5.05715 -7.14006 -0.559239 
-5.15292 -7.14184 -0.399034 
-5.30017 -7.12499 -0.712052 
-5.40704 -7.12013 -0.728751 
-5.53797 -7.11365 -0.764396 
-5.64512 -7.10901 -0.774447 
-7.32665 -6.82274 -7.02634 
-7.45202 -6.807 -7.33253 
-7.61521 -6.78573 -7.75328 
-7.70717 -6.79418 -7.40713 
-7.85217 -6.78408 -7.52996 
-7.96241 -6.78064 -7.50229 
-8.10137 -6.77414 -7.52917 
-8.27379 -6.73341 -8.49488 
-8.38719 -6.74325 -8.08443 
-8.51303 -6.7298 -8.32473 
-8.6971 -6.69965 -8.97533 
-8.79173 -6.70634 -8.67613 
-9.02941 -6.7023 -8.51992 
5.36018 -7.68642 4.19455 
5.13492 -7.67877 4.23209 
5.00079 -7.68087 4.44263 
4.91081 -7.67199 4.29276 
4.76612 -7.67979 4.67648 
4.66727 -7.67784 4.73286 
4.54513 -7.67091 4.67437 
4.44381 -7.66748 4.69175 
4.32772 -7.65903 4.58352 
4.22653 -7.65473 4.57625 
4.10908 -7.64608 4.4639 
4.00667 -7.64487 4.54533 
3.89438 -7.6299 4.24862 
3.79703 -7.62548 4.23333 
3.67943 -7.61379 4.03546 
3.58197 -7.60988 4.0349 
3.46372 -7.5972 3.80976 
3.36359 -7.5912 3.7532 
3.24018 -7.58745 3.78631 
3.14089 -7.57983 3.6829 
3.02038 -7.5712 3.57484 
2.91809 -7.56981 3.65103 
2.79396 -7.5642 3.63232 
2.69592 -7.55817 3.57245 
2.56431 -7.5647 3.90578 
2.46894 -7.55387 3.7071 
2.34521 -7.54899 3.70874 
2.24216 -7.55068 3.87288 
2.11775 -7.54341 3.80766 
2.01815 -7.53498 3.68176 
1.89223 -7.53407 3.79831 
1.79272 -7.52515 3.65838 
1.56763 -7.51937 3.74912 
1.44197 -7.5168 3.81824 
1.34331 -7.51102 3.7664 
1.21781 -7.50932 3.85983 
1.11655 -7.5082 3.94248 
0.991197 -7.50558 4.01001 
0.888294 -7.50202 4.02571 
0.661426 -7.50375 4.33074 
0.535546 -7.50611 4.53984 
0.434093 -7.50702 4.68009 
0.309671 -7.5034 4.71851 
0.210387 -7.50849 4.97446 
0.0849949 -7.50708 5.07639 
-0.0118882 -7.50318 5.07548 
-0.237442 -7.50954 5.51037 
-0.361944 -7.50714 5.5833 
-0.459704 -7.50751 5.70421 
-0.584128 -7.50165 5.67923 
-0.68302 -7.50067 5.76322 
-0.804888 -7.49899 5.85357 
-0.904094 -7.49424 5.83129 
-1.12327 -7.4888 5.92535 
-1.24734 -7.48357 5.91759 
-1.34488 -7.47398 5.75686 
-1.46914 -7.46341 5.59832 
-1.56994 -7.44717 5.25312 
-1.6917 -7.44853 5.42906 
-1.79289 -7.43756 5.23328 
-2.01884 -7.42179 5.04304 
-3.14596 -7.21781 0.548178 
-3.24998 -7.21074 0.465938 
-3.38553 -7.20082 0.338812 
-3.49021 -7.19453 0.279341 
-3.6203 -7.1888 0.264432 
-3.72711 -7.18201 0.19324 
-3.8558 -7.17704 0.198287 
-3.96714 -7.16737 0.0507254 
-4.08833 -7.16779 0.199841 
-4.19572 -7.15961 0.0899497 
-4.33541 -7.14523 -0.158478 
-4.4344 -7.14082 -0.171401 
-4.57005 -7.13357 -0.22281 
-4.68255 -7.12182 -0.42781 
-4.90388 -7.12154 -0.185199 
-5.05426 -7.10446 -0.497892 
-5.16552 -7.09535 -0.629825 
-5.29787 -7.08806 -0.686135 
-5.41265 -7.07777 -0.847245 
-5.54001 -7.07217 -0.861419 
-5.64395 -7.07135 -0.766911 
-7.16643 -6.80138 -6.68019 
-7.32261 -6.78434 -6.98518 
-7.46139 -6.7604 -7.50536 
-7.56987 -6.77531 -6.96056 
-7.7293 -6.73848 -7.82184 
-7.83376 -6.75387 -7.26805 
-8.00048 -6.71435 -8.1974 
-8.22034 -6.72319 -7.69811 
-8.52119 -6.68399 -8.46612 
-8.68203 -6.66751 -8.75007 
-8.82267 -6.64783 -9.14769 
-9.08868 -6.63146 -9.30933 
5.36124 -7.65081 4.19935 
5.12272 -7.65241 4.51098 
5.00314 -7.64544 4.44936 
4.92363 -7.62843 4.0616 
4.77628 -7.63903 4.52345 
4.67505 -7.63875 4.62885 
4.54557 -7.63613 4.70022 
4.44778 -7.63061 4.65492 
4.23514 -7.61355 4.41484 
4.10925 -7.61143 4.49622 
4.01496 -7.60382 4.38837 
3.89243 -7.59798 4.36194 
3.79199 -7.59636 4.42912 
3.68349 -7.5762 3.98556 
3.58424 -7.57336 4.01688 
3.45595 -7.57057 4.08237 
3.368 -7.55588 3.76915 
3.24109 -7.55215 3.80688 
3.13928 -7.54813 3.80805 
3.02436 -7.53299 3.51259 
2.92419 -7.5283 3.4931 
2.79344 -7.53057 3.70334 
2.69339 -7.52974 3.792 
2.47028 -7.52029 3.7771 
2.34651 -7.51439 3.75044 
2.24487 -7.51221 3.8034 
2.1141 -7.5139 3.99721 
2.02211 -7.50018 3.71577 
1.89199 -7.50162 3.90184 
1.79229 -7.49364 3.78992 
1.56943 -7.48231 3.72221 
1.44251 -7.48421 3.91779 
1.34428 -7.47906 3.88338 
1.21723 -7.47763 3.98576 
1.11984 -7.46989 3.87792 
0.990166 -7.47441 4.15021 
0.891484 -7.46627 4.03257 
0.764578 -7.47038 4.29003 
0.663595 -7.46635 4.29054 
0.537718 -7.46781 4.47243 
0.43533 -7.47302 4.73349 
0.3126 -7.46687 4.69857 
0.212173 -7.47169 4.94646 
0.0864521 -7.47367 5.14292 
-0.0112903 -7.47105 5.17924 
-0.136129 -7.47446 5.41503 
-0.236049 -7.47279 5.48027 
-0.35995 -7.47007 5.54283 
-0.459403 -7.47075 5.67376 
-0.581695 -7.46545 5.66232 
-0.682249 -7.46411 5.73744 
-0.803244 -7.46097 5.78527 
-0.902319 -7.45548 5.74263 
-1.12232 -7.44853 5.79459 
-1.24822 -7.44085 5.7206 
-1.34396 -7.43775 5.74115 
-1.46978 -7.41999 5.38469 
-1.56788 -7.41496 5.35363 
-1.68989 -7.4116 5.39656 
-1.79149 -7.39833 5.13839 
-2.01846 -7.37953 4.86621 
-3.14683 -7.17887 0.506966 
-3.24867 -7.17281 0.451464 
-3.38317 -7.16451 0.369626 
-3.49046 -7.1551 0.22628 
-3.61517 -7.15539 0.374777 
-3.72517 -7.14364 0.168651 
-3.96218 -7.13196 0.107651 
-4.08919 -7.12528 0.0630062 
-4.19357 -7.12207 0.0902976 
-4.32832 -7.1128 -0.0182918 
-4.44313 -7.09667 -0.341708 
-4.56629 -7.09929 -0.129754 
-4.68273 -7.08321 -0.449791 
-4.80183 -7.08831 -0.172891 
-4.91494 -7.07557 -0.402936 
-5.05846 -7.06191 -0.624771 
-5.15258 -7.0647 -0.440777 
-5.30384 -7.04423 -0.844791 
-5.41092 -7.03989 -0.846118 
-5.54265 -7.03224 -0.91247 
-5.65074 -7.02692 -0.94018 
-5.7919 -7.01401 -1.14338 
-7.329 -6.73649 -7.19808 
-7.45475 -6.72321 -7.4292 
-7.57892 -6.72678 -7.18928 
-7.73253 -6.69598 -7.88038 
-7.88091 -6.68211 -8.10253 
-7.96258 -6.69796 -7.56598 
-8.12486 -6.67706 -7.96971 
-8.24977 -6.66296 -8.22465 
-8.38929 -6.65858 -8.19055 
-8.52993 -6.63745 -8.62487 
-8.64481 -6.64763 -8.20997 
-8.79582 -6.62125 -8.78013 
-9.07185 -6.59855 -9.10606 
5.13427 -7.61062 4.32986 
5.00553 -7.60888 4.42464 
4.91409 -7.60102 4.30757 
4.78527 -7.59817 4.37158 
4.67435 -7.60419 4.6621 
4.55274 -7.59696 4.59604 
4.4528 -7.59255 4.58465 
4.32953 -7.58821 4.60097 
4.2337 -7.58114 4.51097 
4.11921 -7.56943 4.31301 
4.01783 -7.56716 4.36244 
3.89598 -7.56089 4.32365 
3.80279 -7.55242 4.19185 
3.68344 -7.54186 4.03105 
3.58453 -7.53921 4.0675 
3.46447 -7.52882 3.91207 
3.3713 -7.51958 3.75916 
3.24333 -7.51553 3.78881 
3.14341 -7.51202 3.80242 
3.02436 -7.4996 3.58948 
2.92283 -7.49606 3.60408 
2.79203 -7.49942 3.84292 
2.70002 -7.48478 3.53846 
2.56735 -7.49197 3.88583 
2.46801 -7.4906 3.95825 
2.35138 -7.47154 3.55847 
2.25744 -7.45114 3.09593 
2.11451 -7.47858 4.01753 
2.02249 -7.46845 3.83839 
1.89517 -7.46145 3.78542 
1.79451 -7.45762 3.79114 
1.56987 -7.45104 3.85829 
1.44051 -7.44601 3.8623 
1.34566 -7.44135 3.83831 
1.22066 -7.43713 3.86033 
1.12192 -7.4309 3.79717 
0.993587 -7.43631 4.09032 
0.896824 -7.42532 3.89269 
0.667926 -7.42684 4.18952 
0.539 -7.43404 4.53321 
0.438742 -7.43123 4.56694 
0.313289 -7.43224 4.73469 
0.213867 -7.43756 4.99325 
0.0886276 -7.43578 5.08329 
-0.00961293 -7.4366 5.21543 
-0.134391 -7.43759 5.38208 
-0.234662 -7.43758 5.49337 
-0.35765 -7.43245 5.48788 
-0.45684 -7.43367 5.63208 
-0.579929 -7.42699 5.58374 
-0.679574 -7.42516 5.64377 
-0.802228 -7.41842 5.59315 
-0.90045 -7.42056 5.76197 
-1.12143 -7.41179 5.76471 
-1.24559 -7.40474 5.70692 
-1.34211 -7.40223 5.74491 
-1.46808 -7.38773 5.48214 
-1.5659 -7.37988 5.37301 
-1.69057 -7.36931 5.21806 
-1.7884 -7.37094 5.37264 
-3.14615 -7.13863 0.42849 
-3.24789 -7.13971 0.571942 
-3.3838 -7.12264 0.248984 
-3.48806 -7.11707 0.210476 
-3.61435 -7.11541 0.305134 
-3.7284 -7.10265 0.0776098 
-3.95461 -7.09988 0.252987 
-4.08661 -7.08897 0.0970266 
-4.19521 -7.08126 0.00380587 
-4.33279 -7.07088 -0.13135 
-4.42972 -7.07172 0.000207514 
-4.56221 -7.06294 -0.0960074 
-4.66735 -7.05614 -0.167858 
-4.91669 -7.03456 -0.489576 
-5.05182 -7.02774 -0.528366 
-5.16171 -7.01961 -0.631587 
-5.29972 -7.00862 -0.783128 
-5.40918 -7.00183 -0.849821 
-5.54011 -6.99565 -0.87545 
-5.65631 -6.98352 -1.08303 
-7.44012 -6.69128 -7.21699 
-7.61676 -6.66127 -7.85407 
-7.71362 -6.66656 -7.59881 
-7.84573 -6.66469 -7.50332 
-7.9736 -6.64925 -7.78975 
-8.2227 -6.63968 -7.77759 
-8.40435 -6.60882 -8.43272 
-8.54834 -6.58682 -8.8838 
-8.65594 -6.59835 -8.44283 
-8.82392 -6.56425 -9.20353 
-9.05224 -6.56753 -8.85717 
5.14027 -7.57187 4.24184 
5.01357 -7.57011 4.33303 
4.91145 -7.56859 4.40391 
4.79229 -7.55904 4.27224 
4.67615 -7.56837 4.65726 
4.55262 -7.56288 4.64226 
4.45791 -7.55486 4.52565 
4.33232 -7.55151 4.57188 
4.23889 -7.54282 4.43562 
4.11902 -7.53585 4.37596 
4.02344 -7.52832 4.27379 
3.90236 -7.52035 4.18784 
3.80501 -7.51508 4.15017 
3.68119 -7.50958 4.13537 
3.58771 -7.50083 3.99752 
3.46927 -7.49147 3.87034 
3.37222 -7.48112 3.69218 
3.24467 -7.47982 3.7971 
3.14888 -7.46898 3.60437 
3.02621 -7.46333 3.58411 
2.92415 -7.45927 3.58491 
2.79385 -7.46385 3.85506 
2.69906 -7.45348 3.67389 
2.56802 -7.45677 3.90925 
2.47104 -7.45194 3.88322 
2.35343 -7.43143 3.44825 
2.24304 -7.44742 4.01069 
2.11762 -7.44212 4.00311 
2.01796 -7.43958 4.04335 
1.89504 -7.42978 3.90893 
1.7962 -7.42294 3.82964 
1.56836 -7.42036 4.01048 
1.44539 -7.41154 3.90335 
1.34868 -7.40372 3.79478 
1.22273 -7.39702 3.74916 
1.12201 -7.39413 3.78102 
0.997691 -7.39573 3.96249 
0.895707 -7.38738 3.8451 
0.6677 -7.39256 4.2397 
0.541199 -7.3955 4.46067 
0.439622 -7.39845 4.65436 
0.314117 -7.39775 4.77387 
0.215644 -7.40263 5.01696 
0.0908434 -7.39773 5.02006 
-0.0081748 -7.39863 5.15444 
-0.231859 -7.40042 5.45097 
-0.356026 -7.39581 5.46147 
-0.453638 -7.39638 5.58507 
-0.578056 -7.39126 5.58149 
-0.67707 -7.39015 5.66047 
-0.799736 -7.38996 5.7909 
-0.899152 -7.38422 5.74284 
-1.11947 -7.37846 5.82797 
-1.24291 -7.36664 5.63861 
-1.34088 -7.36173 5.61189 
-1.46489 -7.35006 5.42736 
-1.5641 -7.34727 5.46018 
-1.6873 -7.3371 5.31638 
-1.78885 -7.32535 5.10493 
-2.01189 -7.31626 5.10131 
-3.14319 -7.10537 0.541458 
-3.25284 -7.0905 0.252895 
-3.38294 -7.08594 0.271337 
-3.48782 -7.0813 0.259446 
-3.6135 -7.07725 0.287027 
-3.72204 -7.06921 0.185567 
-3.8508 -7.06288 0.153831 
-3.95456 -7.06205 0.245908 
-4.08662 -7.04949 0.0459422 
-4.19003 -7.04731 0.100483 
-4.329 -7.03286 -0.143941 
-4.43434 -7.02697 -0.189653 
-4.57499 -7.01186 -0.450162 
-4.66582 -7.01869 -0.161241 
-4.80837 -7.005 -0.380734 
-4.90187 -7.00664 -0.232055 
-5.0587 -6.98385 -0.686325 
-5.1549 -6.98402 -0.575139 
-5.30191 -6.96674 -0.888549 
-5.40056 -6.96762 -0.754887 
-5.53369 -6.95971 -0.825277 
-5.6586 -6.94159 -1.1866 
-7.45339 -6.64072 -7.49089 
-7.61608 -6.62089 -7.85738 
-7.71968 -6.62038 -7.75646 
-7.85414 -6.61718 -7.6955 
-7.99184 -6.59697 -8.10006 
-8.12786 -6.59201 -8.08593 
-8.23682 -6.58881 -8.05329 
-8.42327 -6.5562 -8.74552 
-8.53182 -6.55552 -8.64398 
-8.66806 -6.5516 -8.6009 
-8.82262 -6.52244 -9.23338 
-9.08632 -6.50648 -9.38088 
5.11617 -7.55418 4.76372 
4.93411 -7.51772 3.96704 
4.80298 -7.517 4.0909 
4.68525 -7.52728 4.50067 
4.55873 -7.52355 4.53725 
4.45787 -7.5206 4.56716 
4.24274 -7.50491 4.37413 
4.12201 -7.49871 4.33713 
4.02566 -7.49183 4.25464 
3.90787 -7.48138 4.0983 
3.805 -7.48205 4.22934 
3.68202 -7.47449 4.15774 
3.58613 -7.46927 4.12002 
3.47116 -7.45579 3.87779 
3.37346 -7.44562 3.70715 
3.24706 -7.44495 3.82727 
3.14747 -7.43765 3.7371 
3.02659 -7.43053 3.67518 
2.9247 -7.42536 3.64547 
2.79617 -7.42638 3.81428 
2.70064 -7.41894 3.71596 
2.57249 -7.41897 3.85714 
2.47271 -7.41607 3.88751 
2.34623 -7.41011 3.86325 
2.24473 -7.41137 4.00891 
2.11957 -7.40629 4.00762 
2.02243 -7.39897 3.91424 
1.89363 -7.39925 4.06314 
1.79577 -7.38771 3.8551 
1.57282 -7.37907 3.86375 
1.44729 -7.37274 3.82855 
1.34974 -7.36977 3.85436 
1.22509 -7.36438 3.84384 
1.12396 -7.36125 3.86921 
0.998085 -7.35983 3.96854 
0.896185 -7.36063 4.10235 
0.669162 -7.35528 4.2053 
0.54298 -7.36241 4.53858 
0.441947 -7.36276 4.65901 
0.314227 -7.37024 5.00361 
0.216827 -7.36882 5.07189 
0.0928897 -7.35939 4.95039 
-0.00474877 -7.356 4.96494 
-0.130854 -7.36569 5.36807 
-0.230706 -7.36412 5.43482 
-0.354812 -7.36218 5.51805 
-0.451149 -7.3618 5.6136 
-0.576784 -7.35837 5.6579 
-0.675429 -7.35574 5.69437 
-0.799309 -7.35327 5.76285 
-0.897374 -7.34783 5.72201 
-1.11733 -7.34187 5.80082 
-1.24217 -7.33607 5.77952 
-1.33988 -7.32258 5.51815 
-1.4645 -7.31276 5.3869 
-1.56387 -7.30435 5.26615 
-1.68721 -7.29949 5.26903 
-1.78777 -7.2896 5.10911 
-3.01339 -7.06803 0.401321 
-3.1455 -7.06247 0.394778 
-3.24626 -7.05905 0.412121 
-3.38188 -7.04529 0.184967 
-3.48683 -7.04189 0.207428 
-3.61601 -7.03554 0.17605 
-3.72621 -7.02522 0.0152659 
-3.84891 -7.02822 0.232077 
-3.95727 -7.01754 0.0593345 
-4.08148 -7.0165 0.167426 
-4.1884 -7.00927 0.0876902 
-4.32875 -6.99347 -0.189888 
-4.42875 -6.98984 -0.179085 
-4.5636 -6.98189 -0.248139 
-4.66862 -6.97858 -0.223082 
-4.91443 -6.95831 -0.50651 
-5.04453 -6.95427 -0.473762 
-5.16274 -6.94023 -0.727563 
-5.29241 -6.93504 -0.726568 
-5.40745 -6.92373 -0.909247 
-5.53476 -6.92039 -0.860256 
-5.64571 -6.91254 -0.952857 
-7.45774 -6.59721 -7.57732 
-7.61594 -6.58037 -7.86341 
-7.74083 -6.56598 -8.11921 
-7.85088 -6.57769 -7.67812 
-7.9862 -6.55761 -8.07789 
-8.24236 -6.54421 -8.16218 
-8.38243 -6.53791 -8.18019 
-8.52182 -6.51928 -8.5358 
-8.7175 -6.48211 -9.33638 
-8.80136 -6.49223 -8.96749 
-8.93732 -6.49077 -8.85762 
-9.04065 -6.48825 -8.8126 
5.02527 -7.49188 4.14099 
4.93018 -7.48617 4.08976 
4.81682 -7.47327 3.86362 
4.70104 -7.48224 4.23253 
4.56723 -7.48347 4.41128 
4.46819 -7.47899 4.39772 
4.34516 -7.47401 4.39641 
4.242 -7.47161 4.44373 
4.12506 -7.46171 4.30288 
4.02971 -7.45421 4.20334 
3.90909 -7.44692 4.13708 
3.80728 -7.44601 4.2233 
3.6796 -7.44253 4.26802 
3.59235 -7.42914 4.00029 
3.46953 -7.42098 3.91266 
3.37598 -7.41059 3.73309 
3.25044 -7.4052 3.72393 
3.14955 -7.4029 3.7714 
3.02659 -7.39645 3.73041 
2.92315 -7.39608 3.83292 
2.79462 -7.39486 3.93981 
2.69675 -7.39049 3.92808 
2.569 -7.38856 4.01489 
2.47367 -7.38148 3.92682 
2.34674 -7.37628 3.92435 
2.2457 -7.37734 4.06301 
2.11954 -7.37188 4.05261 
2.02095 -7.36722 4.03357 
1.89754 -7.35971 3.96473 
1.79919 -7.35264 3.88027 
1.57208 -7.34908 4.0313 
1.44545 -7.34724 4.11938 
1.35038 -7.33726 3.95247 
1.22515 -7.332 3.94642 
1.12741 -7.32707 3.91954 
0.997773 -7.32778 4.08003 
0.896021 -7.32713 4.17314 
0.673033 -7.31397 4.05963 
0.545104 -7.32424 4.47744 
0.442745 -7.33012 4.7483 
0.31838 -7.32859 4.84245 
0.218594 -7.33102 5.01691 
0.0955934 -7.32667 5.03318 
-0.00461628 -7.32735 5.16087 
-0.230021 -7.33091 5.5031 
-0.352378 -7.32576 5.49709 
-0.4505 -7.32517 5.58803 
-0.575157 -7.32009 5.58654 
-0.67353 -7.3182 5.64254 
-0.797401 -7.3148 5.68546 
-0.896579 -7.31001 5.66393 
-1.11723 -7.29971 5.6256 
-1.24156 -7.29092 5.52313 
-1.33819 -7.28788 5.54621 
-1.46341 -7.27039 5.2087 
-1.56289 -7.26754 5.23999 
-1.68766 -7.25815 5.12177 
-1.78659 -7.24828 4.96225 
-2.91241 -7.03253 0.344695 
-3.00965 -7.03486 0.514043 
-3.14249 -7.0279 0.47048 
-3.24609 -7.01985 0.365516 
-3.37892 -7.01145 0.282672 
-3.4789 -7.01051 0.366366 
-3.61256 -7.00095 0.253355 
-3.72013 -6.9935 0.169018 
-3.95856 -6.97856 0.024416 
-4.08083 -6.98075 0.217319 
-4.18683 -6.96961 0.0311 
-4.31904 -6.96393 0.0215352 
-4.42737 -6.95513 -0.0986229 
-4.55555 -6.95219 -0.0381338 
-4.66207 -6.94588 -0.0927965 
-4.89832 -6.93138 -0.227833 
-5.05028 -6.91097 -0.61475 
-5.15488 -6.90627 -0.627954 
-5.29253 -6.89569 -0.764239 
-5.40294 -6.88923 -0.818726 
-5.5512 -6.86881 -1.21017 
-5.65874 -6.86413 -1.21942 
-7.46248 -6.55187 -7.71143 
-7.60019 -6.5487 -7.64674 
-7.72518 -6.53541 -7.87046 
-7.8424 -6.54224 -7.55708 
-7.97594 -6.52303 -7.9316 
-8.1348 -6.50523 -8.24051 
-8.23522 -6.50781 -8.06072 
-8.413 -6.47893 -8.64916 
-8.55818 -6.4563 -9.10367 
-8.70208 -6.44888 -9.1475 
-8.80104 -6.45115 -8.97777 
-9.07514 -6.42767 -9.31439 
5.16015 -7.45529 3.97612 
4.93087 -7.4511 4.11084 
4.70129 -7.44798 4.27501 
4.56978 -7.4475 4.40427 
4.47667 -7.43827 4.25688 
4.24635 -7.43467 4.40883 
4.13259 -7.42195 4.19005 
4.03996 -7.41128 4.0036 
3.90823 -7.4126 4.18128 
3.81212 -7.40674 4.12776 
3.685 -7.4035 4.17824 
3.59531 -7.39254 3.98057 
3.47399 -7.38396 3.88129 
3.37595 -7.37678 3.79439 
3.24864 -7.37469 3.87571 
3.15197 -7.369 3.82737 
3.02741 -7.36053 3.73459 
2.92483 -7.36034 3.84042 
2.79928 -7.35428 3.81343 
2.69883 -7.35478 3.93534 
2.47824 -7.34272 3.85003 
2.34474 -7.3477 4.12802 
2.24545 -7.34341 4.12024 
2.1189 -7.34029 4.17334 
2.02442 -7.33005 4.00044 
1.89874 -7.32459 3.98974 
1.80039 -7.31651 3.87908 
1.57401 -7.31215 4.00661 
1.45025 -7.30617 3.98008 
1.35249 -7.30141 3.95803 
1.22733 -7.29566 3.93895 
1.12723 -7.29295 3.97429 
1.0018 -7.28747 3.96278 
0.900692 -7.28566 4.02359 
0.671276 -7.28488 4.251 
0.546535 -7.28708 4.4451 
0.446109 -7.28754 4.56628 
0.319243 -7.29221 4.82893 
0.222783 -7.28214 4.66298 
0.0959346 -7.29412 5.12201 
-0.00476726 -7.29384 5.22371 
-0.225864 -7.28922 5.33883 
-0.351376 -7.29238 5.55962 
-0.450846 -7.29252 5.67111 
-0.573292 -7.28677 5.64917 
-0.673468 -7.28485 5.70622 
-0.795265 -7.28007 5.70968 
-0.894117 -7.27861 5.77761 
-1.11455 -7.26977 5.77882 
-1.24021 -7.25183 5.43304 
-1.33617 -7.24935 5.47018 
-1.4618 -7.23566 5.23855 
-1.5603 -7.23212 5.25014 
-1.68628 -7.21791 5.00485 
-1.78375 -7.218 5.11287 
-2.90793 -6.9976 0.408823 
-3.00696 -6.99833 0.53567 
-3.1414 -6.98832 0.412371 
-3.23991 -6.98822 0.51647 
-3.37838 -6.97104 0.205075 
-3.48277 -6.96506 0.15742 
-3.61179 -6.96224 0.221763 
-3.71519 -6.96043 0.285217 
-3.84918 -6.94574 0.0357669 
-3.94814 -6.94911 0.23349 
-4.08053 -6.94097 0.158288 
-4.18747 -6.93275 0.0533262 
-4.31763 -6.92271 -0.0752837 
-4.42672 -6.91551 -0.150382 
-4.56201 -6.90539 -0.275673 
-4.66878 -6.9 -0.304702 
-4.78898 -6.90261 -0.10399 
-4.90654 -6.88611 -0.419958 
-5.04969 -6.87212 -0.640824 
-5.15424 -6.86756 -0.649848 
-5.2918 -6.85721 -0.778812 
-5.39805 -6.85207 -0.801467 
-5.54909 -6.83192 -1.1793 
-5.65094 -6.83028 -1.11282 
-7.43357 -6.52992 -7.25094 
-7.61195 -6.50019 -7.8563 
-7.71406 -6.50011 -7.74768 
-7.84859 -6.49755 -7.67043 
-7.97237 -6.4837 -7.90838 
-8.25685 -6.45311 -8.42161 
-8.37799 -6.45651 -8.19856 
-8.52441 -6.43244 -8.68655 
-8.68732 -6.41566 -8.96065 
-8.79706 -6.41112 -8.9636 
-9.09332 -6.37716 -9.55474 
5.02739 -7.42219 4.19326 
4.7028 -7.41259 4.28542 
4.57954 -7.40589 4.23917 
4.48506 -7.39709 4.10618 
4.3567 -7.39577 4.20861 
4.25107 -7.39535 4.31077 
4.13419 -7.38617 4.19164 
4.03543 -7.38159 4.17571 
3.91487 -7.37245 4.06141 
3.81195 -7.37288 4.18329 
3.6887 -7.36653 4.1465 
3.59929 -7.35468 3.9267 
3.47461 -7.34909 3.91169 
3.37974 -7.33923 3.7509 
3.24507 -7.34396 4.0213 
3.15257 -7.33124 3.78173 
3.02733 -7.3274 3.81397 
2.92727 -7.3225 3.79087 
2.79601 -7.32556 4.01333 
2.69807 -7.32189 4.02079 
2.5733 -7.31588 3.99474 
2.4798 -7.30599 3.83144 
2.34383 -7.31561 4.23393 
2.24348 -7.31089 4.21598 
2.12172 -7.30319 4.14145 
2.02876 -7.29015 3.89408 
1.90156 -7.2869 3.94412 
1.80327 -7.27891 3.8368 
1.57667 -7.27318 3.92757 
1.45272 -7.26503 3.84352 
1.35482 -7.25989 3.81188 
1.22519 -7.26913 4.19729 
1.12707 -7.25969 4.05132 
1.00245 -7.2566 4.10294 
0.899724 -7.25807 4.25243 
0.673197 -7.25202 4.33472 
0.5486 -7.25001 4.41513 
0.446219 -7.25618 4.68947 
0.321806 -7.25253 4.72599 
0.223703 -7.25194 4.81595 
0.097326 -7.2593 5.14777 
-0.00206695 -7.25674 5.18659 
-0.225371 -7.25929 5.49472 
-0.348932 -7.25461 5.50278 
-0.448743 -7.25526 5.62753 
-0.571067 -7.24433 5.4678 
-0.671392 -7.24817 5.67809 
-0.793319 -7.24508 5.72698 
-0.892986 -7.24011 5.70172 
-1.1126 -7.22841 5.62617 
-1.23753 -7.21842 5.49443 
-1.33538 -7.21106 5.40356 
-1.46066 -7.19962 5.23348 
-1.55797 -7.19496 5.21408 
-1.68221 -7.18693 5.13377 
-1.7826 -7.17498 4.9233 
-2.90684 -6.9587 0.3696 
-3.00615 -6.96054 0.525524 
-3.14423 -6.94445 0.245307 
-3.24538 -6.94574 0.388595 
-3.3759 -6.93554 0.257333 
-3.47706 -6.93116 0.249442 
-3.60771 -6.92656 0.2676 
-3.71549 -6.9202 0.214219 
-3.83843 -6.91952 0.328579 
-3.95116 -6.90558 0.0785021 
-4.08046 -6.90021 0.0745816 
-4.18781 -6.89217 -0.0240725 
-4.32547 -6.87791 -0.256011 
-4.42944 -6.87418 -0.243311 
-4.56383 -6.86739 -0.279543 
-4.66057 -6.86662 -0.195723 
-4.80364 -6.85331 -0.396358 
-4.90605 -6.84809 -0.425127 
-5.04725 -6.83557 -0.606686 
-5.15194 -6.83069 -0.624115 
-5.28998 -6.81944 -0.775236 
-5.40814 -6.80609 -1.00372 
-5.52516 -6.80929 -0.79232 
-7.32657 -6.49318 -7.27646 
-7.43684 -6.48754 -7.30795 
-7.61966 -6.45312 -8.02832 
-7.7093 -6.46305 -7.66692 
-7.84113 -6.46158 -7.56397 
-7.9975 -6.42512 -8.36751 
-8.25323 -6.41318 -8.40975 
-8.42364 -6.38856 -8.88237 
-8.51306 -6.39774 -8.54115 
-8.65381 -6.39152 -8.55531 
-8.78108 -6.37947 -8.73919 
-9.0577 -6.35497 -9.09387 
4.96226 -7.3565 3.47453 
4.50715 -7.3467 3.70006 
4.25598 -7.35678 4.23397 
4.13586 -7.35041 4.19382 
4.03868 -7.3437 4.11997 
3.91444 -7.33865 4.11899 
3.81481 -7.33687 4.17812 
3.69275 -7.32805 4.07525 
3.60006 -7.31969 3.95319 
3.47473 -7.31354 3.92418 
3.37714 -7.30861 3.89801 
3.25322 -7.3032 3.88711 
3.15396 -7.298 3.85567 
3.02788 -7.29348 3.87065 
2.9316 -7.28283 3.69184 
2.79891 -7.28959 4.01197 
2.70282 -7.2827 3.93234 
2.57638 -7.27746 3.92873 
2.48019 -7.2722 3.89248 
2.34717 -7.27864 4.20452 
2.24715 -7.27417 4.1932 
2.12996 -7.25911 3.9202 
2.02752 -7.25935 4.03576 
1.89923 -7.25692 4.10838 
1.7992 -7.25103 4.05952 
1.67707 -7.24492 4.02835 
1.57616 -7.24279 4.07981 
1.45377 -7.23543 4.01605 
1.35406 -7.23238 4.04172 
1.22662 -7.23446 4.23265 
1.12961 -7.22344 4.04512 
1.00497 -7.22143 4.12511 
0.901594 -7.22054 4.21183 
0.676972 -7.20966 4.16425 
0.550619 -7.21388 4.41046 
0.447636 -7.22274 4.75466 
0.323227 -7.21205 4.60499 
0.224384 -7.22074 4.94019 
0.0989331 -7.22363 5.15043 
-2.38994e-05 -7.22019 5.16542 
-0.222965 -7.22171 5.44361 
-0.347037 -7.21588 5.42196 
-0.446404 -7.21243 5.43703 
-0.570198 -7.21032 5.51353 
-0.668868 -7.21174 5.65646 
-0.791878 -7.20428 5.59076 
-0.891068 -7.20434 5.69838 
-1.11079 -7.19593 5.71088 
-1.23665 -7.18006 5.42591 
-1.33471 -7.16905 5.2397 
-1.45988 -7.16057 5.14933 
-1.55832 -7.15619 5.13877 
-1.68077 -7.15296 5.18416 
-1.78544 -7.13021 4.69484 
-2.90353 -6.92599 0.492374 
-3.00874 -6.91557 0.329373 
-3.1406 -6.90878 0.291098 
-3.24877 -6.89943 0.159372 
-3.38025 -6.88944 0.0360772 
-3.47396 -6.8985 0.375791 
-3.60237 -6.89299 0.367544 
-3.71226 -6.88244 0.206204 
-3.84698 -6.86904 -0.00399373 
-3.94226 -6.87592 0.279689 
-4.07586 -6.86637 0.170272 
-4.17849 -6.86367 0.208629 
-4.31859 -6.84552 -0.121313 
-4.42445 -6.83908 -0.17813 
-4.56346 -6.82899 -0.296092 
-4.6597 -6.82916 -0.188682 
-4.80539 -6.81208 -0.484473 
-4.90569 -6.80856 -0.469928 
-5.03767 -6.80435 -0.440048 
-5.16125 -6.78577 -0.79891 
-5.27813 -6.7907 -0.543637 
-5.40961 -6.76636 -1.04636 
-5.53608 -6.76114 -1.04893 
-7.44402 -6.43952 -7.50888 
-7.60874 -6.41776 -7.90781 
-7.71801 -6.41575 -7.84394 
-7.85649 -6.4095 -7.86094 
-7.94644 -6.4175 -7.55301 
-8.13299 -6.38151 -8.30484 
-8.2469 -6.37569 -8.33661 
-8.42571 -6.34815 -8.8732 
-8.47956 -6.37755 -8.03834 
-8.70992 -6.31872 -9.34681 
-8.76873 -6.34549 -8.57603 
-9.08122 -6.30177 -9.39716 
4.72879 -7.32332 3.79744 
4.59531 -7.32404 3.95762 
4.26534 -7.31411 4.0464 
4.13948 -7.31289 4.14769 
4.04143 -7.30676 4.09084 
3.92032 -7.29948 4.02811 
3.8173 -7.30052 4.16441 
3.69741 -7.28937 3.99919 
3.59512 -7.2882 4.07693 
3.47661 -7.2773 3.9167 
3.37708 -7.27339 3.91954 
3.25474 -7.2657 3.84769 
3.15308 -7.26409 3.91316 
3.02988 -7.25765 3.87488 
2.93141 -7.2503 3.78644 
2.80181 -7.25184 3.96423 
2.70549 -7.24453 3.87466 
2.57475 -7.24595 4.05019 
2.48324 -7.23439 3.84424 
2.34323 -7.24972 4.39436 
2.24523 -7.24494 4.37291 
2.12799 -7.22869 4.07139 
2.02988 -7.2213 3.98144 
1.90356 -7.21666 3.9937 
1.80316 -7.211 3.95184 
1.57933 -7.20567 4.04941 
1.45414 -7.20012 4.03662 
1.35697 -7.19331 3.96104 
1.22814 -7.19482 4.1373 
1.12731 -7.19395 4.22153 
1.00186 -7.1942 4.36097 
0.908091 -7.1766 3.99918 
0.680165 -7.1729 4.14379 
0.551532 -7.18225 4.52524 
0.450243 -7.18271 4.64483 
0.324382 -7.17977 4.70101 
0.227164 -7.1803 4.81823 
0.101682 -7.18547 5.0867 
0.00227742 -7.18618 5.21077 
-0.219942 -7.18255 5.35134 
-0.345234 -7.17978 5.41173 
-0.443848 -7.17805 5.47094 
-0.56791 -7.17751 5.58851 
-0.667909 -7.17284 5.57219 
-0.791499 -7.17135 5.66418 
-0.889893 -7.16215 5.52755 
-1.10964 -7.15528 5.58059 
-1.23529 -7.13915 5.29119 
-1.3335 -7.13098 5.18123 
-1.45763 -7.12683 5.2043 
-1.55486 -7.12366 5.22428 
-1.67863 -7.11611 5.15774 
-2.90154 -6.88938 0.512314 
-3.00406 -6.88245 0.439452 
-3.13434 -6.87721 0.440669 
-3.2389 -6.87056 0.377311 
-3.36969 -6.8615 0.278724 
-3.47654 -6.85196 0.142092 
-3.59987 -6.85557 0.367764 
-3.70991 -6.84623 0.239728 
-3.84308 -6.83474 0.0799774 
-3.94544 -6.83096 0.0895831 
-4.07856 -6.82319 0.0272375 
-4.18459 -6.81708 -0.0203295 
-4.31777 -6.80633 -0.160415 
-4.42123 -6.80206 -0.162483 
-4.5625 -6.78916 -0.350673 
-4.66017 -6.78945 -0.239141 
-4.79609 -6.78114 -0.312735 
-4.89626 -6.77784 -0.292753 
-5.03679 -6.76445 -0.494506 
-5.16043 -6.74724 -0.814265 
-5.28292 -6.74735 -0.68129 
-5.40163 -6.73317 -0.92669 
-5.52975 -6.72694 -0.953901 
-7.32585 -6.41112 -7.32554 
-7.44396 -6.4005 -7.47835 
-7.57929 -6.39551 -7.46518 
-7.69703 -6.38872 -7.51811 
-7.85546 -6.37037 -7.83076 
-7.96541 -6.36427 -7.87374 
-8.12113 -6.34901 -8.10812 
-8.27603 -6.31566 -8.81807 
-8.39173 -6.32651 -8.41045 
-8.54511 -6.29536 -9.06415 
-8.65251 -6.31015 -8.56179 
-8.7566 -6.31156 -8.41418 
-9.05878 -6.2697 -9.19029 
4.15423 -7.26634 3.85594 
4.03936 -7.27464 4.19255 
3.92461 -7.26204 3.98553 
3.82284 -7.26004 4.04046 
3.69761 -7.25516 4.04546 
3.60538 -7.24649 3.91691 
3.47766 -7.24443 3.99785 
3.38199 -7.23483 3.84888 
3.25478 -7.23284 3.93088 
3.15325 -7.2307 3.98202 
3.02871 -7.2249 3.96232 
2.93015 -7.2186 3.90219 
2.80312 -7.21689 3.99145 
2.70431 -7.2123 3.97614 
2.57781 -7.20795 3.99609 
2.48324 -7.20081 3.91015 
2.3511 -7.20443 4.14318 
2.24587 -7.20878 4.36704 
2.12652 -7.19591 4.15825 
2.03046 -7.18792 4.05144 
1.90601 -7.18261 4.04438 
1.80742 -7.1744 3.93477 
1.57927 -7.17214 4.11628 
1.45657 -7.1636 4.02354 
1.35675 -7.16108 4.063 
1.23047 -7.16076 4.18778 
1.12873 -7.1601 4.27752 
1.00495 -7.15615 4.30536 
0.904253 -7.14951 4.23867 
0.678362 -7.14836 4.44665 
0.554626 -7.14562 4.50577 
0.451017 -7.15288 4.80377 
0.327691 -7.14677 4.77485 
0.228244 -7.14835 4.92075 
0.102023 -7.15292 5.17236 
0.00411736 -7.14979 5.19416 
-0.219268 -7.15013 5.4384 
-0.343541 -7.14716 5.49216 
-0.442606 -7.13912 5.38771 
-0.566195 -7.13745 5.47437 
-0.66656 -7.13638 5.55234 
-0.788732 -7.1369 5.69483 
-0.887927 -7.12889 5.59098 
-1.10842 -7.11676 5.50793 
-1.23349 -7.10487 5.33068 
-1.33093 -7.10166 5.35005 
-1.45733 -7.08562 5.0661 
-1.55328 -7.08405 5.12666 
-2.90077 -6.84851 0.422621 
-3.00468 -6.84286 0.385265 
-3.13444 -6.83709 0.372005 
-3.23991 -6.83111 0.327889 
-3.36456 -6.82825 0.384922 
-3.47429 -6.81614 0.185786 
-3.60073 -6.81472 0.282443 
-3.7112 -6.80039 0.0263286 
-3.94297 -6.7955 0.143737 
-4.07345 -6.7912 0.169471 
-4.18057 -6.78198 0.0427842 
-4.31408 -6.77236 -0.0665653 
-4.42019 -6.76205 -0.222488 
-4.55475 -6.75858 -0.170797 
-4.65518 -6.75488 -0.161086 
-4.89696 -6.73822 -0.338976 
-5.05165 -6.71318 -0.826877 
-5.15087 -6.71387 -0.704205 
-5.28912 -6.7022 -0.861764 
-5.40031 -6.69421 -0.952115 
-5.53298 -6.68482 -1.05623 
-7.62294 -6.3247 -8.21571 
-7.71667 -6.33242 -7.91581 
-7.84308 -6.33541 -7.70444 
-7.95091 -6.33324 -7.64686 
-8.26944 -6.27989 -8.69802 
-8.42291 -6.26696 -8.87226 
-8.5262 -6.26684 -8.76615 
-8.68305 -6.25018 -9.03372 
-8.80426 -6.24192 -9.12056 
-9.07133 -6.22358 -9.31541 
4.15752 -7.22807 3.79438 
4.04419 -7.236 4.11727 
3.92712 -7.22462 3.94599 
3.82446 -7.2248 4.05802 
3.70192 -7.21704 3.9857 
3.60656 -7.21056 3.91833 
3.47848 -7.20749 3.97299 
3.38292 -7.20016 3.88386 
3.2562 -7.19709 3.93715 
3.15512 -7.19358 3.95214 
3.02968 -7.191 4.01672 
2.93177 -7.18223 3.89297 
2.80312 -7.18146 4.00742 
2.70685 -7.17596 3.96628 
2.57979 -7.17213 4.00036 
2.48608 -7.16338 3.8727 
2.35157 -7.16887 4.15476 
2.2494 -7.16956 4.27952 
2.12803 -7.16036 4.16916 
2.03299 -7.14799 3.94939 
1.90652 -7.14682 4.05155 
1.80893 -7.13805 3.92747 
1.58231 -7.13233 4.01699 
1.45617 -7.13278 4.16043 
1.35952 -7.12458 4.04992 
1.23229 -7.12445 4.17981 
1.13073 -7.12474 4.29341 
1.00638 -7.11857 4.2643 
0.908479 -7.10511 4.01968 
0.678675 -7.11335 4.4727 
0.555961 -7.10806 4.46459 
0.455309 -7.10627 4.52388 
0.329397 -7.11259 4.81868 
0.231127 -7.11013 4.85792 
0.104541 -7.11482 5.11135 
0.00647716 -7.11295 5.16589 
-0.217347 -7.11221 5.38118 
-0.342611 -7.11018 5.45987 
-0.440671 -7.10556 5.44322 
-0.564748 -7.10282 5.50252 
-0.663976 -7.10174 5.57858 
-0.786062 -7.0991 5.63844 
-0.884626 -7.09523 5.64161 
-1.10684 -7.07996 5.48056 
-1.2318 -7.0646 5.21529 
-1.32954 -7.06077 5.21876 
-1.45566 -7.05001 5.07327 
-1.55183 -7.04406 5.0206 
-2.76985 -6.81628 0.420756 
-2.89557 -6.81324 0.474212 
-3.00046 -6.81056 0.514905 
-3.13291 -6.80099 0.406746 
-3.23901 -6.79042 0.245406 
-3.36068 -6.79467 0.482474 
-3.47353 -6.7787 0.18882 
-3.60034 -6.77724 0.284067 
-3.70892 -6.76601 0.108045 
-3.84369 -6.75714 0.0205247 
-3.93646 -6.7624 0.253441 
-4.07625 -6.74739 0.0129535 
-4.18168 -6.7419 -0.0183226 
-4.30852 -6.73737 -0.00204935 
-4.42341 -6.72234 -0.269385 
-4.5516 -6.72136 -0.160257 
-4.65281 -6.71691 -0.168965 
-4.79582 -6.70414 -0.348384 
-4.90189 -6.69576 -0.453479 
-5.0483 -6.67702 -0.783285 
-5.14872 -6.67619 -0.699344 
-5.27957 -6.67106 -0.694436 
-5.39379 -6.66033 -0.851471 
-7.33723 -6.32035 -7.58448 
-7.43935 -6.32097 -7.46147 
-7.58947 -6.30707 -7.66262 
-7.7132 -6.29348 -7.88329 
-7.84244 -6.29293 -7.76174 
-8.12424 -6.26454 -8.19854 
-8.25875 -6.24505 -8.56036 
-8.40557 -6.23498 -8.66614 
-8.51684 -6.23028 -8.67048 
-8.67975 -6.2111 -8.99436 
-8.81199 -6.19556 -9.25659 
-8.93722 -6.19887 -9.0396 
4.18062 -7.17048 3.21888 
4.05206 -7.19538 3.98928 
3.92918 -7.18897 3.95296 
3.82677 -7.18878 4.05427 
3.70906 -7.17568 3.8413 
3.60885 -7.1746 3.91767 
3.48147 -7.17109 3.96009 
3.38354 -7.16684 3.9531 
3.2563 -7.1625 3.97403 
3.15456 -7.15693 3.93717 
3.02959 -7.15695 4.06752 
2.93188 -7.14854 3.95387 
2.80568 -7.14714 4.04889 
2.70977 -7.13882 3.93571 
2.57954 -7.14064 4.11757 
2.48381 -7.1341 4.04973 
2.35425 -7.13388 4.17847 
2.25239 -7.13083 4.20623 
2.13154 -7.12301 4.13166 
2.0315 -7.11628 4.06362 
1.90785 -7.11144 4.06824 
1.80944 -7.10599 4.03098 
1.58195 -7.10189 4.16229 
1.45958 -7.09372 4.08051 
1.36046 -7.08954 4.0765 
1.23382 -7.08842 4.17943 
1.13321 -7.08819 4.27812 
1.00865 -7.08137 4.23317 
0.907366 -7.07869 4.26972 
0.680171 -7.08009 4.54193 
0.555656 -7.07714 4.59565 
0.454312 -7.07961 4.76423 
0.330614 -7.07937 4.88688 
0.232043 -7.07733 4.93696 
0.106361 -7.08087 5.15844 
0.00811167 -7.07425 5.09105 
-0.216238 -7.07783 5.41602 
-0.34036 -7.0719 5.39349 
-0.439055 -7.06706 5.37221 
-0.562681 -7.06969 5.56796 
-0.662023 -7.06457 5.54048 
-0.785149 -7.06319 5.63304 
-0.883487 -7.05347 5.48668 
-1.10589 -7.04081 5.39414 
-1.23041 -7.02956 5.23582 
-1.32741 -7.02608 5.24778 
-1.4538 -7.01369 5.06201 
-1.54957 -7.01081 5.08819 
-2.66555 -6.783 0.419633 
-2.7695 -6.77477 0.317093 
-2.89087 -6.78467 0.69685 
-3.00423 -6.76512 0.314456 
-3.13248 -6.75842 0.276561 
-3.23005 -6.76348 0.507663 
-3.36419 -6.7513 0.335634 
-3.46894 -6.74298 0.231905 
-3.59923 -6.73838 0.249779 
-3.7028 -6.73661 0.312266 
-3.83593 -6.72805 0.231904 
-3.94243 -6.71717 0.0642108 
-4.07907 -6.70285 -0.159788 
-4.17979 -6.70442 -0.0148806 
-4.31558 -6.69183 -0.195497 
-4.41467 -6.69088 -0.116626 
-4.55146 -6.68114 -0.223419 
-4.66077 -6.67081 -0.373878 
-4.79619 -6.66318 -0.428216 
-4.90082 -6.65771 -0.459179 
-5.04443 -6.64152 -0.72396 
-5.13815 -6.64466 -0.545832 
-5.28176 -6.63116 -0.741875 
-5.40587 -6.61214 -1.09923 
-5.53431 -6.60781 -1.07615 
-7.30694 -6.30065 -7.09089 
-7.44971 -6.27133 -7.69268 
-7.5799 -6.27099 -7.56567 
-7.71025 -6.25435 -7.85563 
-7.8676 -6.2362 -8.15622 
-7.95738 -6.24557 -7.82264 
-8.12479 -6.2237 -8.20792 
-8.25619 -6.20427 -8.56826 
-8.4125 -6.18893 -8.79795 
-8.53382 -6.17835 -8.94241 
-8.6636 -6.17825 -8.80938 
-8.76693 -6.18058 -8.6421 
-8.94243 -6.15162 -9.20036 
-9.04544 -6.15417 -9.02763 
4.06972 -7.14167 3.52128 
3.93747 -7.14595 3.7662 
