ply
format ascii 1.0
element vertex 1785
property float x
property float y
property float z
end_header
-1.2381 -3.98539 0.300741 
-1.36154 -3.97481 0.220475 
-1.47316 -3.96987 0.221739 
-1.60227 -3.97374 0.375951 
-1.70188 -3.95246 0.108096 
-1.83439 -3.94788 0.130055 
-1.93391 -3.95032 0.240298 
-2.07264 -3.93704 0.127985 
-2.17398 -3.93147 0.111909 
-2.3099 -3.91367 -0.0744697 
-2.41394 -3.90554 -0.129505 
-2.54004 -3.9062 -0.0286159 
-2.65008 -3.8961 -0.110664 
-2.77751 -3.88713 -0.162355 
-2.89434 -3.86003 -0.510701 
-3.01743 -3.858 -0.45476 
-3.12201 -3.86416 -0.281464 
-3.25813 -3.8466 -0.46376 
-3.3588 -3.8459 -0.402789 
-3.48868 -3.84307 -0.354648 
-3.60054 -3.82326 -0.5903 
-3.84016 -3.80467 -0.71487 
-3.98552 -3.77779 -1.03911 
-4.08653 -3.78061 -0.921718 
-4.22817 -3.75566 -1.21787 
-4.32984 -3.76369 -1.01684 
-4.46788 -3.73571 -1.36394 
-4.56317 -3.75454 -0.995346 
-6.42559 -3.28626 -7.12625 
-6.55778 -3.25452 -7.53752 
-6.73423 -3.20311 -8.23065 
-6.86534 -3.17643 -8.562 
-7.07801 -3.20671 -7.92636 
-7.28058 -3.13266 -8.96186 
-7.37324 -3.14579 -8.68584 
-7.51265 -3.14315 -8.62786 
-7.63949 -3.12067 -8.89518 
-7.79454 -3.09729 -9.15676 
-7.94214 -3.06005 -9.64465 
-8.03552 -3.10261 -8.8986 
-8.14494 -3.10121 -8.84238 
-8.32278 -3.05737 -9.41372 
-8.48054 -3.00946 -10.0645 
-8.63917 -2.98876 -10.2807 
-8.69543 -3.03858 -9.44555 
-8.84101 -3.02702 -9.52529 
-8.98522 -2.99322 -9.96078 
6.94315 -4.58788 4.62347 
6.71949 -4.57846 4.63308 
6.62131 -4.57452 4.64052 
6.48993 -4.57439 4.73185 
6.38887 -4.57128 4.75446 
6.26425 -4.56784 4.78851 
6.16982 -4.56096 4.7466 
6.04761 -4.55281 4.70424 
5.94606 -4.55146 4.75513 
5.82365 -4.54417 4.72658 
5.72597 -4.53824 4.70209 
5.59664 -4.53939 4.81238 
5.50105 -4.52988 4.7296 
5.37423 -4.52978 4.81829 
5.28575 -4.51263 4.60931 
5.16544 -4.50328 4.54658 
5.06658 -4.49868 4.544 
4.94613 -4.48971 4.48753 
4.84542 -4.48592 4.49909 
4.72757 -4.47333 4.38341 
4.62431 -4.47107 4.42101 
4.50174 -4.46563 4.42208 
4.40316 -4.45827 4.37554 
4.28188 -4.45014 4.33307 
4.17967 -4.44971 4.39893 
4.05972 -4.43695 4.28204 
3.95882 -4.43765 4.36503 
3.82941 -4.43965 4.48893 
3.7311 -4.43271 4.4489 
3.60532 -4.42929 4.48438 
3.50293 -4.42773 4.53261 
3.379 -4.42407 4.56284 
3.27567 -4.42766 4.69345 
3.15282 -4.41577 4.59232 
3.05994 -4.40411 4.47366 
2.93269 -4.40163 4.52492 
2.83284 -4.39862 4.54842 
2.70217 -4.40748 4.78216 
2.60432 -4.39797 4.70106 
2.48004 -4.39571 4.75389 
2.37708 -4.39982 4.89241 
2.25165 -4.39713 4.93923 
2.14722 -4.40107 5.07626 
2.02439 -4.39742 5.10583 
1.9248 -4.39364 5.11697 
1.69894 -4.39773 5.34289 
1.57193 -4.40449 5.54084 
1.47197 -4.39887 5.52301 
1.34698 -4.40168 5.65673 
1.24797 -4.3963 5.64205 
1.12207 -4.39636 5.73282 
1.02237 -4.39391 5.76511 
0.802081 -4.38006 5.70264 
0.678343 -4.36947 5.62286 
0.581089 -4.36995 5.69993 
0.457327 -4.36389 5.69204 
0.361305 -4.35087 5.55408 
0.238542 -4.34891 5.61052 
0.140354 -4.33405 5.44488 
-1.00301 -3.96529 0.41047 
-1.12915 -3.96227 0.452565 
-1.23598 -3.94754 0.295192 
-1.36417 -3.94064 0.277327 
-1.46841 -3.93601 0.278307 
-1.59965 -3.93603 0.372339 
-1.69982 -3.92182 0.218424 
-1.83668 -3.90562 0.0591692 
-1.93824 -3.90685 0.151262 
-2.0688 -3.90487 0.213148 
-2.17692 -3.88287 -0.0587012 
-2.30658 -3.87572 -0.0796386 
-2.40486 -3.88465 0.132311 
-2.53532 -3.87057 0.00209825 
-2.65327 -3.847 -0.287488 
-2.89135 -3.82543 -0.459611 
-3.00989 -3.83087 -0.288605 
-3.12738 -3.81253 -0.495625 
-3.26175 -3.79923 -0.610611 
-3.3583 -3.8059 -0.435738 
-3.4849 -3.80623 -0.340069 
-3.60323 -3.78088 -0.65774 
-3.83788 -3.76728 -0.705731 
-3.96903 -3.76692 -0.617743 
-4.08816 -3.73448 -1.04732 
-4.2192 -3.73445 -0.95397 
-4.33459 -3.71098 -1.24392 
-4.45835 -3.71458 -1.09822 
-4.56874 -3.69683 -1.30108 
-6.18464 -3.24102 -7.37851 
-6.43754 -3.2269 -7.42154 
-6.57957 -3.18388 -8.00264 
-6.71822 -3.18038 -7.95894 
-6.83697 -3.16553 -8.10962 
-6.97148 -3.16548 -8.01413 
-7.09582 -3.14377 -8.26969 
-7.26029 -3.11044 -8.68091 
-7.38397 -3.08964 -8.9225 
-7.53428 -3.07778 -9.00313 
-7.65619 -3.06089 -9.1839 
-7.76678 -3.08294 -8.75484 
-7.91249 -3.04549 -9.24481 
-8.16471 -3.04052 -9.14317 
-8.34848 -2.99301 -9.76554 
-8.42403 -3.02028 -9.27867 
-8.64013 -2.94666 -10.2924 
-8.7429 -2.94945 -10.1745 
-8.98456 -2.95203 -9.96048 
6.95188 -4.54675 4.53297 
6.72469 -4.53963 4.58165 
6.62618 -4.5361 4.59569 
6.49769 -4.53433 4.65884 
6.38965 -4.53793 4.7923 
6.2666 -4.53191 4.78444 
6.17133 -4.52579 4.75538 
6.04956 -4.51681 4.70004 
5.94822 -4.51796 4.79006 
5.82888 -4.50527 4.67441 
5.72453 -4.50565 4.75433 
5.60018 -4.50152 4.77736 
5.50039 -4.49772 4.78825 
5.38054 -4.48875 4.73159 
5.28793 -4.47626 4.60013 
5.17072 -4.46354 4.4826 
5.07023 -4.46123 4.51735 
4.95064 -4.45016 4.42745 
4.85204 -4.44417 4.40298 
4.72689 -4.44016 4.42838 
4.6318 -4.42965 4.33006 
4.50616 -4.42697 4.37686 
4.40704 -4.41997 4.33668 
4.28236 -4.41396 4.33031 
4.18737 -4.40462 4.2503 
4.06259 -4.39697 4.21821 
3.95864 -4.40495 4.418 
3.83039 -4.40477 4.50607 
3.73591 -4.39149 4.36355 
3.61038 -4.38844 4.40463 
3.50465 -4.39284 4.54912 
3.37938 -4.39033 4.59848 
3.28022 -4.38623 4.60422 
3.15228 -4.38435 4.66532 
3.05967 -4.36929 4.4934 
2.9326 -4.3697 4.59011 
2.83457 -4.3625 4.54607 
2.7097 -4.35956 4.58831 
2.60479 -4.36531 4.75367 
2.47923 -4.36616 4.85627 
2.38108 -4.3644 4.89818 
2.24921 -4.36886 5.06233 
2.14921 -4.36504 5.07311 
2.02649 -4.36047 5.08817 
1.92309 -4.3665 5.25681 
1.79498 -4.37159 5.42824 
1.70166 -4.35919 5.2988 
1.57284 -4.36865 5.53969 
1.47392 -4.36058 5.48268 
1.34798 -4.3678 5.68614 
1.24731 -4.36486 5.71123 
1.12363 -4.3616 5.74782 
1.02471 -4.35871 5.77249 
0.804125 -4.34254 5.674 
0.678702 -4.33539 5.65036 
0.583078 -4.33452 5.70464 
0.460616 -4.31915 5.54901 
0.362116 -4.32254 5.67264 
0.238175 -4.32991 5.87708 
0.13885 -4.31299 5.68059 
-1.12785 -3.9168 0.326711 
-1.23588 -3.90343 0.192538 
-1.35801 -3.91227 0.418951 
-1.46508 -3.90322 0.352232 
-1.59716 -3.88979 0.234107 
-1.69768 -3.89069 0.320011 
-1.83111 -3.88159 0.27123 
-1.92944 -3.87328 0.210033 
-2.06571 -3.8705 0.263156 
-2.16534 -3.87168 0.352719 
-2.30539 -3.84244 -0.00930068 
-2.40998 -3.83544 -0.0454036 
-2.53486 -3.82998 -0.0426119 
-2.65071 -3.81406 -0.211618 
-2.88608 -3.79543 -0.33817 
-3.00941 -3.79206 -0.303585 
-3.12478 -3.7779 -0.445006 
-3.25576 -3.7678 -0.511112 
-3.35946 -3.76441 -0.490807 
-3.4938 -3.7523 -0.586364 
-3.59836 -3.74749 -0.587756 
-3.83691 -3.72771 -0.730177 
-3.97888 -3.707 -0.956105 
-4.08557 -3.69903 -1.00597 
-4.22341 -3.68329 -1.15621 
-4.33584 -3.66659 -1.33979 
-4.46481 -3.6592 -1.36462 
-4.57174 -3.64896 -1.45007 
-6.31716 -3.16939 -7.7791 
-6.44597 -3.17088 -7.66373 
-6.57437 -3.14698 -7.94964 
-6.71665 -3.13851 -7.98195 
-6.82969 -3.13237 -7.9982 
-7.10785 -3.08903 -8.48438 
-7.24908 -3.0791 -8.54048 
-7.35088 -3.0857 -8.36359 
-7.55278 -3.01864 -9.27862 
-7.63734 -3.03899 -8.89685 
-7.796 -3.014 -9.17835 
-7.89813 -3.01684 -9.06074 
-8.0532 -2.99984 -9.21857 
-8.1839 -2.97652 -9.4936 
-8.32539 -2.97106 -9.47896 
-8.4705 -2.93355 -9.96779 
-8.56614 -2.97236 -9.28651 
-8.73045 -2.92121 -9.97718 
-8.98661 -2.90956 -9.97835 
6.94557 -4.51765 4.64309 
6.72609 -4.50508 4.60056 
6.62375 -4.50349 4.64783 
6.49203 -4.50538 4.77065 
6.38831 -4.50407 4.82325 
6.16822 -4.49498 4.83593 
6.05501 -4.47821 4.65261 
5.95181 -4.4809 4.76772 
5.82677 -4.47438 4.75361 
5.72686 -4.47228 4.79125 
5.6015 -4.46748 4.80443 
5.50087 -4.46337 4.81105 
5.28648 -4.44394 4.65739 
5.16755 -4.43424 4.58913 
5.06844 -4.43022 4.59602 
4.94406 -4.42391 4.58486 
4.84908 -4.41495 4.51122 
4.73385 -4.39881 4.33914 
4.62825 -4.40004 4.43317 
4.50657 -4.39264 4.40291 
4.41069 -4.38183 4.30092 
4.28612 -4.37659 4.30671 
4.19046 -4.36592 4.20673 
4.06377 -4.36359 4.25983 
3.9638 -4.36203 4.30602 
3.83977 -4.35679 4.31144 
3.73563 -4.36004 4.43609 
3.60888 -4.35778 4.49028 
3.50993 -4.35026 4.44224 
3.383 -4.3502 4.53101 
3.2858 -4.34599 4.53373 
3.15936 -4.34128 4.54922 
3.05963 -4.33699 4.55242 
2.93936 -4.32378 4.42997 
2.83633 -4.32959 4.59417 
2.708 -4.33039 4.69757 
2.60867 -4.32399 4.66738 
2.48379 -4.32658 4.79642 
2.38073 -4.32692 4.87479 
2.25179 -4.33227 5.05008 
2.15273 -4.33037 5.09038 
2.02551 -4.3296 5.16828 
1.92531 -4.33042 5.25216 
1.70278 -4.32515 5.32687 
1.57457 -4.33501 5.57269 
1.47425 -4.32929 5.55387 
1.34848 -4.3334 5.70752 
1.25128 -4.32855 5.70006 
1.12466 -4.32838 5.78721 
1.02681 -4.32338 5.77798 
0.805 -4.31071 5.73598 
0.679872 -4.30482 5.73209 
0.584197 -4.30043 5.73093 
0.460809 -4.29323 5.7053 
0.3628 -4.29506 5.80342 
0.241019 -4.29699 5.92006 
0.141044 -4.27107 5.58376 
-1.12668 -3.87918 0.325483 
-1.23285 -3.88087 0.427226 
-1.35715 -3.86191 0.217549 
-1.46573 -3.85803 0.233421 
-1.59745 -3.84047 0.051036 
-1.69865 -3.84408 0.179468 
-1.83317 -3.83103 0.0697796 
-1.93 -3.83369 0.180343 
-2.06295 -3.82663 0.163708 
-2.17571 -3.80176 -0.147106 
-2.3042 -3.80785 0.0397598 
-2.40085 -3.80171 0.0117655 
-2.53666 -3.78725 -0.119107 
-2.6448 -3.78342 -0.102526 
-2.77678 -3.76847 -0.243826 
-2.88295 -3.75935 -0.311736 
-3.01248 -3.74772 -0.40265 
-3.11965 -3.74231 -0.411568 
-3.25146 -3.73609 -0.415774 
-3.35309 -3.73217 -0.405257 
-3.48462 -3.7267 -0.397745 
-3.59722 -3.70841 -0.605242 
-3.84263 -3.6855 -0.79111 
-3.96928 -3.67862 -0.809244 
-4.07423 -3.67494 -0.792603 
-4.2256 -3.63077 -1.37917 
-4.33384 -3.6254 -1.38681 
-4.45906 -3.63011 -1.22389 
-4.56746 -3.61538 -1.3783 
-6.31902 -3.12462 -7.84615 
-6.45676 -3.11567 -7.88904 
-6.56944 -3.11311 -7.84917 
-6.70705 -3.10864 -7.82161 
-6.83202 -3.08342 -8.12923 
-6.96591 -3.09116 -7.91246 
-7.11318 -3.038 -8.64318 
-7.27192 -3.01244 -8.93207 
-7.56051 -2.96773 -9.42963 
-7.64748 -2.98593 -9.0818 
-7.77214 -2.99542 -8.84409 
-7.89991 -2.97114 -9.13486 
-8.0727 -2.93983 -9.50412 
-8.15503 -2.96138 -9.10683 
-8.35568 -2.90039 -9.92278 
-8.44946 -2.91148 -9.68175 
-8.62095 -2.88385 -9.9941 
-8.70017 -2.90572 -9.59398 
-8.9724 -2.88098 -9.78924 
6.95006 -4.47884 4.5927 
6.72455 -4.47249 4.65208 
6.63143 -4.46323 4.57295 
6.49238 -4.47112 4.79401 
6.3945 -4.46501 4.76749 
6.17666 -4.45261 4.72696 
6.04819 -4.45076 4.78841 
5.95205 -4.44398 4.7501 
5.82747 -4.44042 4.78227 
5.72684 -4.43577 4.78035 
5.60922 -4.4242 4.68237 
5.50877 -4.42189 4.71699 
5.29066 -4.40558 4.6157 
5.16325 -4.40401 4.68088 
5.07437 -4.3898 4.5214 
4.94733 -4.38649 4.55915 
4.85443 -4.37497 4.44453 
4.7292 -4.3724 4.49243 
4.62999 -4.36498 4.44647 
4.51219 -4.35185 4.32417 
4.41431 -4.34725 4.32119 
4.29007 -4.33789 4.26246 
4.18819 -4.33606 4.30562 
4.06119 -4.33565 4.38877 
3.96363 -4.3298 4.36612 
3.8394 -4.3249 4.37705 
3.7439 -4.31396 4.27338 
3.513 -4.3126 4.41479 
3.3846 -4.31522 4.54626 
3.28478 -4.31386 4.59545 
3.16676 -4.29317 4.35521 
3.06346 -4.29788 4.50167 
2.94007 -4.28984 4.46305 
2.83846 -4.2912 4.55586 
2.60754 -4.29299 4.7467 
2.48688 -4.28471 4.70242 
2.38494 -4.28186 4.72971 
2.25346 -4.29562 5.03764 
2.15501 -4.28837 4.9938 
2.02632 -4.29526 5.19225 
1.92736 -4.29349 5.23442 
1.70095 -4.29579 5.4301 
1.57514 -4.30434 5.65248 
1.47447 -4.29779 5.62113 
1.35284 -4.28873 5.56531 
1.25285 -4.28847 5.63193 
1.12622 -4.29496 5.82269 
1.02904 -4.28813 5.78448 
0.80694 -4.27692 5.76602 
0.680765 -4.27451 5.81746 
0.587834 -4.25722 5.61276 
0.462767 -4.25565 5.67643 
0.364717 -4.25543 5.74229 
0.143051 -4.23872 5.63751 
-1.12234 -3.83964 0.291957 
-1.23258 -3.8291 0.205076 
-1.35726 -3.82486 0.22672 
-1.46062 -3.8235 0.278486 
-1.59205 -3.8128 0.204174 
-1.69758 -3.8042 0.144235 
-1.83182 -3.79176 0.0445732 
-1.93323 -3.78735 0.0472816 
-2.06603 -3.77672 -0.0251105 
-2.17298 -3.76349 -0.156322 
-2.29477 -3.77017 0.0341064 
-2.40444 -3.7556 -0.116224 
-2.52755 -3.76727 0.153281 
-2.63507 -3.75635 0.0586585 
-2.87799 -3.72268 -0.296148 
-3.01006 -3.71811 -0.274228 
-3.11608 -3.70699 -0.373178 
-3.24808 -3.70167 -0.362988 
-3.3469 -3.6998 -0.322371 
-3.48699 -3.68398 -0.470635 
-3.5895 -3.68277 -0.417166 
-3.84412 -3.63844 -0.930247 
-3.97111 -3.64047 -0.808621 
-4.08403 -3.61941 -1.05812 
-4.22032 -3.60575 -1.17529 
-4.32473 -3.60859 -1.05692 
-4.4581 -3.59065 -1.24317 
-4.5746 -3.5649 -1.56336 
-6.31932 -3.07629 -7.96934 
-6.45839 -3.06781 -8.00355 
-6.53715 -3.11056 -7.27923 
-6.71101 -3.06143 -7.92455 
-6.80924 -3.06838 -7.74627 
-7.26063 -2.97945 -8.81749 
-7.41138 -2.93348 -9.42955 
-7.56361 -2.92199 -9.50145 
-7.6566 -2.93327 -9.25929 
-7.81387 -2.90841 -9.53669 
-8.22172 -2.85376 -10.1025 
-8.33401 -2.88049 -9.605 
-8.43145 -2.88514 -9.46326 
-8.60651 -2.85208 -9.85625 
-8.73512 -2.82714 -10.1551 
-8.84021 -2.8586 -9.58875 
6.95516 -4.44099 4.55734 
6.73095 -4.43413 4.60791 
6.63741 -4.42282 4.49744 
6.49392 -4.43584 4.80056 
6.39172 -4.4337 4.83903 
6.2617 -4.43441 4.94127 
6.17324 -4.42257 4.81917 
6.05423 -4.41171 4.73365 
5.94925 -4.41122 4.79972 
5.82777 -4.40583 4.80096 
5.73064 -4.39853 4.75566 
5.60442 -4.39586 4.80266 
5.51115 -4.38558 4.70813 
5.38465 -4.38236 4.7468 
5.28619 -4.37806 4.74913 
5.17172 -4.35997 4.54806 
5.07561 -4.35377 4.51898 
4.95165 -4.34806 4.51716 
4.85318 -4.34274 4.50363 
4.73458 -4.33258 4.42873 
4.63623 -4.32386 4.36213 
4.50861 -4.32328 4.44277 
4.41884 -4.3062 4.24008 
4.28587 -4.30998 4.39217 
4.18852 -4.3052 4.38618 
4.06453 -4.29625 4.33413 
3.96583 -4.29255 4.34591 
3.84544 -4.2819 4.26472 
3.73978 -4.28615 4.405 
3.62299 -4.27104 4.25204 
3.51406 -4.27927 4.45659 
3.386 -4.27999 4.55775 
3.28889 -4.27402 4.53298 
3.17006 -4.25563 4.33051 
3.0641 -4.2636 4.52892 
2.94292 -4.24915 4.38924 
2.84202 -4.25099 4.48873 
2.71003 -4.26271 4.76383 
2.61332 -4.24713 4.5894 
2.48607 -4.25443 4.79246 
2.38607 -4.24856 4.77134 
2.2591 -4.25106 4.89942 
2.1589 -4.25054 4.96175 
2.03102 -4.25339 5.09608 
1.92795 -4.26074 5.2829 
1.70395 -4.25804 5.39835 
1.57914 -4.26181 5.54468 
1.47826 -4.25831 5.56116 
1.35308 -4.25779 5.64107 
1.25391 -4.26009 5.74666 
1.12601 -4.26384 5.89487 
1.02849 -4.257 5.85708 
0.807759 -4.24345 5.80157 
0.68348 -4.2408 5.84783 
0.58672 -4.23316 5.79693 
0.462679 -4.23228 5.87053 
0.364778 -4.23067 5.91437 
0.145203 -4.20011 5.59339 
-1.12478 -3.79228 0.141903 
-1.22786 -3.79967 0.329418 
-1.35764 -3.78783 0.236536 
-1.45972 -3.7819 0.216129 
-1.58845 -3.78677 0.382562 
-1.69566 -3.75923 0.0295724 
-1.82924 -3.75236 0.0166372 
-1.93176 -3.74746 0.0126461 
-2.06419 -3.7496 0.13917 
-2.16919 -3.72969 -0.0967306 
-2.28969 -3.73799 0.117251 
-2.40424 -3.72539 0.00197916 
-2.52456 -3.72742 0.118291 
-2.6398 -3.70307 -0.179515 
-2.76519 -3.70537 -0.055438 
-2.87223 -3.69796 -0.095251 
-3.014 -3.6709 -0.416439 
-3.11261 -3.66753 -0.399463 
-3.24768 -3.66225 -0.386452 
-3.35286 -3.6503 -0.49828 
-3.48551 -3.64271 -0.522953 
-3.60186 -3.62495 -0.71734 
-3.84178 -3.59999 -0.936534 
-3.97133 -3.60155 -0.820974 
-4.07246 -3.59664 -0.826156 
-4.21818 -3.56649 -1.19261 
-4.32459 -3.56551 -1.13283 
-4.46123 -3.54406 -1.37033 
-4.56856 -3.53624 -1.41635 
-6.18481 -3.07526 -7.45033 
-6.30563 -3.05863 -7.62386 
-6.45906 -3.02657 -8.01465 
-6.60658 -2.98 -8.63528 
-6.72468 -2.99894 -8.25721 
-6.84041 -2.98698 -8.36174 
-7.07984 -2.99358 -8.09023 
-7.24498 -2.95775 -8.53127 
-7.36266 -2.94381 -8.66515 
-7.53405 -2.90983 -9.07311 
-7.76421 -2.91587 -8.81668 
-7.89231 -2.89253 -9.0895 
-8.20057 -2.83391 -9.78442 
-8.32715 -2.84151 -9.57672 
-8.41995 -2.85476 -9.30503 
-8.57617 -2.83503 -9.5019 
-8.6944 -2.82505 -9.57373 
6.95439 -4.40842 4.6083 
6.73056 -4.39782 4.60052 
6.63599 -4.39031 4.55024 
6.49319 -4.40242 4.83749 
6.39487 -4.39651 4.81478 
6.26323 -4.39972 4.95639 
6.17396 -4.38755 4.83036 
6.0522 -4.37966 4.79338 
5.95532 -4.37325 4.76188 
5.82549 -4.37422 4.86758 
5.7327 -4.36325 4.76267 
5.60723 -4.35996 4.79946 
5.51091 -4.35225 4.7475 
5.38754 -4.34476 4.71773 
5.28868 -4.34299 4.75947 
5.17925 -4.31742 4.44016 
5.07497 -4.32127 4.57279 
4.95379 -4.31133 4.50362 
4.85358 -4.30887 4.53563 
4.73013 -4.30164 4.50998 
4.63588 -4.29093 4.41018 
4.51258 -4.28453 4.39732 
4.41513 -4.27639 4.33944 
4.28969 -4.27261 4.3688 
4.1935 -4.26347 4.29453 
4.0665 -4.25826 4.30275 
3.9736 -4.24898 4.22416 
3.84645 -4.24741 4.2888 
3.74457 -4.24502 4.32298 
3.62334 -4.23942 4.32127 
3.51621 -4.24209 4.4375 
3.39026 -4.23994 4.49233 
3.28679 -4.24327 4.61631 
3.16734 -4.22646 4.43976 
3.06906 -4.22082 4.42116 
2.94136 -4.22061 4.50744 
2.84267 -4.2184 4.54226 
2.71162 -4.22646 4.75873 
2.61295 -4.21974 4.72383 
2.49128 -4.21254 4.69757 
2.39262 -4.20864 4.70629 
2.26044 -4.21553 4.9055 
2.16066 -4.21165 4.91532 
2.03191 -4.22 5.13475 
1.93149 -4.22054 5.21353 
1.70838 -4.21774 5.32649 
1.57926 -4.22812 5.57751 
1.4804 -4.21815 5.49246 
1.35756 -4.21533 5.53488 
1.25551 -4.22371 5.73613 
1.12886 -4.2261 5.86191 
1.03146 -4.21932 5.82516 
0.809896 -4.20395 5.74251 
0.685492 -4.20134 5.78921 
0.588242 -4.20139 5.8582 
0.465379 -4.19219 5.80195 
0.365661 -4.19474 5.91135 
0.14151 -4.18713 5.95067 
-1.11762 -3.76894 0.358509 
-1.2251 -3.7667 0.39928 
-1.35801 -3.74566 0.166752 
-1.45776 -3.74807 0.273994 
-1.5924 -3.73914 0.230072 
-1.69562 -3.7262 0.102189 
-1.8239 -3.72718 0.207269 
-1.92809 -3.71635 0.112664 
-2.06497 -3.70525 0.0369146 
-2.16337 -3.7019 0.0540149 
-2.29125 -3.69302 0.00635823 
-2.403 -3.68444 -0.0480833 
-2.52972 -3.67555 -0.0969431 
-2.64014 -3.65648 -0.314754 
-2.77191 -3.65544 -0.238377 
-2.87877 -3.64603 -0.308956 
-3.00544 -3.6408 -0.30113 
-3.1123 -3.62669 -0.444598 
-3.25004 -3.61698 -0.498322 
-3.34756 -3.62386 -0.323302 
-3.49156 -3.59475 -0.67291 
-3.59176 -3.59974 -0.525365 
-3.72205 -3.58625 -0.642731 
-3.83822 -3.56497 -0.890651 
-3.9786 -3.546 -1.08589 
-4.07637 -3.55304 -0.908115 
-4.20927 -3.53716 -1.06082 
-4.31975 -3.53077 -1.08207 
-4.45453 -3.51397 -1.2477 
-4.56793 -3.49634 -1.44104 
-6.30816 -3.00703 -7.79597 
-6.43247 -3.02155 -7.48375 
-6.53316 -3.03103 -7.26628 
-6.71725 -2.96397 -8.17548 
-6.98256 -2.93949 -8.368 
-7.10871 -2.91616 -8.64075 
-7.25162 -2.90876 -8.65491 
-7.3601 -2.90171 -8.68781 
-7.52772 -2.87518 -8.98092 
-7.63618 -2.86765 -9.02126 
-7.76392 -2.87471 -8.82204 
-7.90065 -2.84296 -9.21775 
-8.07636 -2.80545 -9.67502 
-8.17542 -2.81568 -9.44703 
-8.34605 -2.77908 -9.89388 
-8.46163 -2.77454 -9.88288 
-8.60997 -2.76293 -9.95845 
-8.69135 -2.78726 -9.52437 
-8.96378 -2.75873 -9.77463 
6.95238 -4.37648 4.66923 
6.72348 -4.37171 4.75501 
6.63724 -4.35444 4.54908 
6.49592 -4.36654 4.83374 
6.39834 -4.3596 4.7949 
6.17156 -4.3569 4.91113 
6.05 -4.34774 4.85467 
5.95291 -4.34231 4.83866 
5.83007 -4.33578 4.82364 
5.72758 -4.33403 4.86813 
5.60947 -4.32432 4.80074 
5.51179 -4.31718 4.75883 
5.29522 -4.29935 4.635 
5.17708 -4.28807 4.54355 
5.07588 -4.28642 4.58865 
4.95281 -4.27942 4.56662 
4.85909 -4.26973 4.48256 
4.73454 -4.2635 4.4734 
4.6434 -4.24875 4.3097 
4.51597 -4.24665 4.36622 
4.42282 -4.2347 4.24697 
4.29358 -4.23272 4.30654 
4.19557 -4.22524 4.25972 
4.06716 -4.22415 4.33237 
3.96885 -4.22351 4.3911 
3.84945 -4.20971 4.2618 
3.75101 -4.19869 4.16059 
3.61995 -4.20819 4.39841 
3.51836 -4.20525 4.42397 
3.39407 -4.20212 4.46244 
3.29453 -4.19681 4.44995 
3.16942 -4.19085 4.44544 
3.07057 -4.18664 4.44961 
2.94176 -4.18705 4.54569 
2.84946 -4.17051 4.35524 
2.71576 -4.18559 4.68087 
2.61524 -4.18138 4.6861 
2.49069 -4.1807 4.76257 
2.39675 -4.1628 4.55235 
2.26579 -4.17239 4.79155 
2.15914 -4.18384 5.04231 
2.03042 -4.18957 5.22042 
1.93466 -4.18152 5.16328 
1.71033 -4.18072 5.30757 
1.58284 -4.18741 5.49959 
1.47942 -4.19105 5.62792 
1.35565 -4.18989 5.69633 
1.2569 -4.18712 5.72272 
1.12869 -4.19829 5.98429 
1.03318 -4.18106 5.78553 
0.685395 -4.17091 5.872 
0.588848 -4.16865 5.90468 
0.466751 -4.15981 5.85362 
0.368995 -4.1519 5.80005 
0.145226 -4.14137 5.79414 
-1.22392 -3.71289 0.148464 
-1.35452 -3.70691 0.147451 
-1.45537 -3.70963 0.259844 
-1.58856 -3.69695 0.15755 
-1.69346 -3.69314 0.172199 
-1.82123 -3.68351 0.11312 
-1.93633 -3.65868 -0.188995 
-2.05993 -3.66606 0.0111097 
-2.16419 -3.65349 -0.1097 
-2.29031 -3.64821 -0.102872 
-2.39854 -3.65091 0.0143745 
-2.52526 -3.64625 0.0311848 
-2.63384 -3.6306 -0.134047 
-2.76877 -3.62157 -0.178836 
-2.88605 -3.59418 -0.518884 
-3.00631 -3.59822 -0.372544 
-3.10997 -3.59426 -0.36103 
-3.24227 -3.58563 -0.401463 
-3.35057 -3.57148 -0.543757 
-3.4868 -3.55786 -0.658495 
-3.58936 -3.55814 -0.582332 
-3.71998 -3.55249 -0.578072 
-3.84251 -3.51122 -1.12837 
-3.97159 -3.51757 -0.940199 
-4.07608 -3.51168 -0.957851 
-4.21214 -3.49321 -1.1472 
-4.31585 -3.49332 -1.07298 
-4.44777 -3.48527 -1.10475 
-4.56788 -3.4534 -1.51175 
-6.44263 -2.96244 -7.76601 
-6.54241 -2.97512 -7.50065 
-6.69651 -2.95134 -7.75931 
-6.80051 -2.95323 -7.65731 
-7.22995 -2.88937 -8.34086 
-7.35383 -2.87023 -8.54907 
-7.52913 -2.82923 -9.05814 
-7.62066 -2.84107 -8.81159 
-7.78347 -2.81187 -9.14761 
-7.88195 -2.81923 -8.96522 
-8.16238 -2.78421 -9.30844 
-8.33623 -2.74808 -9.74349 
-8.43677 -2.75329 -9.59272 
-8.71159 -2.72451 -9.84377 
-8.96926 -2.71074 -9.87542 
6.95444 -4.34039 4.66319 
6.72776 -4.3337 4.71788 
6.63838 -4.32021 4.57299 
6.50124 -4.32732 4.77718 
6.39462 -4.32972 4.88796 
6.17534 -4.31882 4.87294 
6.05569 -4.30894 4.80451 
5.9542 -4.30764 4.85501 
5.83004 -4.30195 4.85393 
5.73018 -4.30039 4.89933 
5.60924 -4.28937 4.81427 
5.51063 -4.28418 4.80326 
5.30208 -4.25824 4.55037 
5.17954 -4.25233 4.54483 
5.08212 -4.24503 4.50046 
4.95262 -4.2455 4.59764 
4.85371 -4.24116 4.59978 
4.73419 -4.23155 4.53543 
4.64174 -4.21679 4.37334 
4.51743 -4.21102 4.37123 
4.42252 -4.19847 4.24477 
4.29678 -4.19521 4.28202 
4.19412 -4.19395 4.33414 
4.07245 -4.18528 4.28558 
3.97023 -4.18711 4.3848 
3.84888 -4.17775 4.32549 
3.75507 -4.16039 4.12459 
3.62293 -4.17265 4.40428 
3.52261 -4.16543 4.36336 
3.39171 -4.17355 4.57888 
3.29572 -4.16316 4.48623 
3.17467 -4.14754 4.33084 
3.0714 -4.15314 4.48856 
2.94809 -4.14451 4.44197 
2.84553 -4.1481 4.56827 
2.71792 -4.15193 4.71563 
2.61861 -4.14391 4.66167 
2.49624 -4.13861 4.66563 
2.3953 -4.13044 4.61051 
2.27145 -4.12929 4.67896 
2.16375 -4.14284 4.96156 
2.03289 -4.15066 5.1726 
1.9357 -4.14851 5.20722 
1.80573 -4.15853 5.45127 
1.71087 -4.14874 5.36713 
1.58253 -4.15931 5.61838 
1.48422 -4.14986 5.54185 
1.35886 -4.15071 5.64213 
1.25899 -4.14872 5.68106 
1.13257 -4.15503 5.86578 
1.03469 -4.14725 5.81467 
0.8125 -4.13701 5.8122 
0.592944 -4.12492 5.7796 
0.467463 -4.13221 5.97872 
0.369646 -4.12399 5.9208 
0.148598 -4.10344 5.75952 
-1.22318 -3.6821 0.253345 
-1.35082 -3.66928 0.145622 
-1.45548 -3.66864 0.208734 
-1.58904 -3.65483 0.0898213 
-1.686 -3.66012 0.238507 
-1.822 -3.64187 0.0533304 
-1.92278 -3.63279 -0.0156914 
-2.05865 -3.63185 0.0645887 
-2.15952 -3.62575 0.0412482 
-2.28719 -3.61782 0.00869817 
-2.39475 -3.61262 0.00374826 
-2.52682 -3.60652 0.00233335 
-2.63188 -3.59767 -0.0602673 
-2.87332 -3.57153 -0.292909 
-2.99572 -3.57999 -0.0777554 
-3.11398 -3.54618 -0.513872 
-3.24611 -3.54365 -0.460567 
-3.35013 -3.53067 -0.587157 
-3.48455 -3.52092 -0.643071 
-3.58077 -3.53021 -0.433526 
-3.83122 -3.49535 -0.793518 
-3.96718 -3.48565 -0.847431 
-4.07424 -3.47158 -0.988671 
-4.20432 -3.46143 -1.05364 
-4.31575 -3.455 -1.0746 
-4.4501 -3.43856 -1.23296 
-4.56382 -3.41846 -1.46204 
-6.44983 -2.91258 -7.90565 
-6.57137 -2.88772 -8.20207 
-6.68622 -2.92242 -7.58971 
-6.85393 -2.84777 -8.6178 
-7.08823 -2.85268 -8.37891 
-7.26002 -2.81404 -8.85181 
-7.38885 -2.78882 -9.14865 
-7.52421 -2.79001 -9.03593 
-7.62836 -2.78799 -8.99416 
-7.77333 -2.78059 -9.00647 
-7.90041 -2.75944 -9.24226 
-8.07342 -2.72404 -9.66447 
-8.19743 -2.70649 -9.84718 
-8.34433 -2.69645 -9.89861 
-8.47308 -2.67554 -10.1295 
-8.62482 -2.65669 -10.3126 
-8.6843 -2.70683 -9.502 
-8.85509 -2.67051 -9.93982 
6.95798 -4.3034 4.64259 
6.7343 -4.29273 4.63431 
6.64236 -4.28284 4.54697 
6.49439 -4.29998 4.91081 
6.40175 -4.28884 4.80482 
6.27039 -4.29027 4.91749 
6.17224 -4.28882 4.96323 
6.05387 -4.277 4.86467 
5.95389 -4.27404 4.88868 
5.82976 -4.26889 4.89596 
5.73405 -4.26197 4.85656 
5.61068 -4.25532 4.84037 
5.51416 -4.24736 4.78576 
5.39317 -4.23858 4.73538 
5.30139 -4.22629 4.61144 
5.17731 -4.22146 4.62356 
5.08278 -4.21177 4.54108 
4.96219 -4.20004 4.44551 
4.85781 -4.20303 4.56348 
4.73864 -4.19317 4.49536 
4.63719 -4.18713 4.47347 
4.51699 -4.17753 4.41015 
4.4216 -4.16743 4.32212 
4.29775 -4.16038 4.30027 
4.20099 -4.15652 4.30834 
4.07237 -4.15314 4.34576 
3.96631 -4.15927 4.51277 
3.84902 -4.14415 4.36318 
3.75896 -4.12431 4.12276 
3.5273 -4.12591 4.30767 
3.39837 -4.12901 4.4442 
3.29818 -4.12518 4.45513 
3.17683 -4.11211 4.33972 
3.07648 -4.11094 4.39143 
2.95089 -4.10639 4.40894 
2.85066 -4.10369 4.4372 
2.62261 -4.10182 4.5667 
2.497 -4.1042 4.69006 
2.39322 -4.10416 4.76129 
2.26554 -4.11097 4.95374 
2.16679 -4.10318 4.90331 
2.03579 -4.11361 5.15319 
1.94039 -4.10555 5.09628 
1.80991 -4.11396 5.31505 
1.71452 -4.10611 5.26141 
1.58415 -4.12132 5.58385 
1.48519 -4.11382 5.53811 
1.36044 -4.11611 5.65951 
1.25871 -4.12316 5.83759 
1.12943 -4.13283 6.07482 
1.0344 -4.116 5.8838 
0.593386 -4.09547 5.87638 
0.470331 -4.09086 5.89142 
0.371239 -4.09019 5.94986 
0.250157 -4.08424 5.94307 
0.14875 -4.07893 5.93229 
-1.3504 -3.63773 0.238792 
-1.45333 -3.63383 0.250754 
-1.58298 -3.62673 0.232362 
-1.68924 -3.60895 0.0346031 
-1.817 -3.60928 0.128401 
-1.91628 -3.60513 0.133955 
-2.06031 -3.58241 -0.112821 
-2.15975 -3.58068 -0.0701459 
-2.28651 -3.57324 -0.0957811 
-2.39927 -3.56327 -0.16963 
-2.52311 -3.56806 -0.0106139 
-2.63516 -3.55127 -0.189018 
-2.76401 -3.54054 -0.263409 
-2.87078 -3.52879 -0.368503 
-3.00691 -3.52031 -0.40342 
-3.10954 -3.51614 -0.395876 
-3.24363 -3.50605 -0.456753 
-3.34387 -3.50589 -0.389435 
-3.48296 -3.48464 -0.617192 
-3.58659 -3.48102 -0.600435 
-3.72292 -3.46613 -0.733159 
-3.83444 -3.44998 -0.902089 
-3.95801 -3.46071 -0.652467 
-4.06855 -3.43694 -0.93845 
-4.20865 -3.41325 -1.20273 
-4.31362 -3.41877 -1.04551 
-4.44813 -3.39904 -1.25327 
-4.5594 -3.38681 -1.3626 
-6.29345 -2.90013 -7.58659 
-6.43068 -2.89635 -7.54879 
-6.5507 -2.875 -7.79128 
-6.68378 -2.8837 -7.56591 
-6.81472 -2.8514 -7.968 
-7.08753 -2.81101 -8.39489 
-7.25777 -2.77366 -8.84664 
-7.53833 -2.73359 -9.26315 
-7.61771 -2.75757 -8.84192 
-7.75768 -2.75326 -8.81028 
-7.90114 -2.71762 -9.25466 
-8.04004 -2.71496 -9.19855 
-8.18213 -2.67724 -9.67557 
-8.29507 -2.69962 -9.2554 
-8.43787 -2.66922 -9.62006 
-8.55312 -2.68709 -9.26717 
-8.70129 -2.64842 -9.75443 
-8.84855 -2.63525 -9.85296 
6.95233 -4.27385 4.74137 
6.76116 -4.23395 4.26713 
6.6382 -4.25268 4.6362 
6.49936 -4.26045 4.84993 
6.4027 -4.25436 4.8239 
6.2618 -4.26551 5.0904 
6.17524 -4.25217 4.9475 
6.05464 -4.24241 4.88227 
5.95694 -4.23594 4.8514 
5.82932 -4.23552 4.933 
5.73562 -4.22577 4.84951 
5.61327 -4.21869 4.82631 
5.51429 -4.21317 4.81074 
5.39369 -4.20442 4.76096 
5.30077 -4.19236 4.64193 
5.17693 -4.18782 4.65823 
5.08096 -4.1803 4.61021 
4.96181 -4.16754 4.49866 
4.85727 -4.16981 4.60526 
4.74117 -4.15633 4.48051 
4.64475 -4.14497 4.37457 
4.52044 -4.13967 4.37984 
4.42096 -4.13686 4.40575 
4.30129 -4.12377 4.28948 
4.20189 -4.11851 4.27811 
4.07537 -4.11743 4.34897 
3.97518 -4.11228 4.33998 
3.85544 -4.10133 4.25621 
3.75733 -4.0951 4.22932 
3.53012 -4.0893 4.29804 
3.40123 -4.08987 4.39562 
3.30006 -4.08915 4.45447 
3.17733 -4.07842 4.37622 
3.0759 -4.07872 4.45084 
2.95358 -4.06759 4.36619 
2.84901 -4.07464 4.54545 
2.62306 -4.0688 4.61269 
2.50333 -4.06147 4.58399 
2.4061 -4.04003 4.32554 
2.2735 -4.06006 4.72137 
2.16734 -4.07118 4.96359 
2.04143 -4.07102 5.04799 
1.94133 -4.07118 5.11957 
1.81212 -4.07668 5.29242 
1.71736 -4.07034 5.26149 
1.59215 -4.07137 5.36371 
1.48551 -4.08492 5.64319 
1.36054 -4.08562 5.74015 
1.26055 -4.08291 5.76803 
1.13309 -4.09201 5.99439 
1.03518 -4.08622 5.97409 
0.596901 -4.05005 5.72753 
0.37296 -4.0568 5.9848 
0.150021 -4.04134 5.90411 
-1.34768 -3.61156 0.411325 
-1.4501 -3.59669 0.256158 
-1.58044 -3.59484 0.318171 
-1.68432 -3.59133 0.336828 
-1.92316 -3.55605 -0.0340187 
-2.05653 -3.55355 0.0203465 
-2.1585 -3.54402 -0.0539388 
-2.28754 -3.5324 -0.141212 
-2.39504 -3.52785 -0.135896 
-2.52243 -3.52612 -0.0740746 
-2.63047 -3.51907 -0.106408 
-2.87278 -3.49411 -0.317808 
-3.00329 -3.48549 -0.358525 
-3.10697 -3.48378 -0.312661 
-3.24534 -3.46138 -0.557276 
-3.34525 -3.46112 -0.492079 
-3.47761 -3.45337 -0.518151 
-3.58625 -3.43881 -0.66409 
-3.83645 -3.40859 -0.949961 
-3.95236 -3.42681 -0.592913 
-4.07176 -3.39158 -1.04557 
-4.20923 -3.37701 -1.17173 
-4.31513 -3.37303 -1.15875 
-4.44787 -3.36295 -1.22003 
-4.55511 -3.35343 -1.29044 
-6.16717 -2.88777 -7.24843 
-6.29591 -2.85039 -7.72723 
-6.41445 -2.87704 -7.24021 
-6.5416 -2.84328 -7.66501 
-6.69719 -2.82144 -7.88895 
-6.79437 -2.83537 -7.61004 
-7.10512 -2.74734 -8.73216 
-7.25342 -2.73748 -8.77911 
-7.38364 -2.71155 -9.08285 
-7.52539 -2.7025 -9.12212 
-7.62248 -2.71001 -8.9407 
-7.8077 -2.66071 -9.56143 
-7.93311 -2.64377 -9.73183 
-8.03186 -2.67902 -9.12781 
-8.11831 -2.69978 -8.7525 
-8.32183 -2.63222 -9.63783 
-8.39678 -2.66327 -9.11407 
-8.59335 -2.60813 -9.81571 
-8.70491 -2.60209 -9.83002 
6.9595 -4.23269 4.65507 
6.75463 -4.2055 4.38465 
6.64393 -4.2139 4.58761 
6.50106 -4.22624 4.8722 
6.40472 -4.21906 4.82979 
6.2701 -4.22505 5.01278 
6.17962 -4.21341 4.89903 
6.05008 -4.21401 4.99696 
5.96331 -4.19577 4.78089 
5.8345 -4.19646 4.87976 
5.73962 -4.18773 4.81304 
5.61277 -4.18569 4.86933 
5.51607 -4.17763 4.81399 
5.39354 -4.17131 4.8026 
5.30283 -4.15638 4.63916 
5.18225 -4.14712 4.58214 
5.0826 -4.14487 4.61663 
4.96097 -4.1352 4.55391 
4.86275 -4.13008 4.5441 
4.74238 -4.12038 4.48026 
4.64153 -4.114 4.45305 
4.5194 -4.108 4.44638 
4.43041 -4.09379 4.29264 
4.30373 -4.08702 4.2774 
4.20215 -4.08393 4.30061 
4.07815 -4.0778 4.29318 
3.97346 -4.08145 4.42036 
3.85431 -4.07 4.3292 
3.75376 -4.06114 4.26435 
3.63434 -4.05304 4.22405 
3.53197 -4.05048 4.25573 
3.40251 -4.05489 4.41138 
3.30256 -4.0522 4.43955 
3.18384 -4.03189 4.21416 
3.08442 -4.03062 4.26332 
2.95033 -4.0431 4.54413 
2.85465 -4.03138 4.43288 
2.73135 -4.02421 4.40934 
2.63148 -4.02158 4.4382 
2.4981 -4.0384 4.78421 
2.39959 -4.02611 4.66632 
2.27382 -4.02674 4.76238 
2.17302 -4.02616 4.82291 
2.0419 -4.03812 5.0939 
1.94638 -4.02663 4.98594 
1.81144 -4.04893 5.41591 
1.71406 -4.04725 5.45766 
1.58949 -4.04419 5.49713 
1.48691 -4.04921 5.64364 
1.36096 -4.05227 5.77663 
1.26522 -4.04175 5.68349 
1.13695 -4.05157 5.9202 
1.03828 -4.04827 5.93829 
0.815755 -4.04185 5.99445 
0.597736 -4.02024 5.8179 
0.472559 -4.02639 5.99708 
0.374527 -4.01731 5.92732 
0.255614 -4.00888 5.88185 
0.149238 -4.01484 6.04523 
-1.44827 -3.56045 0.276285 
-1.57862 -3.54786 0.175784 
-1.68758 -3.53943 0.123373 
-1.82167 -3.51771 -0.112562 
-1.92549 -3.51353 -0.104165 
-2.05669 -3.50738 -0.106806 
-2.16272 -3.49965 -0.150583 
-2.28288 -3.51166 0.113952 
-2.387 -3.5033 0.0592818 
-2.52442 -3.48021 -0.195085 
-2.62617 -3.486 -0.0373256 
-2.76912 -3.45174 -0.456761 
-2.86697 -3.45951 -0.271847 
-3.00862 -3.43444 -0.553254 
-3.10763 -3.43966 -0.40596 
-3.23846 -3.42923 -0.473415 
-3.34491 -3.42436 -0.473597 
-3.47753 -3.41381 -0.541754 
-3.58028 -3.40765 -0.564005 
-3.82958 -3.37347 -0.908743 
-3.96254 -3.36778 -0.903009 
-4.06707 -3.36135 -0.928129 
-4.20361 -3.34676 -1.05454 
-4.31085 -3.33546 -1.15141 
-4.44615 -3.32186 -1.26372 
-4.55925 -3.30158 -1.49227 
-6.26822 -2.85026 -7.13713 
-6.42667 -2.81932 -7.49555 
-6.53525 -2.81333 -7.51109 
-6.69568 -2.77954 -7.91136 
-6.81013 -2.77125 -7.95765 
-7.35948 -2.69455 -8.73808 
-7.48634 -2.70136 -8.54752 
-7.65941 -2.6325 -9.46932 
-7.75815 -2.6705 -8.82648 
-8.06358 -2.60289 -9.63794 
-8.1876 -2.58924 -9.75866 
-8.30729 -2.60567 -9.42749 
-8.4297 -2.58866 -9.60004 
-8.58808 -2.56863 -9.79364 
-8.71672 -2.54551 -10.0544 
6.75248 -4.17483 4.46485 
6.65611 -4.16848 4.43519 
6.51662 -4.17697 4.65844 
6.4019 -4.18771 4.8984 
6.17885 -4.18121 4.95325 
6.05056 -4.18113 5.03981 
5.96105 -4.16712 4.89034 
5.84055 -4.1553 4.79499 
5.74026 -4.15036 4.78935 
5.61815 -4.14638 4.81299 
5.5199 -4.13973 4.78024 
5.30761 -4.11679 4.58049 
5.18543 -4.11 4.56194 
5.0897 -4.10268 4.51746 
4.96388 -4.09729 4.52252 
4.8672 -4.09218 4.51182 
4.75134 -4.07505 4.3334 
4.64898 -4.07107 4.34367 
4.52442 -4.06853 4.39071 
4.42949 -4.05694 4.28144 
4.30302 -4.05484 4.33649 
4.20701 -4.0433 4.2286 
4.07992 -4.04183 4.29355 
3.979 -4.04189 4.3636 
3.85535 -4.0351 4.3462 
3.75595 -4.02843 4.31395 
3.54047 -4.00154 4.05711 
3.40562 -4.01685 4.37984 
3.30685 -4.01533 4.42465 
3.18069 -4.00513 4.35762 
3.08584 -3.99643 4.29179 
2.95542 -3.99507 4.36067 
2.85948 -3.98921 4.33834 
2.63838 -3.97464 4.27071 
2.50461 -3.99172 4.61937 
2.40471 -3.98104 4.52712 
2.27331 -3.99608 4.84351 
2.17439 -3.9902 4.82289 
2.04456 -3.99768 5.02449 
1.9468 -3.99573 5.06218 
1.81152 -4.01894 5.50426 
1.71992 -3.99996 5.2815 
1.59076 -4.0133 5.57083 
1.49213 -4.00224 5.47205 
1.36629 -4.00868 5.65528 
1.26468 -4.01143 5.76632 
1.13624 -4.02128 6.00265 
1.03892 -4.01672 6.0008 
0.595382 -4.00177 6.08029 
0.375439 -3.98542 5.98527 
0.254825 -3.97887 5.96955 
0.151158 -3.97567 5.99251 
-1.4467 -3.53431 0.448276 
-1.58135 -3.50793 0.143861 
-1.68652 -3.49115 -0.036449 
-1.81043 -3.49704 0.137391 
-1.91546 -3.49863 0.233445 
-2.05695 -3.46638 -0.154758 
-2.15552 -3.4685 -0.055011 
-2.29327 -3.45002 -0.238535 
-2.38566 -3.45804 -0.0542996 
-2.52408 -3.44836 -0.104963 
-2.63215 -3.43114 -0.289793 
-2.86684 -3.4191 -0.309651 
-3.0044 -3.39779 -0.535805 
-3.10558 -3.40213 -0.400938 
-3.24574 -3.37584 -0.700269 
-3.34033 -3.3892 -0.43426 
-3.47743 -3.36656 -0.680654 
-3.58479 -3.35989 -0.707196 
-3.82308 -3.34328 -0.793431 
-3.96231 -3.33322 -0.849027 
-4.06886 -3.31232 -1.09035 
-4.20109 -3.3097 -1.03878 
-4.30682 -3.30113 -1.09508 
-4.44318 -3.28534 -1.23896 
-4.55105 -3.27471 -1.32474 
-6.14881 -2.82687 -6.96581 
-6.27112 -2.8016 -7.26193 
-6.44403 -2.7517 -7.89392 
-6.54668 -2.75318 -7.80111 
-6.71991 -2.70371 -8.42638 
-6.83564 -2.69531 -8.47322 
-6.96551 -2.70277 -8.2716 
-7.06103 -2.71701 -7.99154 
-7.22997 -2.67885 -8.44952 
-7.36039 -2.64958 -8.80035 
-7.51232 -2.62893 -9.00651 
-7.60961 -2.64438 -8.70709 
-7.7555 -2.63023 -8.81956 
-7.91308 -2.57886 -9.48432 
-8.0104 -2.6165 -8.85082 
-8.18549 -2.54779 -9.76448 
-8.29941 -2.57316 -9.30417 
-8.46702 -2.51091 -10.1256 
-8.56714 -2.54685 -9.51585 
-8.68125 -2.53699 -9.58563 
-8.868 -2.49001 -10.1641 
6.96288 -4.16311 4.68317 
6.75025 -4.14155 4.5053 
6.6632 -4.12762 4.35601 
6.52184 -4.13869 4.61807 
6.40669 -4.14888 4.84915 
6.18869 -4.13705 4.82078 
6.05412 -4.14249 4.99393 
5.96668 -4.12552 4.79954 
5.84847 -4.1141 4.70916 
5.73845 -4.11955 4.86571 
5.61792 -4.11297 4.84944 
5.52435 -4.1022 4.75206 
5.30352 -4.08837 4.69556 
5.18182 -4.08068 4.66353 
5.08851 -4.07047 4.57427 
4.96435 -4.06372 4.55791 
4.86517 -4.06055 4.57822 
4.74537 -4.04903 4.48743 
4.64955 -4.03741 4.37889 
4.42797 -4.0263 4.36369 
4.30431 -4.0177 4.31936 
4.20348 -4.01467 4.34282 
4.08734 -3.99866 4.18242 
3.9808 -4.00528 4.35424 
3.85829 -3.9976 4.32296 
3.75514 -3.99726 4.3883 
3.64162 -3.97891 4.19104 
3.53873 -3.97328 4.17696 
3.41333 -3.96989 4.21183 
3.31289 -3.96946 4.27405 
3.1809 -3.97661 4.47114 
3.08692 -3.95777 4.25326 
2.9581 -3.96318 4.42226 
2.85861 -3.95862 4.42203 
2.73385 -3.95509 4.45437 
2.63528 -3.94664 4.39522 
2.51035 -3.94767 4.49585 
2.40115 -3.96079 4.76704 
2.2809 -3.94618 4.63036 
2.183 -3.93931 4.59444 
2.04896 -3.95777 4.9625 
1.94734 -3.96188 5.09356 
1.819 -3.96771 5.26856 
1.71792 -3.97157 5.39537 
1.5939 -3.97435 5.52176 
1.49366 -3.96923 5.51369 
1.36536 -3.98178 5.78931 
1.26658 -3.97871 5.81088 
1.13774 -3.98926 6.05706 
1.04071 -3.97999 5.98461 
0.693763 -3.96128 5.94163 
0.5985 -3.96263 6.02699 
0.475859 -3.95513 5.99859 
0.377349 -3.95125 6.00788 
0.257017 -3.94528 6.00068 
0.151914 -3.94579 6.08025 
-0.184644 -3.88594 5.41423 
-1.57778 -3.48061 0.296895 
-1.68099 -3.4564 0.00481983 
-1.81128 -3.45831 0.122628 
-1.91868 -3.45053 0.0796539 
-2.046 -3.44796 0.128338 
-2.15267 -3.43823 0.0557093 
-2.28049 -3.4347 0.0903211 
-2.3902 -3.41089 -0.19126 
-2.51448 -3.4228 0.0723275 
-2.62707 -3.3946 -0.273079 
-2.86438 -3.38113 -0.312282 
-3.006 -3.35142 -0.660313 
-3.09984 -3.37096 -0.303263 
-3.23048 -3.36274 -0.336971 
-3.33706 -3.35459 -0.385952 
-3.47439 -3.32898 -0.675571 
-3.57063 -3.33916 -0.457109 
-3.82037 -3.31435 -0.657681 
-3.95983 -3.29592 -0.838066 
-4.06196 -3.28644 -0.910106 
-4.20218 -3.26382 -1.15286 
-4.29862 -3.27591 -0.905688 
-4.43802 -3.25385 -1.14061 
-4.54563 -3.24426 -1.21049 
-6.28824 -2.73658 -7.62092 
-6.43279 -2.72426 -7.70636 
-6.56333 -2.68935 -8.13982 
-6.67657 -2.71692 -7.64914 
-6.8185 -2.67597 -8.16526 
-7.0801 -2.65383 -8.31752 
-7.22304 -2.64479 -8.35481 
-7.37636 -2.58924 -9.08189 
-7.49943 -2.60325 -8.78763 
-7.62847 -2.58116 -9.02998 
-7.76354 -2.57737 -8.9941 
-7.88862 -2.56018 -9.16577 
-8.03025 -2.55619 -9.12832 
-8.18636 -2.50648 -9.76595 
-8.32218 -2.50568 -9.68486 
-8.43168 -2.50192 -9.66605 
-8.59073 -2.48184 -9.85765 
-8.84396 -2.46871 -9.8806 
6.96001 -4.13264 4.76452 
6.76391 -4.09452 4.32966 
6.65674 -4.09809 4.45566 
6.52008 -4.1063 4.67085 
6.40659 -4.11616 4.8948 
6.18161 -4.11078 4.96753 
6.05614 -4.10749 5.00378 
5.96517 -4.09295 4.8489 
5.84567 -4.08358 4.7905 
5.74206 -4.08191 4.83602 
5.61762 -4.07987 4.89019 
5.51725 -4.07532 4.89069 
5.30822 -4.04876 4.63694 
5.18275 -4.04669 4.69151 
5.08358 -4.04274 4.69997 
4.96347 -4.03179 4.61847 
4.86333 -4.02911 4.64665 
4.74738 -4.01186 4.46837 
4.65177 -4.00198 4.38617 
4.52912 -3.99379 4.34755 
4.42998 -3.99222 4.3916 
4.30646 -3.98181 4.32048 
4.20877 -3.97369 4.26598 
4.08563 -3.96685 4.24778 
3.98399 -3.96868 4.34419 
3.85958 -3.96158 4.32302 
3.76106 -3.95722 4.32508 
3.64148 -3.94295 4.19381 
3.54637 -3.92371 3.97177 
3.41174 -3.94016 4.30852 
3.31296 -3.93383 4.28142 
3.18267 -3.93778 4.42895 
3.08719 -3.92517 4.306 
2.95915 -3.92693 4.41938 
2.86342 -3.91605 4.32238 
2.73719 -3.91599 4.40752 
2.63419 -3.91503 4.46335 
2.51113 -3.91616 4.56392 
2.40875 -3.90764 4.5067 
2.27925 -3.91956 4.77259 
2.18015 -3.91208 4.72854 
2.0505 -3.92194 4.9638 
1.9439 -3.94001 5.30579 
1.81746 -3.94 5.39181 
1.72091 -3.9327 5.34879 
1.59371 -3.94408 5.60498 
1.49133 -3.9464 5.70943 
1.36468 -3.95082 5.86153 
1.26848 -3.94634 5.86032 
1.13917 -3.95551 6.08511 
1.04318 -3.94194 5.94822 
0.820376 -3.93516 5.99907 
0.600073 -3.92842 6.04879 
0.478035 -3.91867 5.98656 
0.378649 -3.92152 6.09689 
0.255823 -3.91947 6.15007 
0.156153 -3.91172 6.10244 
-1.44329 -3.45527 0.388675 
-1.57647 -3.4335 0.154987 
-1.67869 -3.42743 0.134252 
-1.91569 -3.41013 0.0379898 
-2.04986 -3.39292 -0.127023 
-2.15053 -3.39671 -0.00188005 
-2.28563 -3.37978 -0.162081 
-2.38467 -3.38203 -0.0608994 
-2.5198 -3.36718 -0.190183 
-2.62397 -3.36027 -0.222127 
-2.86725 -3.33331 -0.45795 
-2.99048 -3.33291 -0.379812 
-3.10174 -3.32648 -0.399792 
-3.24547 -3.29754 -0.733132 
-3.34373 -3.30474 -0.558678 
-3.47166 -3.30073 -0.531132 
-3.57894 -3.29111 -0.601334 
-3.8214 -3.26725 -0.791403 
-3.95502 -3.26107 -0.792321 
-4.06294 -3.24651 -0.935797 
-4.19423 -3.23756 -0.979518 
-4.31133 -3.20648 -1.36286 
-4.44195 -3.20768 -1.25578 
-4.53636 -3.22586 -0.920224 
-6.15116 -2.73578 -7.12424 
-6.41283 -2.70651 -7.38179 
-6.52673 -2.69732 -7.44099 
-6.67435 -2.67669 -7.6478 
-6.82077 -2.62895 -8.25956 
-7.05663 -2.64071 -7.92292 
-7.24793 -2.56622 -8.903 
-7.38147 -2.54044 -9.19602 
-7.50736 -2.55118 -8.94987 
-7.56126 -2.61255 -7.99788 
-7.77396 -2.52576 -9.14666 
-7.87376 -2.53384 -8.95787 
-7.98783 -2.55696 -8.53517 
-8.16695 -2.48249 -9.52309 
-8.31289 -2.47301 -9.56466 
-8.4271 -2.46481 -9.60887 
-8.61329 -2.40892 -10.3149 
-8.68209 -2.45048 -9.64813 
-8.86163 -2.40682 -10.1764 
6.96513 -4.09327 4.70765 
6.76257 -4.06331 4.40048 
6.66798 -4.05331 4.31608 
6.51747 -4.07436 4.73022 
6.41161 -4.07661 4.83529 
6.18471 -4.07405 4.95104 
6.05683 -4.07018 4.98024 
5.96346 -4.06242 4.92843 
5.84511 -4.0503 4.82882 
5.74322 -4.0474 4.85473 
5.62589 -4.03695 4.77928 
5.52866 -4.02947 4.73417 
5.30496 -4.02001 4.74534 
5.18734 -4.00787 4.64499 
5.08607 -4.00692 4.69957 
4.97069 -3.98953 4.51977 
4.87009 -3.98662 4.54483 
4.75059 -3.97523 4.45681 
4.65238 -3.96768 4.41143 
4.5269 -3.96421 4.44492 
4.43046 -3.95619 4.39132 
4.312 -3.94214 4.26325 
4.21223 -3.93759 4.26345 
4.08732 -3.93049 4.24273 
3.9892 -3.92641 4.24872 
3.86049 -3.92813 4.36159 
3.765 -3.91606 4.2472 
3.54268 -3.90132 4.17943 
3.41485 -3.90029 4.25075 
3.31865 -3.89429 4.2271 
3.1886 -3.89358 4.30474 
3.09161 -3.88539 4.24896 
2.96135 -3.88557 4.34006 
2.864 -3.88394 4.38195 
2.64338 -3.86438 4.24141 
2.51374 -3.87392 4.4709 
2.41054 -3.87314 4.52942 
2.28548 -3.87286 4.61013 
2.18192 -3.87597 4.72656 
2.05206 -3.88612 4.96529 
1.95084 -3.89149 5.11369 
1.82434 -3.88882 5.15993 
1.72501 -3.89139 5.26554 
1.59622 -3.90896 5.61367 
1.49584 -3.89506 5.47559 
1.3683 -3.91049 5.7912 
1.26889 -3.91226 5.88485 
1.14006 -3.91996 6.08666 
1.04141 -3.92102 6.16941 
0.821849 -3.90133 6.02634 
0.696203 -3.9025 6.12902 
0.602478 -3.8902 6.01021 
0.478547 -3.893 6.13602 
0.380845 -3.8808 6.0213 
0.259554 -3.88585 6.17867 
0.158294 -3.87514 6.0886 
-0.179946 -3.81058 5.36047 
-1.57514 -3.40667 0.31533 
-1.67725 -3.38246 0.0255781 
-1.91228 -3.38523 0.22641 
-2.05333 -3.34237 -0.313632 
-2.15399 -3.34745 -0.16989 
-2.27549 -3.36431 0.162889 
-2.38218 -3.3488 0.00530907 
-2.5136 -3.34124 -0.0175003 
-2.62608 -3.32277 -0.214968 
-2.86071 -3.308 -0.274583 
-2.99202 -3.29788 -0.335512 
-3.10897 -3.26943 -0.678118 
-3.23778 -3.26822 -0.608407 
-3.33219 -3.28031 -0.364733 
-3.46706 -3.26796 -0.456362 
-3.58264 -3.24509 -0.71702 
-3.95049 -3.22738 -0.729597 
-4.05596 -3.21704 -0.811234 
-4.1999 -3.18573 -1.17786 
-4.29991 -3.19136 -1.02619 
-4.44231 -3.16646 -1.29887 
-4.55332 -3.14862 -1.48804 
-6.15443 -2.68977 -7.20775 
-6.29615 -2.63864 -7.87007 
-6.44291 -2.61992 -8.04794 
-6.52452 -2.65709 -7.44074 
-6.80006 -2.61876 -7.82196 
-6.96163 -2.58463 -8.21851 
-7.10083 -2.54672 -8.68626 
-7.21526 -2.56472 -8.34114 
-7.36452 -2.51233 -9.01704 
-7.47639 -2.5445 -8.46334 
-7.61768 -2.50723 -8.9203 
-7.76409 -2.49484 -9.00445 
-7.92307 -2.43971 -9.7144 
-8.01708 -2.48355 -8.99953 
-8.15537 -2.44987 -9.40522 
-8.28418 -2.45706 -9.2107 
-8.40389 -2.44374 -9.32687 
-8.61272 -2.3674 -10.3176 
-8.65268 -2.43705 -9.25651 
-8.82939 -2.39769 -9.7204 
6.97013 -4.05459 4.6617 
6.77522 -4.01783 4.25049 
6.68254 -4.00907 4.1836 
6.50895 -4.04924 4.89394 
6.4041 -4.05052 4.98358 
6.18297 -4.04186 5.00496 
6.06006 -4.03546 4.99346 
5.96723 -4.02434 4.89186 
5.84446 -4.01764 4.87584 
5.74685 -4.00926 4.81808 
5.62645 -4.00221 4.79519 
5.52654 -3.9983 4.80498 
5.30545 -3.98661 4.78162 
5.19137 -3.96803 4.58441 
5.09488 -3.96162 4.5549 
4.97319 -3.95257 4.50344 
4.87417 -3.94698 4.4877 
4.75457 -3.93764 4.4307 
4.65737 -3.92919 4.37145 
4.52565 -3.93148 4.49436 
4.43275 -3.92105 4.40306 
4.30966 -3.91099 4.33777 
4.21618 -3.89704 4.19485 
4.08639 -3.89971 4.32205 
3.99078 -3.89046 4.25007 
3.86538 -3.88702 4.28399 
3.75817 -3.89517 4.47674 
3.64418 -3.87279 4.22339 
3.55462 -3.84749 3.91033 
3.4194 -3.8609 4.19967 
3.3222 -3.85697 4.20734 
3.1901 -3.85789 4.31032 
3.092 -3.85245 4.29631 
2.96405 -3.85145 4.36804 
2.8664 -3.84761 4.37737 
2.73771 -3.85042 4.50584 
2.64189 -3.83407 4.32925 
2.51156 -3.84755 4.61641 
2.41389 -3.83235 4.45807 
2.29077 -3.82962 4.50099 
2.17657 -3.86001 5.02712 
2.05058 -3.86001 5.11236 
1.95434 -3.85055 5.03767 
1.822 -3.86733 5.37512 
1.72426 -3.86339 5.38306 
1.5993 -3.86752 5.52856 
1.49463 -3.87102 5.65105 
1.37131 -3.8702 5.72246 
1.27314 -3.86974 5.78205 
1.14225 -3.88385 6.0791 
1.04284 -3.88351 6.14138 
0.699492 -3.85936 6.01715 
0.602837 -3.86007 6.09301 
0.480957 -3.85038 6.03236 
0.382442 -3.84883 6.07628 
0.260033 -3.85021 6.17948 
0.157904 -3.83823 6.07169 
-0.180559 -3.79551 5.66993 
-0.275561 -3.76484 5.2814 
-1.57805 -3.34981 0.0335405 
-1.67199 -3.35445 0.165811 
-1.80722 -3.34423 0.106398 
-1.91415 -3.337 0.0721464 
-2.04943 -3.31891 -0.103467 
-2.15815 -3.30839 -0.185112 
-2.2816 -3.30233 -0.190974 
-2.38907 -3.29511 -0.224841 
-2.50783 -3.30705 0.0320391 
-2.62016 -3.29568 -0.0596898 
-2.85665 -3.27636 -0.184729 
-2.99256 -3.26052 -0.326655 
-3.09798 -3.25002 -0.410318 
-3.2299 -3.23813 -0.496374 
-3.34348 -3.22129 -0.66819 
-3.46519 -3.2279 -0.487971 
-3.57214 -3.22102 -0.517106 
-3.81077 -3.20315 -0.619305 
-3.95008 -3.18534 -0.78777 
-4.05762 -3.16896 -0.956783 
-4.19025 -3.16375 -0.943904 
-4.30659 -3.13884 -1.23295 
-4.44194 -3.1278 -1.30418 
-4.54411 -3.12263 -1.31115 
-6.15922 -2.63968 -7.34971 
-6.43483 -2.58911 -7.90981 
-6.53129 -2.60593 -7.59577 
-6.69599 -2.56374 -8.10735 
-6.79183 -2.58115 -7.78507 
-6.94941 -2.55395 -8.07988 
-7.09479 -2.50949 -8.63799 
-7.2506 -2.47972 -8.97207 
-7.37112 -2.46393 -9.12354 
-7.49525 -2.48103 -8.78664 
-7.59952 -2.48331 -8.68211 
-7.75082 -2.46425 -8.86089 
-7.9145 -2.40684 -9.59802 
-8.03626 -2.4206 -9.31192 
-8.15229 -2.41204 -9.35966 
-8.3285 -2.36927 -9.87191 
-8.43328 -2.37161 -9.76607 
-8.60976 -2.32673 -10.3093 
-8.70566 -2.3416 -10.0244 
-8.82675 -2.35605 -9.72871 
6.96404 -4.02613 4.77388 
6.76456 -3.99458 4.44428 
6.68394 -3.97307 4.18244 
6.50632 -4.01733 4.95243 
6.40257 -4.01866 5.04172 
6.18584 -4.00577 4.99803 
6.06033 -4.0028 5.03882 
5.96762 -3.99047 4.91993 
5.8463 -3.98161 4.87142 
5.75304 -3.96942 4.75498 
5.62275 -3.97272 4.89109 
5.52855 -3.96165 4.79178 
5.31635 -3.94028 4.62059 
5.18542 -3.94304 4.74926 
5.0909 -3.93318 4.66797 
4.97359 -3.91862 4.53288 
4.87633 -3.91217 4.5036 
4.75569 -3.90395 4.46398 
4.65138 -3.90558 4.5582 
4.44069 -3.87536 4.25588 
4.30953 -3.87673 4.3643 
4.21498 -3.86583 4.26771 
4.09067 -3.85817 4.23887 
3.98979 -3.86011 4.33542 
3.86633 -3.85314 4.31614 
3.76864 -3.84777 4.30289 
3.64445 -3.83972 4.26819 
3.54975 -3.82166 4.06654 
3.42268 -3.82193 4.15623 
3.32207 -3.81793 4.16512 
3.19313 -3.82239 4.31758 
3.09162 -3.8221 4.3818 
2.96669 -3.81576 4.37268 
2.87064 -3.8031 4.25144 
2.74282 -3.80681 4.39199 
2.64489 -3.79806 4.32944 
2.51668 -3.80193 4.47282 
2.41453 -3.79818 4.48654 
2.29076 -3.79639 4.54362 
2.19183 -3.79432 4.57987 
2.05439 -3.82195 5.07867 
1.95431 -3.81844 5.09455 
1.82417 -3.82749 5.31535 
1.72838 -3.82152 5.29216 
1.60036 -3.83421 5.56509 
1.49872 -3.83052 5.57936 
1.37363 -3.83297 5.69977 
1.27229 -3.83913 5.85877 
1.14293 -3.8521 6.1367 
1.04366 -3.85018 6.1754 
0.823548 -3.83812 6.14668 
0.699769 -3.83383 6.16711 
0.603682 -3.82872 6.15685 
0.48197 -3.82065 6.12028 
0.383646 -3.8167 6.12856 
0.261597 -3.82286 6.30152 
0.159905 -3.80916 6.16867 
-0.0573094 -3.78446 5.95217 
-0.17806 -3.74977 5.52363 
-0.274822 -3.73618 5.38922 
-0.400463 -3.72694 5.33811 
-1.67146 -3.31843 0.190176 
-1.80988 -3.30436 0.0768622 
-1.91322 -3.28797 -0.0943543 
-2.044 -3.29002 0.0241132 
-2.15247 -3.2682 -0.223449 
-2.27813 -3.26176 -0.233269 
-2.3866 -3.25826 -0.211514 
-2.5124 -3.25456 -0.180838 
-2.61777 -3.26086 -0.0170732 
-2.74639 -3.24257 -0.199141 
-2.8623 -3.22277 -0.41188 
-2.99023 -3.22364 -0.312652 
-3.10216 -3.2011 -0.568415 
-3.2292 -3.19706 -0.542053 
-3.32397 -3.20722 -0.328548 
-3.4618 -3.1929 -0.446038 
-3.56845 -3.18756 -0.452376 
-3.94894 -3.14189 -0.866717 
-4.05984 -3.12977 -0.969998 
-4.19897 -3.10185 -1.28645 
-4.30034 -3.11098 -1.08379 
-4.43856 -3.08833 -1.32328 
-4.53997 -3.09152 -1.20781 
-6.2797 -2.57884 -7.5702 
-6.42633 -2.55786 -7.77953 
-6.51472 -2.58701 -7.29103 
-6.67845 -2.54151 -7.84946 
-6.79659 -2.53583 -7.85308 
-7.06903 -2.49605 -8.25365 
-7.23708 -2.45202 -8.78739 
-7.34758 -2.44765 -8.77689 
-7.49064 -2.4461 -8.70298 
-7.61373 -2.4259 -8.91667 
-7.76055 -2.41032 -9.04649 
-7.86376 -2.41461 -8.91348 
-8.10775 -2.4148 -8.74555 
-8.32146 -2.33036 -9.84267 
-8.44556 -2.31846 -9.9337 
-8.60129 -2.293 -10.2026 
-8.66104 -2.34551 -9.38999 
-8.85322 -2.28762 -10.1112 
6.97107 -3.98433 4.68116 
6.78189 -3.94233 4.1934 
6.68552 -3.93723 4.18338 
6.51437 -3.9762 4.86825 
6.4048 -3.98279 5.03812 
6.28144 -3.97756 5.04434 
6.18815 -3.96951 4.98904 
6.06058 -3.96734 5.04291 
5.96748 -3.95497 4.9243 
